ply
format ascii 1.0 
element vertex 1347
property float32 x 
property float32 y 
property float32 z
property uchar red  
property uchar green
property uchar blue
element face 0
property list uchar int vertex_indices
end_header
0.673894 -1.05933 4.03354 104 94 84
0.715177 -1.76756 4.10813 47 39 36
0.719417 -1.87964 4.05727 75 77 72
0.719417 -1.87964 4.05727 75 77 72
0.714395 -0.897172 4.00865 140 143 136
0.750745 -1.44182 4.1826 126 122 113
0.751186 -1.44447 4.1928 126 122 113
0.721759 -0.969232 4.01889 114 115 107
0.753496 -1.40692 4.18195 103 104 98
0.74832 -1.76238 4.09459 28 30 25
0.758747 -1.24197 4.16433 114 115 109
0.772727 -1.3537 4.18663 119 116 109
0.772727 -1.3537 4.18663 119 116 109
0.775672 -0.930248 4.08981 122 121 116
0.775672 -0.930248 4.08981 122 121 116
0.794668 -1.88819 4.11143 64 65 60
0.794782 -1.88726 4.11056 64 65 60
0.816699 -1.76081 4.15985 120 119 114
0.819828 -1.87333 4.10554 58 60 57
0.819828 -1.87333 4.10554 58 60 57
0.859879 -1.78627 4.17436 148 149 141
0.859879 -1.78627 4.17436 148 149 141
0.895239 -1.50669 4.29129 107 108 102
0.895239 -1.50669 4.29129 107 108 102
0.888345 -1.40828 4.24677 113 115 110
0.91085 -1.74803 4.19289 102 103 95
0.91515 -1.77823 4.19078 87 88 80
0.940035 -1.02797 4.20446 118 117 112
0.971842 -1.74349 4.21866 96 97 91
0.982883 -1.87573 4.21049 45 49 48
1.02351 -1.25873 4.30762 102 103 97
1.05081 -1.3847 4.32336 124 121 112
1.05687 -1.40257 4.36044 124 121 112
1.06298 -1.46678 4.37792 113 114 108
1.07039 -1.46737 4.387 121 122 116
1.09258 -1.28432 4.34841 110 107 100
1.11114 -1.49269 4.41183 105 108 101
1.10243 -1.31287 4.36576 113 115 110
1.10147 -1.27386 4.35688 132 129 122
1.11136 -1.4045 4.36341 129 130 124
1.20402 -0.933681 4.38459 115 105 95
1.23971 -1.4007 4.46562 119 109 99
1.13193 1.07648 4.0779 133 109 85
1.20739 -0.84403 4.30723 128 122 110
1.24977 -1.37614 4.45764 118 109 100
1.26151 -1.38523 4.47421 119 111 100
1.19906 -0.637501 4.24805 128 122 110
1.25673 -1.28484 4.44569 107 100 90
1.25673 -1.28484 4.44569 107 100 90
1.27605 -0.979432 4.39508 108 99 90
1.29331 0.0354043 4.09181 101 94 86
1.33042 0.0383922 4.13446 0 0 0
1.40237 -0.459001 4.33258 0 0 0
1.43385 -1.9073 4.3399 0 0 0
1.41623 0.213593 4.17144 0 0 0
1.51251 -1.06917 4.45507 0 0 0
1.40253 0.436806 4.09747 0 0 0
1.69755 -1.58211 4.35607 0 0 0
1.69662 -1.54378 4.34477 0 0 0
1.7273 -1.50139 4.35743 0 0 0
1.73403 -1.55494 4.37168 0 0 0
1.82247 -0.981942 4.33879 0 0 0
1.87604 -1.87553 4.31513 0 0 0
1.87654 -1.89477 4.31933 0 0 0
1.88979 -1.84184 4.33686 0 0 0
2.05813 -1.73016 4.62538 0 0 0
2.00946 -1.53648 4.51308 0 0 0
1.93623 -1.87716 4.33569 0 0 0
1.94217 -1.88888 4.34768 0 0 0
2.07822 -1.49732 4.53533 0 0 0
2.03594 -1.7207 4.41388 0 0 0
2.03992 -1.76747 4.42456 0 0 0
2.12077 -1.52765 4.56663 0 0 0
2.09095 -1.71333 4.43916 0 0 0
2.04022 0.237183 4.19891 0 0 0
2.29406 0.307098 4.62681 0 0 0
2.29626 0.284494 4.61778 0 0 0
2.27095 0.694915 4.52731 0 0 0
2.43609 0.316227 4.83415 0 0 0
2.46614 0.744844 4.81061 0 0 0
2.39852 0.187462 4.66518 0 0 0
2.4628 0.284262 4.66736 0 0 0
2.54633 0.836417 4.81451 0 0 0
2.50228 0.263324 4.72132 0 0 0
17.09 -3.96756 34.9609 0 0 0
2.48298 0.308127 4.62459 0 0 0
2.49101 0.657748 4.6399 0 0 0
2.56525 1.02776 4.77058 0 0 0
2.55036 1.21778 4.69891 0 0 0
2.50015 1.61109 4.56714 0 0 0
2.6226 0.335971 4.76507 0 0 0
2.60328 0.313047 4.72293 0 0 0
2.37913 0.408031 4.28139 0 0 0
2.64232 0.454737 4.74757 0 0 0
2.3945 0.171761 4.28749 0 0 0
2.6907 0.196677 4.81802 0 0 0
2.76637 -0.0633864 4.94613 0 0 0
2.69609 0.298876 4.81417 0 0 0
2.69788 0.398203 4.80461 0 0 0
2.63215 0.706919 4.67582 0 0 0
2.67957 0.544019 4.75584 0 0 0
2.56294 1.35245 4.48762 0 0 0
2.6854 0.799894 4.69809 0 0 0
2.50047 1.69186 4.35005 0 0 0
2.64345 1.14956 4.58203 0 0 0
2.72022 0.802126 4.71469 0 0 0
2.74399 0.729312 4.73533 0 0 0
2.68089 0.73183 4.58809 0 0 0
2.72489 0.928823 4.67266 0 0 0
2.79864 0.364606 4.78977 0 0 0
2.60083 1.58647 4.44582 0 0 0
2.58477 1.66245 4.41311 0 0 0
2.79397 0.200067 4.76998 0 0 0
2.60821 1.62637 4.43913 0 0 0
2.8229 0.379089 4.79787 0 0 0
2.82536 0.364581 4.80191 0 0 0
2.61291 1.63854 4.43352 0 0 0
2.76445 0.70682 4.6876 0 0 0
2.93629 -0.0538772 4.97762 0 0 0
2.84142 0.238813 4.81433 0 0 0
2.80224 0.523808 4.74454 0 0 0
2.80699 0.295177 4.74457 0 0 0
83.8793 28.1427 141.861 0 0 0
2.63942 1.59651 4.45045 0 0 0
2.68441 1.36444 4.52296 0 0 0
2.83249 0.463703 4.7719 0 0 0
2.82731 0.567348 4.7625 0 0 0
2.72313 1.06062 4.58644 0 0 0
2.83078 0.51155 4.75037 0 0 0
2.66133 1.55041 4.45726 0 0 0
2.74977 1.08859 4.58607 0 0 0
2.79909 0.939427 4.65308 0 0 0
2.84211 0.735797 4.71638 0 0 0
2.65467 1.59007 4.40143 0 0 0
2.87261 0.466689 4.76228 0 0 0
2.7529 1.22743 4.55437 0 0 0
2.913 0.451476 4.78904 0 0 0
2.92379 0.400381 4.80141 0 0 0
2.92911 0.401547 4.81324 0 0 0
2.71609 1.56985 4.45101 0 0 0
2.92617 0.471925 4.79196 0 0 0
2.79507 1.13783 4.57672 0 0 0
2.9562 0.403201 4.82897 0 0 0
2.609 1.76206 4.2578 0 0 0
2.59628 1.86621 4.22163 0 0 0
3.11251 0.0527577 5.04056 0 0 0
3.08736 0.114328 4.99502 0 0 0
2.95063 0.740518 4.75836 0 0 0
2.94654 0.61569 4.75147 0 0 0
2.8977 1.02895 4.66565 0 0 0
3.06761 0.313391 4.90977 0 0 0
3.02004 0.72521 4.81902 0 0 0
3.01158 0.821733 4.79514 0 0 0
2.73476 1.66305 4.35006 0 0 0
2.73476 1.66305 4.35006 0 0 0
2.75307 0.678589 4.3743 0 0 0
2.93668 0.704108 4.64257 0 0 0
3.10863 0.280042 4.93125 0 0 0
2.97149 0.497682 4.68124 0 0 0
79.4764 27.4235 131.74 0 0 0
3.00079 0.949661 4.74456 0 0 0
3.12973 0.23551 4.92104 0 0 0
3.12973 0.23551 4.92104 0 0 0
2.93542 1.39639 4.61363 0 0 0
2.96839 1.20791 4.66213 0 0 0
2.98976 1.25649 4.62976 0 0 0
2.84715 1.67429 4.40631 0 0 0
2.96515 1.74375 4.42927 0 0 0
-1.25 1.35368 2.16959 128 128 126
-1.26513 1.17701 2.22444 42 37 34
-1.22073 1.23184 2.21327 215 214 209
-1.20331 1.35444 2.19369 151 151 151
-1.28107 0.670626 2.431 200 199 195
-1.53146 -0.183292 3.46155 213 220 228
-1.35004 -0.119083 2.54794 220 227 235
-1.28813 0.22646 2.5234 179 180 175
-1.29913 0.0133139 2.55752 220 227 235
-1.0373 1.21113 2.30691 45 47 42
-1.15226 -0.116061 2.637 217 214 209
-1.06668 0.0215668 2.78746 205 201 192
-1.45378 0.984935 7.8544 21 23 18
-0.930478 -0.0220135 2.76163 212 209 200
-0.910038 -0.0532661 2.84015 145 135 126
-0.853594 0.0328934 2.83996 217 214 207
-0.648491 0.240039 2.94067 209 206 199
-0.621739 0.215179 2.96484 210 209 204
-0.278772 1.04639 2.49585 10 15 9
-0.275431 0.722722 2.56841 164 164 156
-0.24647 1.40987 2.42028 10 12 9
-0.242452 0.806998 2.56604 189 186 179
-0.160963 -1.88425 3.2878 71 54 46
0.0548135 1.1966 2.65879 30 31 26
0.269089 -1.53681 3.93961 113 106 96
0.302825 -1.25782 3.91947 23 24 19
0.104366 -1.96755 3.44426 109 105 94
0.088686 -1.90751 3.28183 112 108 96
0.290537 -1.88854 3.8126 72 62 53
0.514679 -1.81195 3.99223 81 80 75
0.410003 -0.948557 3.49316 148 142 128
0.582957 -1.09024 4.02095 169 163 149
0.63193 -1.02175 3.99772 138 134 125
1.41871 -1.74483 4.39715 105 101 90
1.39454 -1.87541 4.3611 113 109 100
1.63482 -1.67176 4.25907 110 106 94
2.70759 0.201591 4.86403 0 0 0
2.72125 1.17372 4.67854 0 0 0
2.8406 0.237495 4.77803 0 0 0
-9.87683e+09 1.40414e+09 1.87985e+10 69 66 61
-6.8286e+09 1.01936e+09 1.31474e+10 26 27 21
-6.81258e+09 9.44248e+08 1.31561e+10 67 68 62
-6.81258e+09 9.44248e+08 1.31561e+10 67 68 62
-1.98324e+10 8.67404e+08 3.90818e+10 21 23 18
33.2171 -1.10577 -71.8984 153 153 153
17.6432 -2.14859 -38.7823 96 101 104
-1.11694 1.09221 2.80422 220 221 216
-8.45507 0.557697 24.2176 207 207 199
-3.89542 -0.169007 17.3327 210 209 204
-0.262477 0.870816 2.80132 227 227 225
-0.245741 0.874414 2.81067 226 227 222
-0.209739 0.878974 2.83135 227 228 223
-0.145681 0.998478 2.8555 220 221 216
-0.145681 0.998478 2.8555 220 221 216
-0.118494 0.931986 2.87673 233 232 227
-0.0714716 1.0426 2.90141 152 149 144
-0.0386294 0.889509 2.93091 162 163 157
0.0162623 1.03795 2.95045 161 162 154
0.242928 -1.36715 3.6255 61 61 53
0.27544 -1.49303 3.94431 63 64 56
0.280401 -1.44322 3.93304 101 101 91
0.321318 -1.82662 3.89725 102 93 84
0.346912 -1.5815 3.50422 107 103 94
0.365635 -1.68208 3.46289 106 101 95
0.49628 -1.86391 3.99883 122 118 107
0.516584 -1.52681 4.07886 18 19 13
0.594904 -1.81389 4.03516 113 109 98
0.627053 -1.86854 4.05833 86 85 80
0.651905 -1.8087 4.06397 82 81 77
0.602565 -1.53025 3.55204 44 46 43
0.916401 -1.49262 4.27658 107 106 102
0.931501 -1.87951 4.18272 48 53 49
0.930963 -1.47244 3.63485 91 91 83
1.1744 -1.53925 4.40894 102 95 85
1.04869 -1.12231 3.71867 118 110 99
1.88369 1.03454 3.90549 0 0 0
2.40814 0.307573 4.77837 0 0 0
2.35589 0.264248 4.27346 0 0 0
2.79725 -0.0304969 4.79579 0 0 0
-4.68265 7.84074 21.172 137 130 120
-5.26728 2.71867 26.8079 209 206 199
-1.44624 0.357609 4.22675 208 205 196
-2.66125 -0.0228331 12.9922 217 214 207
-0.767777 0.363436 11.5213 219 216 209
0.397716 -1.7957 3.92731 118 111 101
0.219756 -1.64831 3.34808 116 109 99
0.498755 -1.79317 3.92679 81 80 75
0.562468 -1.87623 4.01464 77 76 71
-1.38406 0.154676 2.51006 72 67 61
-1.38933 -0.0584674 2.53256 73 71 59
-1.22369 -0.0118623 2.674 214 216 215
5.50235e+09 -1.14043e+09 -7.96158e+09 218 217 215
-1.02757 0.0347822 2.88171 184 182 183
-3.91672 -0.000466717 7.72633 186 184 185
4.51561e+08 1.3222e+07 -8.68335e+08 40 40 38
-3.31081 -5.68816 10.4511 38 35 30
-2.83089 -2.80661 10.0752 214 210 207
-2.83089 -2.80661 10.0752 214 210 207
-2.62611 -3.27729 10.2057 214 215 209
-0.286842 -1.73491 3.34654 17 23 11
-2.33452 -3.71391 10.3508 83 83 75
-0.215978 -1.68073 3.40071 38 34 23
-1.59541 2.28383 8.90074 45 43 31
-0.0349685 -1.43747 3.42811 71 71 63
-1.52778 2.21876 9.06594 99 104 100
0.00611721 -1.93596 3.44548 46 42 31
0.274396 -1.4467 3.84612 87 80 72
0.263824 -1.49331 3.93884 87 80 72
0.361957 -1.9245 3.9114 17 19 16
0.346547 -1.4344 3.96634 66 69 60
0.411931 -1.93537 3.92058 86 92 82
0.401329 -1.2653 3.986 205 206 200
0.485451 -1.79055 3.99445 72 73 65
0.48798 -1.84952 4.00243 64 59 55
0.517043 -1.42625 4.05543 115 102 94
0.515481 -1.42047 4.05769 115 102 94
0.613646 -1.91334 4.03894 25 28 21
0.613646 -1.91334 4.03894 25 28 21
0.642947 -1.2383 4.11041 211 210 206
0.695668 -1.76851 4.08059 162 158 146
0.712537 -0.971813 4.05369 21 22 17
0.723684 -1.28815 4.14489 188 182 170
0.751729 -1.90464 4.1117 136 132 123
0.849905 -2.34353 4.38776 79 80 75
0.855764 -1.89597 4.16509 114 111 104
0.855764 -1.89597 4.16509 114 111 104
0.87323 -2.36168 4.40201 79 80 75
0.858533 -1.75362 4.17131 125 126 120
0.905773 -2.33996 4.42356 85 74 70
0.895041 -1.74985 4.18998 111 112 106
0.910904 -1.513 4.24881 142 142 132
0.928765 -1.74432 4.19642 108 109 103
0.9912 -2.30382 4.46504 122 123 117
0.969231 -1.78421 4.23983 116 117 111
1.01984 -2.2934 4.47682 98 99 93
1.0532 -2.34581 4.48589 88 90 79
1.01486 -1.38448 4.30125 135 130 124
1.0282 -1.74419 4.26655 110 111 105
1.04909 -1.30542 4.30274 115 103 91
1.09731 -2.34694 4.50898 99 99 91
1.0576 -1.39846 4.32382 141 142 136
1.10129 -1.73555 4.30079 125 121 110
1.25135 -1.31425 4.40587 132 124 113
1.65083 -1.93012 4.26363 0 0 0
1.89946 -2.28491 4.65042 0 0 0
1.90737 -2.31463 4.65366 0 0 0
1.90737 -2.31463 4.65366 0 0 0
1.83653 -1.77368 4.3557 0 0 0
1.92225 -2.27884 4.66043 0 0 0
1.99724 -2.28914 4.6886 0 0 0
1.92986 -1.76882 4.37113 0 0 0
2.0274 -2.29319 4.70023 0 0 0
1.98699 -1.75329 4.37963 0 0 0
2.02291 -1.52799 4.50739 0 0 0
2.06979 -1.74264 4.42916 0 0 0
2.0863 -1.83675 4.41715 0 0 0
2.0863 -1.83675 4.41715 0 0 0
2.12818 -1.83861 4.46562 0 0 0
2.17544 0.263058 4.60976 0 0 0
2.26863 0.291838 4.59236 0 0 0
2.25882 0.284443 4.5282 0 0 0
2.24976 0.205177 4.62229 0 0 0
2.42195 0.210843 4.61812 0 0 0
2.61298 0.295172 4.73728 0 0 0
2.67744 0.394801 4.73455 0 0 0
2.8446 0.385835 4.62584 0 0 0
-1.55944 -0.828141 23.2455 0 0 0
2.9035 0.545814 4.62032 0 0 0
-2.74765 0.314027 12.3298 216 213 204
0.254019 -2.02053 5.5505 20 22 17
-0.00212483 -1.42228 3.38234 6 22 12
0.625761 -1.68084 3.88803 32 34 31
1.09188 -0.760763 2.95498 0 0 0
-2.47426 1.49012 2.35518 88 84 75
-2.47426 1.49012 2.35518 88 84 75
-6.69783 -6.80075 3.60006 130 146 146
-7.54985 -7.5692 3.86509 164 177 186
-7.57989 -7.51492 3.94881 37 38 30
-7.56784 -7.8914 3.97836 164 174 184
-7.5839 -7.84354 3.98005 163 173 183
-7.43384 -7.87236 3.97876 166 174 185
-6.66749 -7.203 3.80744 165 173 184
-7.53387 -7.81121 4.00568 165 173 184
-1.84125 1.06364 2.51589 62 66 51
-6.79702 -7.59689 3.9785 163 171 182
-6.7396 -7.65333 3.99278 162 172 182
-7.38686 -8.15812 4.15904 161 171 181
-1.91504 -0.0206804 2.62774 188 185 176
-1.81147 0.204675 2.62161 197 190 180
-1.84928 -0.261409 2.65943 185 181 170
-6.81552 -7.04854 4.09419 21 26 19
-7.33904 -8.11947 4.25121 165 171 183
-7.33904 -8.11947 4.25121 165 171 183
-1.81751 -0.0925713 2.66795 194 187 177
-1.79901 0.308599 2.64744 94 84 72
-7.35566 -7.89187 4.29701 36 29 36
-1.75366 0.173245 2.66405 91 83 70
-1.71529 0.167062 2.65742 91 83 70
-1.78749 -0.043911 2.68814 187 183 172
-6.64305 -7.4219 4.18248 25 24 20
-7.2542 -6.55835 4.27331 92 102 93
-7.4072 -7.43891 4.3558 103 99 98
-7.47316 -7.42821 4.37574 15 24 21
-1.73048 -0.144421 2.69739 171 165 153
-1.67405 0.646951 2.64909 206 203 198
-7.37907 -7.45971 4.37335 29 34 27
-1.72275 0.314142 2.68136 198 195 186
-6.65979 -7.08579 4.22521 17 18 12
-7.33211 -7.59132 4.39841 17 20 13
-1.90465 -0.408857 2.77037 184 180 169
-7.32098 -7.48465 4.3926 25 31 21
-1.6676 0.295915 2.69374 201 197 186
-7.19496 -7.09284 4.403 27 29 18
-1.59919 0.257434 2.69596 208 203 197
-1.59017 0.20323 2.70553 207 204 197
-1.62865 0.319792 2.71339 201 194 184
-1.61913 0.436325 2.70551 213 212 207
-1.61913 0.436325 2.70551 213 212 207
-1.57703 1.32328 2.65092 102 95 85
-1.62206 0.267601 2.72794 206 203 194
-7.34263 -6.26846 4.46654 184 190 202
-1.54691 1.33194 2.65749 117 123 113
-5.56786 -0.897393 3.76505 199 186 180
-1.77839 -0.442076 2.82128 199 186 180
-1.61511 0.259986 2.743 203 200 191
-1.53906 1.26988 2.67566 122 125 114
-1.55445 1.33414 2.67609 108 108 98
-1.74697 -0.467996 2.82767 201 193 182
-1.55475 0.487143 2.72779 203 199 190
-1.50725 1.37409 2.66665 116 118 107
-1.58268 0.134754 2.7566 205 202 195
-1.55168 1.35091 2.68162 119 120 112
-1.54473 1.24791 2.68583 81 81 73
-7.27132 -6.13144 4.51571 185 191 203
-1.52641 1.15011 2.69113 123 123 115
-1.52321 -0.14093 2.76517 209 202 194
-1.58025 0.676831 2.73369 179 179 167
-1.5488 1.08431 2.704 122 123 115
-7.22202 -6.03023 4.53061 184 192 203
-7.21625 -5.88878 4.52202 190 196 208
-1.56437 1.14074 2.7151 107 104 95
-1.5429 1.10128 2.71356 87 82 76
-1.53315 0.548063 2.74631 182 183 169
-1.57918 0.905249 2.7421 67 65 52
-1.6145 0.0536591 2.80092 207 205 193
-1.6145 0.0536591 2.80092 207 205 193
-1.47822 -0.102222 2.77792 207 204 195
-1.53633 0.794115 2.74832 81 79 67
-1.56283 0.641115 2.76535 90 81 72
-1.56912 0.574713 2.77366 73 67 53
-1.54563 0.905774 2.75477 83 80 73
-1.59688 0.457944 2.79785 91 85 71
-1.55512 0.270576 2.80471 181 177 168
-1.48709 -0.132761 2.81196 209 206 197
-1.59826 0.253543 2.82685 118 127 110
-1.56235 0.227286 2.82072 185 196 179
-1.56235 0.227286 2.82072 185 196 179
-1.54554 0.15571 2.8248 187 184 177
-1.56662 0.206773 2.83597 86 80 66
-1.59239 0.249319 2.84108 82 79 62
-1.5544 -0.0115235 2.85591 181 174 166
-1.51101 0.576528 2.81108 94 92 80
-1.45193 0.930911 2.78926 69 61 50
-1.56754 -0.605646 2.93931 201 199 187
-1.37931 0.435279 2.89655 68 69 55
-1.31366 0.0202858 2.98244 109 103 89
-1.52098 0.675247 3.00067 116 116 108
-1.27888 -0.00803854 2.99625 82 76 62
-0.296262 -2.1068 3.2078 71 72 66
-0.296262 -2.1068 3.2078 71 72 66
-0.211803 -2.05344 3.2592 43 39 36
-0.353297 -1.09413 3.239 116 105 101
-0.499265 -2.60468 3.4675 55 54 52
-0.499265 -2.60468 3.4675 55 54 52
-0.336406 -1.12391 3.28097 193 192 187
-0.336406 -1.12391 3.28097 193 192 187
-0.465349 -2.56757 3.47512 178 157 166
-0.206084 -1.28234 3.27427 188 192 178
-0.0838363 -1.96236 3.32214 33 30 23
-0.338242 -2.60583 3.516 28 30 17
-0.0260843 -2.02832 3.33913 41 38 33
-0.299002 -2.57949 3.51734 83 84 68
-0.0257174 -1.93339 3.34564 69 70 62
-0.294219 -2.56634 3.53771 34 30 19
0.120152 -2.04441 3.37365 105 110 106
-0.063194 -1.54632 3.42814 26 31 25
0.150212 -2.04719 3.39753 27 28 22
0.150212 -2.04719 3.39753 27 28 22
0.106795 -1.9231 3.40859 16 21 15
0.136717 -1.91397 3.42311 8 10 5
0.0892183 -1.26988 3.37964 211 208 201
0.0509234 1.50081 3.11717 28 31 24
0.0404518 -1.36689 3.42447 189 185 182
0.0625856 -1.44683 3.42398 179 177 182
0.0564784 -1.42778 3.43009 129 125 122
0.0564784 -1.42778 3.43009 129 125 122
0.0635397 -1.78257 3.46589 70 66 63
-0.0160298 -1.73221 3.49852 47 47 39
-0.0867223 -2.49496 3.62651 42 38 29
0.182082 -1.94273 3.44029 18 24 12
0.188365 -1.9461 3.43815 18 24 12
0.0204001 1.02034 3.23046 159 160 155
-0.057088 -2.52749 3.64333 66 65 63
0.105493 -1.82785 3.49084 33 41 30
0.101438 -1.83071 3.49278 33 41 30
-0.0761468 1.3648 3.2462 214 213 208
-0.0699863 1.04463 3.29152 160 162 159
-0.0737938 1.3543 3.26052 212 212 204
-0.00362066 1.371 3.2329 215 215 207
-0.0972094 0.439221 3.37571 168 172 173
-0.0703924 1.29404 3.27179 185 186 181
-0.0666919 1.04338 3.30315 130 132 129
-0.0666606 0.690849 3.34955 205 204 209
-0.0663299 1.01154 3.31543 193 192 190
0.279069 -2.01642 3.47846 150 149 144
-0.0372172 1.20357 3.28697 32 33 27
-0.0754937 0.656036 3.36455 180 178 181
-0.0754937 0.656036 3.36455 180 178 181
-0.0704705 0.255807 3.41231 21 27 13
-0.0580229 0.9976 3.32581 179 180 175
-0.0643889 0.564393 3.39037 45 46 30
-0.0809724 0.103049 3.45227 35 35 23
-0.0809724 0.103049 3.45227 35 35 23
-0.0878328 -1.67725 3.65861 49 41 30
-0.0656923 1.17904 3.32795 29 34 30
-0.105966 -1.08162 3.6136 203 202 198
-0.0651498 -0.263547 3.50169 209 210 204
-0.0651498 -0.263547 3.50169 209 210 204
0.14724 -1.91102 3.58014 69 69 69
-0.0744891 -1.17514 3.61173 13 24 16
-0.073776 -1.27794 3.62803 207 207 199
-0.0567778 -1.26924 3.62077 207 207 199
0.134798 -1.8692 3.59078 52 49 42
-0.0693884 -1.32897 3.63388 213 210 205
-0.103263 -1.07759 3.6249 205 204 200
0.258321 -1.98024 3.5501 62 68 64
0.217105 -2.00426 3.56907 62 68 64
-0.0358268 -0.985087 3.59125 212 211 206
-0.0358268 -0.985087 3.59125 212 211 206
0.147884 -1.94964 3.61751 78 84 74
-0.0641091 -1.21433 3.65108 167 167 157
-0.0731981 -1.1974 3.65383 106 119 109
0.172217 -1.99673 3.62094 33 35 24
0.172217 -1.99673 3.62094 33 35 24
-0.0044391 0.0929426 3.47749 39 40 34
-0.0144249 0.13713 3.48536 28 29 21
0.0278566 1.55083 3.30196 32 33 27
-0.019057 -1.5802 3.69376 150 147 140
-0.019057 -1.5802 3.69376 150 147 140
0.0239804 -1.83292 3.70109 35 35 25
-0.0263939 0.454616 3.4734 14 16 11
-0.00789778 0.0103596 3.51827 41 42 28
0.122735 -1.86866 3.67191 33 33 21
-0.0182872 -1.64756 3.73746 48 51 42
0.0303196 0.0124926 3.53324 62 62 54
-0.0197048 -1.64682 3.75285 44 25 21
0.0124907 -1.20111 3.68617 168 169 161
0.210444 -2.02228 3.67844 56 58 47
0.0241123 -1.16032 3.67564 36 44 33
0.0108958 -1.16589 3.68439 31 39 28
-0.0123454 -1.65496 3.75974 36 16 9
0.051116 -1.29039 3.68312 211 210 205
-0.0257613 -0.703852 3.65624 29 31 18
0.0265293 -1.17644 3.68633 134 142 129
-0.0339355 -0.555316 3.64556 172 149 141
0.0559403 -1.26015 3.69032 208 207 202
0.0543348 -1.25963 3.69134 208 207 202
0.0619894 -1.27319 3.69116 212 211 206
0.0524554 -1.41971 3.71941 197 196 192
0.0304724 -1.67788 3.76531 95 97 86
0.0255862 -1.66954 3.77388 187 174 165
-0.0171875 -0.710629 3.68302 67 61 49
-0.0162549 -0.984613 3.72165 215 212 205
0.108406 -1.81231 3.75748 17 20 13
0.00147918 -1.17847 3.742 40 53 44
0.0344829 -1.68782 3.78514 192 183 174
-0.0119961 -1.64304 3.80742 177 180 173
0.236475 -1.96377 3.71436 63 65 54
0.0188595 -1.19429 3.74188 141 143 132
-0.0134318 -1.62673 3.81265 153 155 150
-0.0106033 -1.62602 3.81147 153 155 150
0.0284216 -1.27878 3.75018 209 208 203
0.0318605 -1.2425 3.74517 201 201 193
-0.0120735 -1.64996 3.82303 179 179 171
-0.0152586 -1.65312 3.82495 179 179 171
0.0120333 -0.690639 3.69317 75 72 63
-0.0682288 -2.45614 3.95328 105 106 100
0.210449 -1.83486 3.73194 13 16 7
0.253951 -1.96887 3.74985 23 26 15
0.0517555 -1.08815 3.77501 199 198 194
0.0517555 -1.08815 3.77501 199 198 194
0.0517683 -1.54056 3.83525 184 183 178
0.139306 -1.79123 3.82291 36 27 20
0.0251315 -2.40098 3.98188 40 42 31
0.306152 -1.99218 3.79212 14 17 8
0.103515 -1.61161 3.87666 184 184 174
0.130438 -1.41649 3.8633 204 201 196
0.142112 -1.54754 3.87886 143 125 111
0.153728 -1.32952 3.85325 211 210 205
0.276961 -1.91307 3.86417 193 190 183
0.157093 -1.41519 3.86979 200 199 194
0.292938 -1.80662 3.84888 193 190 183
0.323005 -1.80045 3.86341 190 190 182
0.215578 -1.54501 3.90965 184 184 176
0.346266 -1.80102 3.87218 191 191 183
0.260212 -1.40468 3.91568 198 197 193
0.255231 -1.51913 3.93437 121 121 111
0.278526 -1.36134 3.91833 206 206 198
0.287916 -1.34981 3.92155 208 207 202
0.28602 -1.27597 3.93601 210 209 204
0.313022 -1.46859 3.94916 167 172 165
0.325243 -1.41591 3.94293 186 182 179
0.331208 -1.39903 3.94485 191 190 186
0.331511 -1.53607 3.96799 184 184 176
0.353961 -1.41953 3.96021 173 169 166
0.351935 -1.49618 3.97319 188 185 176
0.35778 -1.30615 3.9459 210 209 204
0.389759 -1.08672 3.90991 23 18 14
0.499236 -1.83288 3.94621 194 194 186
0.379221 -1.42533 3.9751 161 160 158
0.466741 -2.41239 4.16643 177 170 160
0.47363 -1.07239 3.96337 40 25 22
0.47363 -1.07239 3.96337 40 25 22
0.508191 -1.52852 4.05111 184 181 172
0.52567 -2.39593 4.19288 174 174 164
0.622764 -1.46693 4.09263 186 186 174
0.654742 -0.954688 3.99809 202 201 197
0.661322 -0.851938 4.00331 211 210 205
0.691632 -0.986325 4.01529 188 189 184
0.668841 -1.22378 4.08905 213 210 205
0.678149 -1.45029 4.12095 187 187 179
0.684888 -1.29675 4.10135 202 201 196
0.692764 -1.41776 4.1235 184 185 177
0.693973 -1.48044 4.13698 188 185 178
0.726058 -0.987447 4.03427 183 182 180
0.832689 -1.75164 4.09244 191 190 185
0.723947 -1.25627 4.10882 207 206 202
0.723155 -1.48654 4.1488 181 181 173
0.741929 -1.28146 4.12952 202 201 197
0.769436 -2.35651 4.30102 170 170 160
0.768475 -1.30016 4.13481 196 195 191
0.7941 -1.05531 4.07443 165 168 159
0.766058 -1.36966 4.15619 185 186 178
0.766058 -1.36966 4.15619 185 186 178
0.7748 -1.43122 4.16616 190 187 180
0.777182 -2.33919 4.31796 64 66 55
0.786489 -1.06148 4.11456 159 160 152
0.800479 -0.984213 4.0939 177 176 172
-0.451028 -1.63266 5.22085 198 198 190
0.786456 -1.10958 4.15553 199 199 191
0.705008 -2.82214 4.52251 10 15 9
0.8031 -1.07615 4.14352 175 176 168
0.980847 -1.84937 4.14798 187 187 177
0.829038 -1.04064 4.14377 125 135 126
0.869747 -2.34569 4.34284 53 53 45
1.00517 -1.80474 4.17457 188 187 182
1.05649 -1.71224 4.21794 72 78 64
0.996197 -2.2748 4.41428 51 51 39
1.1268 -1.7323 4.23364 65 69 55
1.02948 -1.49667 4.29461 32 34 21
1.02504 -1.41308 4.29167 33 36 25
1.05356 -1.40623 4.29639 25 27 16
1.06411 -1.32515 4.29355 197 172 165
1.08478 -1.4043 4.3189 21 22 14
1.09837 -1.43733 4.32393 21 24 17
1.09483 -1.45427 4.34052 21 24 15
1.11279 -1.29549 4.30807 52 29 23
1.10323 -1.09077 4.27938 211 208 203
1.22542 -1.73605 4.30188 89 80 65
1.11334 -1.24112 4.30666 188 187 182
1.13741 -1.421 4.34212 16 19 12
1.13741 -1.421 4.34212 16 19 12
1.14728 -1.31512 4.32776 52 38 25
1.1442 -1.37288 4.34278 26 29 20
1.14796 -1.32944 4.33737 43 40 25
1.15206 -1.38415 4.34463 30 34 20
1.16962 -1.34827 4.34648 22 28 16
1.2843 -1.67821 4.31888 162 159 150
1.30776 -1.67748 4.3456 159 155 146
1.19695 -0.795515 4.26994 210 207 202
1.26816 -1.33608 4.40085 124 124 116
1.27736 -1.00419 4.33865 125 118 108
1.28134 -0.93196 4.33125 144 137 127
0.200828 -1.41165 5.50085 120 117 110
1.2849 -0.945561 4.33903 116 113 106
1.29582 0.0385452 4.14788 32 34 29
1.32364 0.0822622 4.1575 31 33 28
1.35199 -0.951221 4.36441 130 132 121
1.71717 -1.63148 4.24291 172 154 144
1.88051 -1.8258 4.24774 44 47 38
1.77092 -1.51026 4.31425 157 154 145
1.91505 -1.47788 4.26542 179 176 169
1.8342 -0.990382 4.25774 130 128 116
1.88237 -1.31327 4.33346 74 74 62
1.92834 -2.12434 4.57675 101 103 92
1.96146 1.1942 3.92936 0 0 0
0.555106 -1.67915 3.84539 80 79 74
0.605132 -1.89419 3.9972 74 75 69
0.841071 -1.66533 3.99304 30 32 27
1.00143 -1.38044 4.2986 111 113 102
0.86263 -1.66362 4.0078 28 30 25
1.92475 -1.29507 4.46269 0 0 0
2.02656 -1.77217 4.24437 0 0 0
-0.234589 -0.0219551 1.5567 33 35 34
-4.17818 -0.230973 8.34062 43 45 42
-0.301632 0.0388089 1.95624 198 198 200
2.27271 0.308226 4.60328 0 0 0
-1.88169 -0.14227 2.61141 189 185 174
-1.81118 -0.355284 2.68603 202 199 190
-1.59056 0.249102 2.71902 206 203 194
-1.54382 0.342294 2.79035 181 189 174
-1.53061 -0.0602816 2.85742 178 175 166
-2.11962 -1.70187 4.01507 197 192 189
0.0465262 -1.33014 3.41525 202 199 194
-1.34813 -2.01185 4.15426 123 128 124
0.0748147 -1.42517 3.42672 95 101 99
-1.66758 -1.64412 4.30199 172 158 155
0.0270072 -1.75653 3.50497 34 36 23
-0.044695 -2.51679 3.6367 66 65 63
0.235112 -1.99513 3.45913 87 89 84
0.259998 -2.00897 3.46128 35 36 28
0.03983 1.12504 3.3388 122 124 123
-2.31559 1.74243 4.48889 34 36 33
-1.22025 -3.19937 4.54261 56 55 53
0.051094 -1.28908 3.68261 211 210 205
-2.08466 2.21998 4.42582 25 26 20
0.0293123 -1.67708 3.76481 95 97 86
-0.0124563 -0.747133 3.68697 69 66 49
0.0558209 0.0985839 3.58699 42 45 38
0.0668795 -1.65451 3.86426 189 186 179
-0.00880379 0.000459056 3.81001 23 23 15
0.834979 -1.1255 4.10037 208 208 200
0.803991 -1.09338 4.12752 197 197 189
1.08384 -1.2135 4.2902 200 199 195
1.95017 -2.28821 4.62676 93 94 88
1.95156 -2.27867 4.62923 81 82 76
1.95916 -2.23259 4.64765 74 75 67
1.66424 -2.42442 5.22705 90 91 83
2.12776 -1.64827 4.43465 84 84 74
2.19183 -1.79591 4.42943 106 106 98
1.57924 -2.09245 5.9428 89 81 70
1.46547 -1.94657 6.12515 110 86 62
1.40286 -1.42394 6.15471 89 85 76
2.12929 -0.97267 4.84358 89 85 76
1.10379 0.240939 6.05993 113 107 93
2.37058 -1.74532 4.80029 69 66 59
1.11102 0.401846 6.13469 98 80 66
1.19922 0.25058 6.12453 89 86 77
1.20757 0.282484 6.15772 0 0 0
1.54466 0.307052 6.44132 0 0 0
1.72797 0.394044 6.62459 0 0 0
1.69199 0.891564 6.55451 0 0 0
2.4451 1.34029 4.698 0 0 0
2.57166 1.37977 4.69065 0 0 0
2.6266 1.41997 4.72846 0 0 0
2.62764 1.42508 4.7304 0 0 0
2.62764 1.42508 4.7304 0 0 0
2.08011 2.28898 5.83775 0 0 0
2.05499 1.36607 6.70112 0 0 0
2.06998 1.9005 6.37599 0 0 0
2.06998 1.9005 6.37599 0 0 0
2.12563 0.804556 6.94937 0 0 0
2.1442 2.15367 6.04192 0 0 0
2.11004 1.64708 6.61218 0 0 0
2.75589 1.19397 4.85526 0 0 0
2.77909 1.18288 4.87373 0 0 0
2.28988 2.17279 6.13288 0 0 0
-5.57846 1.41408 2.15647 83 79 67
-5.54318 -5.79675 2.65457 159 169 181
-5.54886 -5.75513 2.68917 164 172 183
-5.47118 -5.05854 2.67585 167 177 189
-5.43411 -5.23352 2.74235 168 176 189
-6.17402 -5.78582 3.35985 174 180 192
-1.74459 1.05776 2.53074 56 55 50
-1.63624 0.788619 2.61578 72 75 64
-1.64825 0.0646478 2.69307 79 79 69
-6.09412 -6.69731 3.67454 23 27 13
-1.48545 1.33541 2.61613 194 194 186
-1.55111 0.279672 2.7081 112 112 104
-1.48428 1.33723 2.63402 194 194 186
-1.56953 0.210503 2.73309 115 116 111
-1.5561 0.0104011 2.76937 98 94 85
-1.50639 1.16855 2.68753 197 197 187
-1.53572 0.23911 2.77783 99 95 83
-6.16664 -7.19256 3.89427 16 15 10
-1.50758 0.730753 2.74195 93 95 94
-1.51634 0.584255 2.75958 121 123 120
-1.50929 0.532558 2.77178 128 130 125
-6.32035 -7.44747 3.98392 17 23 11
-6.15635 -7.31424 3.99512 36 36 26
-11.49 -0.249734 4.11357 128 129 121
-1.4867 0.183529 2.84098 128 129 121
-1.44059 -0.131309 2.87208 105 99 87
-1.48535 -0.0428479 2.87614 124 121 116
-1.41565 0.686015 2.81752 115 117 116
-1.49811 -0.623993 2.96226 108 101 91
-8.80727 -1.95986 4.07438 117 118 110
-1.4395 -0.65645 2.97805 114 116 105
-6.11162 -7.04159 4.15367 21 20 15
-0.266771 0.934934 2.92164 181 180 176
-0.193807 0.942739 2.95462 187 188 183
-4.56507 -2.42103 4.23833 190 186 183
-0.245313 -1.08959 3.23615 190 186 183
-0.0445468 0.952228 3.02297 192 192 190
-0.0897994 -1.97266 3.32702 25 31 29
-0.151265 -1.11298 3.32485 135 112 106
0.0214358 0.961882 3.08021 197 196 192
0.173902 1.00918 3.08657 208 209 203
0.173902 1.00918 3.08657 208 209 203
-2.94121 -4.07858 4.33812 11 14 7
-0.234556 -2.50194 3.54107 11 14 7
-0.0191135 1.49459 3.09218 215 215 207
-0.0191135 1.49459 3.09218 215 215 207
0.0582864 -1.25195 3.39473 203 204 198
0.0229703 -1.30955 3.42064 191 186 182
0.0704379 -1.34779 3.41695 47 43 42
0.0508461 -1.40438 3.43021 44 40 41
0.249845 -2.00188 3.46189 32 31 27
-0.0710708 -2.53715 3.61632 4 9 5
-0.0606412 -1.09448 3.47694 183 180 175
-0.00957652 -1.69523 3.55411 49 42 34
-0.0828307 1.21894 3.28663 198 195 186
-0.0873803 1.1694 3.2974 217 214 205
-0.0798723 1.07569 3.30954 213 213 205
-0.0899554 0.0772988 3.44322 205 208 215
-0.0787256 1.36339 3.30567 171 172 167
-0.0861625 -0.526239 3.52877 184 187 180
-0.0130158 0.929049 3.36421 136 138 137
-0.0815595 -1.25146 3.62555 207 206 201
-0.0605901 -0.323988 3.53424 197 202 196
-0.0387149 1.25842 3.36065 149 150 142
0.0975715 -1.85143 3.67358 47 46 28
-0.0398794 1.19957 3.37334 213 213 203
-0.0340002 0.8686 3.40992 191 190 186
-0.0457806 0.968914 3.40324 104 100 97
-0.0268427 0.633706 3.43707 52 47 25
-0.0342041 0.727688 3.43668 89 100 94
-0.0062283 -0.0585517 3.52196 58 66 68
-0.0335965 0.692361 3.44529 214 215 220
-0.0356667 0.618966 3.45814 195 192 185
-0.0390007 0.745789 3.44837 22 21 17
0.0698757 0.386183 3.46345 154 142 142
-0.0176577 -0.112779 3.54472 23 23 13
-0.0147362 0.0202838 3.53283 100 118 128
-0.00692458 -0.0688833 3.54099 58 51 33
-0.0116016 -0.337923 3.57901 101 107 97
-0.0324466 0.207158 3.52362 58 84 97
0.0575419 -0.35334 3.56583 199 198 193
-0.148893 -2.44237 3.8738 40 40 30
-0.0186324 -1.6572 3.74513 43 43 43
0.196064 1.51997 3.32562 216 215 210
-0.00268592 -0.389515 3.59985 199 199 191
0.0541075 1.56727 3.36749 215 214 209
-2.72617 -4.00454 4.85354 24 28 14
-0.1223 -2.4713 3.88963 32 34 23
0.0255048 -0.675273 3.64723 29 26 19
0.0258695 -1.6498 3.76003 13 19 15
-0.0230243 -0.779304 3.67846 21 16 10
-0.0158474 -1.00636 3.71288 209 208 203
0.202837 -1.86575 3.7549 24 26 21
0.318818 -1.98564 3.73592 16 15 11
0.0177263 -1.65951 3.79447 22 33 25
0.00249244 -1.02934 3.72823 207 206 201
-0.00762869 -1.49888 3.79111 216 191 187
-0.00850299 -1.55737 3.80031 23 21 8
0.0092625 -1.13535 3.76168 151 144 136
0.211359 -1.8906 3.80677 25 27 16
-0.0190451 0.149915 3.72188 113 101 85
0.312651 -1.85134 3.86085 21 21 13
0.164487 -1.32396 3.84886 196 195 191
0.164562 -1.37193 3.85649 183 184 179
0.164562 -1.37193 3.85649 183 184 179
-0.000676495 -0.0442926 3.7834 101 81 70
0.261178 -1.33843 3.90362 174 173 169
0.261178 -1.33843 3.90362 174 173 169
0.437151 -1.79623 3.91211 171 172 166
0.280898 -1.46996 3.93213 192 189 180
0.28849 -1.44767 3.92984 188 185 178
0.31444 -1.52346 3.95368 190 187 182
0.385049 -1.44954 3.97525 191 188 181
0.389322 -2.39466 4.13276 14 19 13
0.562232 -2.37409 4.21552 9 10 4
0.722575 -0.997021 4.03482 185 185 175
0.669897 -1.45347 4.12479 184 185 171
0.723165 -1.51057 4.14313 179 179 171
0.749475 -0.846575 4.07135 207 206 202
0.816537 -1.09871 4.07774 203 202 197
0.748474 -1.47741 4.16936 184 181 174
0.807552 -1.11144 4.11598 204 203 198
0.756243 -1.11137 4.14518 207 207 199
0.908629 -1.48521 4.24824 190 187 178
1.03439 -1.02342 4.22308 208 207 202
1.07593 -1.46443 4.3331 186 186 178
1.10621 -1.433 4.34203 188 187 182
2.28226 0.929304 3.41961 209 208 203
1.67367 -1.63866 4.25226 16 17 12
1.68675 1.21442 3.80365 49 41 30
1.82459 -1.80144 4.25567 16 18 13
1.7114 1.81475 3.72298 201 195 183
1.90325 -1.8763 4.26637 15 17 12
1.74371 1.54777 3.77916 136 134 122
1.95037 -1.87058 4.29334 14 16 13
1.97794 -1.82986 4.32235 12 17 11
1.98258 -1.79422 4.35376 13 15 12
1.80895 -0.916526 4.31556 110 107 100
1.80895 -0.916526 4.31556 110 107 100
1.91336 1.07012 3.93233 119 122 113
2.02758 -1.67716 4.40196 41 42 37
1.96242 1.22483 3.94392 132 128 116
2.16231 -1.86785 4.3962 88 93 86
1.97497 -1.51286 4.46579 99 102 93
2.19651 -1.86507 4.41697 101 98 91
2.06029 1.83656 3.89624 164 158 146
2.08693 -0.970997 4.44418 85 85 75
2.09388 -1.17497 4.49654 86 88 77
2.15132 -1.21722 4.47453 104 104 96
2.17109 -1.26961 4.48286 97 98 90
2.06278 -1.2109 4.6339 87 83 72
2.34975 -1.79345 4.53027 77 77 65
2.34975 -1.79345 4.53027 77 77 65
2.27819 -1.79313 4.5907 84 80 68
2.052 -1.1675 4.65099 82 76 62
1.99069 -1.1632 4.71499 102 93 76
1.98179 -1.49906 4.81026 98 89 72
1.97253 0.793706 4.34331 85 82 75
1.9866 0.376657 4.4218 70 56 43
1.97893 1.29073 4.25829 142 142 132
2.09128 -1.33955 4.72526 95 87 76
2.01998 0.0460944 4.50053 101 97 86
2.0169 0.261556 4.46031 115 105 93
2.02003 0.203342 4.47106 113 105 92
1.99652 0.965664 4.32622 134 134 126
1.99503 1.08641 4.30404 129 126 117
1.99675 1.45322 4.22561 120 120 112
1.9769 1.34474 4.26343 130 130 118
1.98944 1.13045 4.30012 124 124 116
1.9777 1.49677 4.2435 137 134 127
2.03947 0.222902 4.47387 118 112 98
2.00038 0.91467 4.35641 58 59 54
2.2099 -1.64266 4.75282 90 84 72
2.25845 -1.83967 4.76243 90 84 70
2.2612 -1.85301 4.76434 72 60 44
2.00624 1.304 4.29835 150 150 142
1.99882 1.11543 4.3448 89 86 77
2.06698 1.62506 4.19042 120 113 103
2.06934 0.115218 4.52733 117 111 97
2.09724 -1.10065 4.76617 102 98 86
2.08544 -1.49878 4.86862 100 92 81
2.08621 -1.47118 4.86927 98 92 80
2.10798 -1.4335 4.84939 93 89 77
2.23435 -1.61914 4.78668 101 79 55
2.18655 -1.54202 4.82089 98 80 60
2.03214 0.693182 4.46144 115 109 97
2.24373 -1.61756 4.79534 75 65 55
2.01383 1.10943 4.39019 108 108 98
2.04197 0.29242 4.55091 123 115 104
2.04927 0.294794 4.54536 123 115 104
2.08026 -0.990965 4.80634 113 101 87
2.20318 -1.55163 4.82758 90 78 62
1.99426 1.52329 4.32061 122 119 112
2.04811 0.473194 4.51425 120 112 101
2.09759 -1.00386 4.80238 114 106 95
2.06257 0.254703 4.55083 127 117 107
2.04203 0.685824 4.47246 116 108 97
2.0151 1.35226 4.34905 130 129 125
2.03685 0.698618 4.47894 117 107 97
2.10008 -1.43478 4.90339 115 87 63
2.06219 -1.44783 4.93645 117 86 66
-0.00769932 2.27558 5.9094 117 117 107
1.96097 -2.1814 5.20255 61 62 54
2.27467 -1.64692 4.81001 72 69 60
2.00355 1.54935 4.32883 118 118 110
2.09678 0.221177 4.54678 118 110 99
2.07656 -0.108464 4.64285 119 109 99
2.07427 0.291796 4.56201 125 117 106
2.0792 -1.44488 4.95496 108 86 62
2.28312 -1.60954 4.82333 72 70 58
2.09482 0.257918 4.57349 118 108 98
2.092 0.292884 4.57512 117 110 100
2.34049 -1.735 4.81797 74 68 56
2.34049 -1.735 4.81797 74 68 56
2.06765 0.36792 4.58953 121 113 100
2.13041 -0.983518 4.84407 114 87 60
2.28255 -1.61792 4.88194 76 74 62
2.13625 0.261643 4.5857 112 106 94
2.13876 0.295637 4.59524 116 108 97
2.17827 0.202819 4.58998 113 103 93
2.14391 0.280819 4.60586 117 109 98
2.02166 1.36638 4.53647 140 125 106
2.40823 -1.69983 4.92553 66 67 61
2.02767 1.38521 4.54873 130 117 101
2.02767 1.38521 4.54873 130 117 101
2.21274 0.288333 4.64322 121 112 97
2.25621 0.620368 4.60413 127 97 71
2.2293 -1.65755 5.19656 68 65 58
-7.05208 -4.42598 15.4162 81 78 69
-7.05208 -4.42598 15.4162 81 78 69
-6.81456 -4.35315 15.5855 77 77 69
-6.77774 -4.40345 15.6039 74 73 68
-6.95611 -4.25724 15.8011 81 82 74
-6.74261 -4.24322 15.5803 78 75 68
2.40003 0.301882 4.75287 87 84 75
2.40392 0.315875 4.7576 89 86 79
-6.67276 -4.10761 15.7234 83 80 73
-6.46865 -3.43603 15.417 77 74 69
-6.45648 -3.53363 15.4687 72 71 66
-6.5309 -4.03556 15.6845 86 83 78
-6.43663 -3.46969 15.5053 75 75 67
-6.39626 -3.38663 15.4961 77 77 67
-6.48388 -3.36661 15.6323 78 75 68
2.56739 0.228281 4.82975 87 84 79
2.53945 0.319918 4.84313 81 81 73
2.57843 0.221023 4.83001 74 75 69
2.54544 0.362433 4.83409 83 83 75
2.54693 0.310173 4.8486 86 83 76
2.54693 0.310173 4.8486 86 83 76
2.54231 0.702843 4.76158 89 89 81
2.54231 0.702843 4.76158 89 89 81
2.5527 0.525188 4.80975 109 93 70
2.55758 0.530656 4.82337 0 0 0
2.57395 0.386437 4.85361 0 0 0
2.57229 0.517783 4.82238 0 0 0
2.55902 0.862407 4.74588 0 0 0
2.59996 1.88844 4.44453 0 0 0
2.67706 0.304821 4.85858 0 0 0
2.62363 1.92 4.45786 0 0 0
2.64394 0.839653 4.77319 0 0 0
2.72115 0.223206 4.86189 0 0 0
2.70507 0.27428 4.87322 0 0 0
2.73704 0.209699 4.85983 0 0 0
2.74731 0.229422 4.88166 0 0 0
2.68113 1.01071 4.73538 0 0 0
2.73196 0.526794 4.82398 0 0 0
2.68062 1.07703 4.72226 0 0 0
2.73685 0.517987 4.82824 0 0 0
2.7613 0.160335 4.91517 0 0 0
2.74534 0.439313 4.8705 0 0 0
2.71989 0.769394 4.80937 0 0 0
2.69866 1.76801 4.53036 0 0 0
2.71454 1.04693 4.75733 0 0 0
2.70926 1.79906 4.53316 0 0 0
2.71929 1.67202 4.57261 0 0 0
2.70827 1.2798 4.71063 0 0 0
2.68848 1.56754 4.66415 0 0 0
2.72474 1.84416 4.53594 0 0 0
2.71295 1.4379 4.68699 0 0 0
2.72816 1.44746 4.69526 0 0 0
2.85477 0.600688 4.81208 0 0 0
2.83612 0.355919 4.92884 0 0 0
2.83612 0.355919 4.92884 0 0 0
2.76949 1.64446 4.61184 0 0 0
2.7524 1.45249 4.71282 0 0 0
2.78331 1.01914 4.81167 0 0 0
2.78331 1.01914 4.81167 0 0 0
2.85667 0.297685 4.95529 0 0 0
2.80897 1.39126 4.67782 0 0 0
2.80897 1.39126 4.67782 0 0 0
2.78437 1.67806 4.61698 0 0 0
2.78437 1.67806 4.61698 0 0 0
2.80538 0.769649 4.88571 0 0 0
2.79595 1.0197 4.81858 0 0 0
2.78915 1.21973 4.77946 0 0 0
2.81326 0.922924 4.84948 0 0 0
2.82169 0.749175 4.89501 0 0 0
2.87668 0.262125 4.98127 0 0 0
2.77602 1.53658 4.71443 0 0 0
2.85686 0.408212 4.97351 0 0 0
2.84404 0.550676 4.95057 0 0 0
2.77851 1.58247 4.70779 0 0 0
2.85402 0.636111 4.93112 0 0 0
2.83906 0.889625 4.8731 0 0 0
2.81867 1.22153 4.80265 0 0 0
2.80766 1.46591 4.7513 0 0 0
2.86976 1.66433 4.6807 0 0 0
2.88248 1.68515 4.68758 0 0 0
2.89406 1.75284 4.66417 0 0 0
2.89406 1.75284 4.66417 0 0 0
-3.98865 -3.32351 16.9658 0 0 0
-4.00545 -3.71097 17.1399 0 0 0
-3.98795 -3.88476 17.2267 0 0 0
-3.94647 -3.97968 17.2239 0 0 0
-3.67734 -3.75932 17.0225 0 0 0
-3.47179 -3.95294 17.2142 0 0 0
-37.0067 -21.3667 85.6674 0 0 0
-5.91429e+06 -3.01253e+06 1.02004e+07 0 0 0
-9.67241e+06 -4.41783e+06 1.65309e+07 0 0 0
-1.86897e+07 -8.80351e+06 3.32555e+07 0 0 0
3.35217 1.85575 5.30829 0 0 0
0.427673 -1.96748 4.05045 106 101 95
1.06761 -1.70677 5.36559 107 108 102
2.04026 -1.16378 4.35471 0 0 0
-0.429815 -1.9924 4.81277 67 74 66
0.000765143 -1.38554 3.32727 76 73 66
-0.301134 -2.07818 3.90559 30 30 20
0.0172999 -1.21705 3.74705 181 181 173
0.335831 -1.7502 3.70585 23 26 17
-11.8728 4.28514 10.2157 29 29 27
-11.8728 4.28514 10.2157 29 29 27
-11.8709 4.25247 10.2664 30 35 31
-11.7258 4.26213 10.349 30 31 26
-11.5414 4.25767 10.4765 37 37 35
-11.5558 4.33493 10.4818 36 37 31
-11.1657 4.34304 10.5856 32 34 31
-10.9249 4.28946 10.7862 42 44 39
0.605425 -1.92221 4.01803 187 184 175
-10.6228 4.4639 10.8211 36 38 33
-10.6326 4.30502 10.9072 34 37 30
-7.43366 3.42548 8.84544 30 32 27
-10.4994 4.49624 10.8637 42 44 39
-10.5034 4.38107 10.9392 35 36 31
-10.4673 4.44879 10.9289 35 35 33
-13.1026 4.12737 13.8723 83 85 82
-13.177 4.16922 14.0048 90 91 83
-11.877 5.05342 13.5537 42 44 43
-11.8604 5.06481 13.6424 119 121 120
-10.9025 5.14666 14.1012 44 44 42
-0.575395 1.13066 3.24113 214 213 208
0.163638 1.49055 3.09071 215 214 209
0.0458293 -1.73736 3.46367 26 27 21
0.116423 -1.87443 3.62531 42 41 36
0.137116 1.29805 3.29495 21 22 16
0.0362904 -1.22221 3.72046 207 206 201
-0.392505 -1.87508 4.07353 27 27 15
-0.00974139 -1.09204 4.44456 207 206 202
-15.1183 -4.50638 11.6964 132 128 117
-0.00427703 -1.10478 4.45599 207 206 202
1.52604 1.19995 3.88761 177 169 156
2.12349 -1.26157 4.52089 103 100 93
2.01739 -1.19556 4.68964 73 70 55
2.30881 -1.81168 4.61841 83 80 65
2.16722 -1.65972 4.7486 98 92 80
2.038 0.270243 4.54584 122 114 103
2.06013 0.386122 4.53956 122 114 103
1.51005 -1.84095 5.54765 85 69 53
1.55034 -0.36989 5.44232 86 86 78
2.42009 -1.77783 4.96663 91 68 52
-4.07377 -4.92937 1.93609 164 171 187
-4.28784 -5.71579 2.13669 65 90 86
-4.64656 -6.56983 2.34765 158 166 179
-4.74348 -6.73093 2.41135 156 166 176
-4.86361 -6.96075 2.47614 155 165 175
-4.86033 -6.86921 2.47478 158 168 178
-4.94626 -7.05584 2.56805 156 166 176
-4.77368 -6.15624 2.68665 31 32 26
-4.61959 -5.2109 2.64376 173 181 194
-4.69125 -5.73452 2.68569 14 19 13
-0.947713 0.19881 2.65982 48 48 36
-1.08216 -0.226507 2.75634 129 135 123
-0.184282 -2.03776 3.20153 183 191 176
-6.00438 -6.67527 3.67542 87 89 88
-6.03955 -6.71427 3.72325 20 23 14
-0.128451 -1.4124 3.26024 185 173 159
0.372576 1.09982 3.09968 196 192 181
0.361503 1.02494 3.11063 200 196 187
0.33639 0.964367 3.14979 203 203 193
0.33639 0.964367 3.14979 203 203 193
0.0774247 -1.13582 3.39245 109 102 92
0.095011 -1.25513 3.41507 128 120 109
0.272108 -2.07402 3.50805 18 20 9
-4.67197 1.15061 3.48536 204 201 192
0.0773044 0.518607 3.30645 188 188 178
0.0439639 -1.75914 3.5357 74 70 58
0.183095 -2.0098 3.57465 27 30 23
0.152067 -1.97011 3.57388 59 56 51
0.135783 -1.90556 3.5797 59 59 49
1.26471 0.879413 3.25373 203 200 191
0.238263 0.940828 3.31159 203 200 191
0.0817561 0.126321 3.40682 211 209 197
0.243145 0.627783 3.39522 82 72 60
0.304145 1.35674 3.32799 56 57 51
-0.00341938 -1.1374 3.5992 202 200 188
0.111348 -1.86965 3.67341 188 191 182
-0.0383064 -1.22851 3.62019 201 195 181
-0.0383064 -1.22851 3.62019 201 195 181
0.241017 0.833502 3.39912 81 75 59
0.165569 0.0398173 3.50224 215 212 205
0.12744 -0.22368 3.55509 195 192 183
0.039779 -1.17638 3.6974 211 205 193
0.0721215 -1.76715 3.7705 198 198 186
0.228692 -2.01022 3.78581 76 79 72
0.0264029 -1.04955 3.71117 131 130 112
0.321886 -1.29169 3.99319 73 65 52
0.609217 -0.932712 4.01682 191 182 175
0.686141 -0.858677 4.08423 206 209 200
0.687087 -0.871066 4.09572 204 201 194
0.705005 -1.11047 4.14883 70 60 50
2.13094 1.0001 4.05836 207 207 199
2.07653 -1.30341 4.52201 95 79 64
2.07653 -1.30341 4.52201 95 79 64
2.02911 -1.60034 4.59606 8 10 5
2.03361 -1.57362 4.59978 13 18 11
2.02744 -1.53013 4.62147 11 12 4
1.9367 -0.882758 4.56484 186 186 176
2.01295 -1.25711 4.62673 181 183 172
2.00732 -1.23939 4.62822 64 65 51
2.16022 -1.76654 4.67289 25 27 16
2.00435 1.07664 4.2544 204 201 192
1.95344 -1.5368 4.73407 76 77 63
1.9391 -1.19138 4.69708 204 205 197
2.02285 1.41274 4.21584 39 40 26
2.01916 1.25787 4.24717 14 17 8
2.23088 -1.89352 4.73013 20 22 11
1.9442 -1.00982 4.68695 210 207 200
1.90532 -0.887345 4.68199 163 165 154
1.9391 -1.10947 4.71486 204 202 190
1.9127 -0.909953 4.69953 183 183 175
1.93986 -1.4831 4.79657 81 78 69
1.98623 -0.804576 4.66216 26 27 19
1.94407 -1.53748 4.81138 63 59 47
1.97837 0.038404 4.51779 19 22 15
1.94911 -1.05502 4.73415 207 200 194
1.81725 -2.35458 5.03342 11 12 4
2.03408 1.46577 4.2631 20 17 8
2.03298 -0.414747 4.63989 190 188 176
2.0525 -0.183887 4.60492 13 16 7
2.02708 -1.02135 4.77034 205 201 190
2.05093 0.895818 4.40921 103 95 84
2.05093 0.895818 4.40921 103 95 84
2.05636 -1.08253 4.78238 213 205 194
2.05901 -1.1037 4.78541 208 202 190
2.03501 0.048706 4.58262 25 25 13
2.07722 -1.11895 4.78798 195 188 178
2.07722 -1.11895 4.78798 195 188 178
1.91491 -2.31212 5.08738 7 12 8
2.07268 1.53255 4.31142 32 32 22
2.07268 1.53255 4.31142 32 32 22
1.99671 -0.841125 4.79232 172 168 156
2.20018 -1.67495 4.86863 15 18 11
2.25542 -1.78596 4.87488 15 16 11
2.02328 -1.06507 4.84613 89 78 60
2.02328 -1.06507 4.84613 89 78 60
2.03874 -1.10513 4.84903 111 98 81
2.17706 -1.66835 4.91845 14 15 9
2.05868 -1.48219 4.96365 64 60 49
2.11706 -1.02685 4.89608 128 124 112
2.107 -0.986791 4.89612 127 125 113
2.12464 1.64293 4.40908 110 107 100
2.31609 0.315105 4.59944 158 152 140
2.21997 -0.203463 4.75324 25 27 22
2.21997 -0.203463 4.75324 25 27 22
2.07515 1.15322 4.55817 185 179 165
2.24542 -1.6666 5.06559 14 17 8
2.31153 -1.75167 5.06617 17 19 14
2.31153 -1.75167 5.06617 17 19 14
2.23477 -1.70944 5.12795 6 8 3
2.27306 -1.74742 5.12043 3 13 2
-36.6309 -18.8188 27.7066 135 131 119
-41.2358 -21.6193 30.647 126 122 110
-46.382 -27.8728 34.5786 131 127 116
-40.3923 -21.4687 30.2948 140 138 126
-41.8256 -18.0468 30.3937 119 117 104
-41.8256 -18.0468 30.3937 119 117 104
-12.1277 4.47663 11.115 82 76 64
2.2827 -1.79007 5.1954 26 27 21
-47.6748 -28.3381 35.7332 129 125 114
-47.6748 -28.3381 35.7332 129 125 114
-45.3488 -23.8263 33.6696 136 134 122
-41.698 -18.1582 30.7035 125 123 108
-48.8169 -26.3867 36.1184 141 137 126
-49.1405 -28.0697 36.6526 122 119 104
-42.2916 -18.2968 31.3124 126 124 111
-49.2826 -28.1892 37.0501 132 126 112
-40.7943 -17.9602 30.7131 121 119 106
-51.9341 -29.3272 39.267 145 141 129
-48.8012 -25.2411 36.8475 132 128 116
-49.4811 -25.1201 37.1786 127 121 109
-52.5882 -30.0302 39.9175 145 137 124
-39.5155 -16.6748 30.2869 136 127 110
-52.621 -31.8423 40.5128 130 126 114
-52.0766 -28.8795 39.6507 126 120 106
-11.662 4.60642 11.3092 149 139 127
-49.6904 -26.6885 38.0651 127 123 111
-49.6904 -26.6885 38.0651 127 123 111
-36.4369 -17.1204 29.0748 108 104 93
-56.1413 -33.1192 43.1708 140 138 126
-2.11443 -2.81112 7.88336 105 101 89
-44.914 -22.2323 34.8538 105 101 89
-43.3883 -21.2107 33.9059 117 114 99
-55.4246 -32.8337 43.1934 118 111 95
-55.4246 -32.8337 43.1934 118 111 95
-12.5705 4.70568 12.0278 44 47 38
-48.9626 -26.1511 38.3967 132 125 115
-50.8915 -26.9003 40.0426 122 114 101
-50.2929 -27.2204 39.8123 106 102 91
-48.9879 -26.0653 39.0674 105 103 91
-49.6921 -27.067 39.704 118 116 104
-43.7104 -21.9648 35.3578 124 118 104
-44.7328 -22.0272 35.9401 110 106 94
-46.2122 -22.4217 36.9668 106 102 90
-51.504 -28.1543 41.2186 123 119 108
-46.612 -22.4764 37.3796 104 97 87
-13.8272 4.87683 13.0172 180 178 166
-52.1459 -27.8912 41.7456 125 123 111
-43.1887 -19.9953 34.9726 122 116 100
-43.896 -22.0599 35.881 93 89 77
-42.9231 -21.6722 35.372 85 81 69
-50.9783 -27.8651 41.5579 127 125 113
-51.174 -27.9565 41.9952 134 132 120
-51.174 -27.9565 41.9952 134 132 120
-34.4858 -15.1851 29.9218 137 131 117
-34.063 -14.7872 29.5861 130 128 115
-62.3221 -22.0669 48.5146 108 102 88
-84.8921 -37.8135 65.9324 99 92 76
-84.5662 -37.1978 65.7682 111 102 85
-86.4015 -37.7923 68.1758 105 92 76
-77.9409 -32.6758 62.5673 121 109 95
2.78628 1.16377 4.65591 125 119 107
2.79894 1.13031 4.67041 136 130 118
-78.1833 -33.3963 63.7887 121 109 95
-74.3127 -31.9589 61.5813 113 101 87
-74.3127 -31.9589 61.5813 113 101 87
2.82543 1.08911 4.6911 144 138 124
-58.4707 -23.1288 50.5953 117 108 93
-57.4229 -23.5079 50.4657 115 106 91
2.88057 1.38592 4.6544 69 66 59
-355.398 -157.263 286.388 110 100 88
-328.228 -140.423 264.912 113 100 91
-564.419 -254.869 459.961 126 90 54
-564.419 -254.869 459.961 126 90 54
-532919 -239473 430196 90 78 62
-725.199 -301.73 591.041 120 89 60
-1.41766e+06 -637482 1.1527e+06 79 80 66
-1.30958e+06 -577346 1.06272e+06 88 82 68
-1.33325e+06 -578181 1.08099e+06 90 80 70
-2.08267e+06 -931700 1.7005e+06 82 78 69
2.97756 1.14233 4.75391 139 128 110
-177.546 -67.9385 150.333 122 92 68
-812.591 -343.922 671.303 79 79 67
-1.37886e+06 -608922 1.14305e+06 122 89 58
2.98815 1.15152 4.77128 136 127 110
-192.748 -73.9793 165.7 107 87 63
-178.225 -69.0714 155.041 110 84 59
-37.4274 -15.762 40.8446 77 74 65
-37.6965 -16.0569 41.3022 72 71 66
-33.0595 -9.50788 37.1942 89 87 75
-30.0875 -13.4298 36.4408 80 77 68
-32.4167 -11.7226 38.0962 80 80 70
-32.8981 -11.8301 39.3524 77 77 67
-30.576 -9.92983 37.6929 0 0 0
-31.7129 -8.51273 38.2595 0 0 0
-1.541 0.306292 3.17381 20 22 19
-8.68734 1.93229 17.9344 17 19 14
-3.34388 -0.169278 14.0147 211 206 200
0.616072 -1.95101 4.13433 112 105 97
0.0330717 -0.0504961 0.205273 124 120 109
-3.30304e-07 5.05398e-07 -1.17594e-06 96 94 81
1.80646e-07 -2.75028e-07 5.5694e-07 0 0 0
-5.42461 4.41288 -16.692 0 0 0
1.63691 -1.66275 4.25921 0 0 0
-11.3361 8.88947 -29.2988 0 0 0
8.52721e-06 5.22634e-06 2.17276e-05 0 0 0
4.12338 2.59059 10.488 0 0 0
4.92689 2.34385 9.7427 0 0 0
-5.24716 9.37326 16.9008 208 205 196
-3.82895 7.02349 14.4304 216 213 206
-4.58913 6.10176 18.7899 219 218 214
-5.11669 4.40173 20.8546 137 139 138
-5.31778 3.21078 21.512 42 44 41
-5.34484 2.36102 21.6862 146 146 146
-5.25138 2.18079 21.6015 154 154 154
-1.63837 -0.0324302 3.77719 221 228 236
-5.25149 -0.342153 21.1869 224 228 237
-4.96338 0.439417 21.2005 221 228 238
-3.95153 5.45156 18.5221 165 166 161
-3.68166 5.52909 17.926 190 190 188
-4.45741 0.661546 20.7013 215 211 202
-1.53861 -0.0172151 3.94865 208 201 193
-4.08983 -2.73433 18.1178 199 194 188
-3.59644 4.65244 18.8233 222 221 216
-4.13792 0.0294425 20.3163 214 214 206
-4.08812 0.106005 20.3107 216 213 206
-3.92522 -2.57031 18.2541 229 225 214
-2.10093 5.35389 10.9959 107 99 86
-2.10093 5.35389 10.9959 107 99 86
-3.76871 1.64122 20.3836 209 208 203
-3.65109 -0.744598 19.6173 217 212 206
-2.00894 5.25096 11.1908 232 236 239
-3.55178 0.568958 20.046 217 214 207
-3.55178 0.568958 20.046 217 214 207
