ply
format ascii 1.0 
element vertex 1345
property float32 x 
property float32 y 
property float32 z
property uchar red  
property uchar green
property uchar blue
element face 0
property list uchar int vertex_indices
end_header
-0.04674 -1.68059 4.22692 26 23 14
-0.0463931 -1.70846 4.23652 68 66 54
-0.0415196 -1.63582 4.21543 105 103 91
-0.0427722 -1.64322 4.23868 105 103 91
-0.0388174 -1.6951 4.24438 101 101 91
-0.0366044 -1.61951 4.23338 70 67 60
-0.0276529 -1.59836 4.23889 63 66 59
-0.0278418 -1.68696 4.25257 53 52 47
0.000101801 -1.65755 4.26027 77 74 67
0.0142776 -1.71598 4.28722 71 73 62
0.0169872 -1.7353 4.2876 67 66 61
0.018702 -1.6952 4.27611 62 65 56
0.0186681 -1.67995 4.27402 75 74 69
0.0187718 -1.95137 4.17607 100 96 85
0.0297478 -1.76492 4.29598 66 66 56
0.0342366 -1.59547 4.27045 73 69 60
0.0353126 -1.59846 4.278 73 69 60
0.0552267 -1.98692 4.19027 104 100 91
0.122584 -1.98817 4.229 120 116 107
0.12705 -2.04201 4.19321 118 111 101
0.15097 -1.57291 4.33457 25 24 20
0.157021 -2.01938 4.24607 114 110 101
0.162869 -1.79705 4.36806 56 55 50
0.159124 -2.04424 4.21345 118 109 100
0.159124 -2.04424 4.21345 118 109 100
0.206013 -1.4332 4.39277 169 162 152
0.272178 -1.45555 4.40104 161 157 146
0.288916 -1.97695 4.31836 82 81 77
0.301898 -1.33084 4.39932 112 108 99
0.304484 -1.76297 4.4534 139 135 124
0.304484 -1.76297 4.4534 139 135 124
0.299693 -1.39305 4.3773 130 127 118
0.300104 -1.95483 4.33673 79 75 72
0.305476 -1.40042 4.3765 124 120 111
0.316825 -2.0178 4.32541 69 70 65
0.314291 -2.08076 4.27468 76 77 72
0.328678 -1.73698 4.44939 149 142 134
0.328061 -1.74102 4.45996 149 142 134
0.328605 -1.76473 4.46341 129 125 116
0.328605 -1.76473 4.46341 129 125 116
0.325897 -1.42701 4.39145 104 94 84
0.332983 -1.69019 4.45918 134 130 121
0.334393 -1.67052 4.43949 134 135 127
0.357823 -1.7521 4.46864 123 114 105
0.34753 -1.94784 4.35201 69 55 52
0.3605 -1.72397 4.47912 141 132 123
0.357712 -1.36171 4.38921 140 141 135
0.355263 -2.08245 4.29977 69 70 65
0.374869 -1.63187 4.48446 94 96 91
0.378332 -1.82245 4.47974 99 99 91
0.37952 -1.64034 4.46374 112 113 108
0.381143 -1.69502 4.48824 95 98 91
0.381143 -1.69502 4.48824 95 98 91
0.375248 -1.95851 4.38336 100 87 81
0.386553 -1.95612 4.39151 148 141 131
0.384964 -2.04511 4.33874 70 71 66
0.384165 -2.04505 4.33836 70 71 66
0.416099 -1.95775 4.40798 125 126 118
0.428004 -1.75285 4.51566 112 112 104
0.427874 -1.43798 4.44336 108 111 104
0.432228 -1.37877 4.45603 126 125 120
0.431845 -1.46585 4.43171 113 115 110
0.438488 -1.48168 4.43981 99 101 96
0.43801 -1.95501 4.41372 103 102 97
0.456217 -1.48541 4.43815 122 123 117
0.473745 -1.95812 4.4393 108 107 102
0.512802 -1.43571 4.55889 99 98 93
0.509167 -1.43096 4.54288 99 98 93
0.516022 -1.80093 4.56469 109 111 106
0.504047 -2.02022 4.43668 93 82 76
0.521751 -1.78356 4.5781 107 106 102
0.535367 -2.04827 4.43261 48 53 49
0.557017 -1.42132 4.5457 118 117 112
0.551255 -1.95221 4.47404 108 108 100
0.547435 -2.01758 4.45827 100 100 92
0.569796 -1.98052 4.48274 108 109 104
0.590876 -1.81512 4.63359 128 129 123
0.611277 -1.67607 4.60336 106 107 101
0.619761 -1.74419 4.64002 97 98 92
0.625515 -1.72675 4.63476 114 117 108
0.623593 -1.70179 4.61444 135 135 125
0.64266 -1.66117 4.6474 102 101 97
0.633194 -1.9548 4.5259 85 85 75
0.656835 -1.55685 4.64652 105 106 100
0.662844 -1.66157 4.65533 112 113 107
0.665384 -1.67957 4.66395 105 106 100
0.662874 -1.53262 4.62945 113 114 106
0.662576 -1.58931 4.63635 123 124 118
0.677255 -1.64391 4.66448 137 138 132
0.685246 -1.77246 4.68006 100 101 95
0.702487 -1.59952 4.67412 104 103 98
0.696517 -1.4895 4.6303 104 106 101
0.710627 -1.69369 4.68593 119 120 114
0.710888 -2.0537 4.53889 108 108 100
0.723347 -1.97635 4.56562 101 101 93
0.723347 -1.97635 4.56562 101 101 93
0.741259 -1.9583 4.58929 80 77 68
0.74743 -1.96163 4.60445 93 93 81
0.776125 -1.96251 4.61984 107 97 85
0.791529 -1.06683 4.65554 123 117 105
0.786549 -1.97741 4.61591 111 103 90
0.809709 -1.7668 4.72881 114 107 97
0.813055 -1.74794 4.74573 115 107 96
0.815468 -1.72869 4.75338 124 115 106
0.817691 -1.67952 4.74428 118 110 99
0.803468 -1.95123 4.65634 110 101 92
0.838645 -0.502577 4.83806 131 122 113
0.804936 -1.9638 4.63408 101 97 85
0.833165 -1.77592 4.76338 105 98 88
0.833817 -1.72942 4.7597 97 87 78
0.847866 -0.520309 4.84062 128 120 109
0.853455 -2.44377 4.84824 86 83 74
0.861089 -1.43266 4.74961 117 111 99
0.878201 -2.45509 4.84922 94 92 80
0.845775 -1.96674 4.66058 108 102 90
0.866495 -1.58617 4.76548 115 109 97
0.864111 -1.58387 4.75708 115 109 97
0.864111 -1.58387 4.75708 115 109 97
0.914847 -1.41643 4.78042 124 116 105
0.89733 0.806711 4.68962 99 99 91
0.945767 -2.44747 4.90565 78 78 68
0.945767 -2.44747 4.90565 78 78 68
0.889245 -2.09824 4.55689 104 100 88
0.953239 -1.49284 4.81426 111 104 94
0.934043 -0.487942 4.66882 100 96 87
0.970019 -1.73731 4.82905 117 113 101
0.932693 -0.549317 4.64088 85 86 81
0.927523 -2.04016 4.61293 100 98 86
0.932054 -1.97176 4.63362 111 107 96
0.973681 -1.86086 4.78823 0 0 0
0.98864 -1.05417 4.76726 0 0 0
1.03353 -2.45141 4.94959 0 0 0
1.0096 -1.53348 4.78241 0 0 0
1.00273 -1.54071 4.73308 0 0 0
1.01082 -0.982647 4.7543 0 0 0
1.05173 -2.46071 4.94606 0 0 0
1.01661 -1.63087 4.76427 0 0 0
1.01604 -0.785485 4.74325 0 0 0
1.0221 -1.49652 4.77021 0 0 0
1.07335 -2.45382 4.97209 0 0 0
1.07335 -2.45382 4.97209 0 0 0
1.03928 -0.810383 4.7408 0 0 0
1.03556 -0.556167 4.69113 0 0 0
1.04432 -0.632749 4.70864 0 0 0
1.06538 -1.47778 4.79112 0 0 0
1.01125 0.792165 4.54501 0 0 0
1.07084 -1.49734 4.79496 0 0 0
1.10413 -2.4561 4.93378 0 0 0
1.01865 0.781922 4.54883 0 0 0
1.08054 -1.48144 4.79997 0 0 0
1.04996 0.110301 4.66518 0 0 0
1.05093 0.0011657 4.65776 0 0 0
1.06059 -0.0672354 4.6816 0 0 0
1.0881 -1.43907 4.78266 0 0 0
1.07219 -1.73953 4.70369 0 0 0
1.06183 0.187697 4.64149 0 0 0
1.0621 0.422761 4.6191 0 0 0
1.09842 -1.45284 4.75649 0 0 0
1.06583 0.545057 4.61077 0 0 0
1.04754 -2.10804 4.51718 0 0 0
1.05409 -2.09529 4.52708 0 0 0
1.07241 0.686294 4.60164 0 0 0
1.0749 0.6634 4.60621 0 0 0
1.08798 -1.97775 4.60514 0 0 0
1.12135 -1.88904 4.70851 0 0 0
1.18636 -1.38589 4.70964 0 0 0
1.15954 -1.98975 4.49455 0 0 0
1.18973 -1.91983 4.5743 0 0 0
1.21156 -1.85893 4.65033 0 0 0
1.17024 -2.01226 4.486 0 0 0
1.21151 -1.79925 4.64547 0 0 0
1.31615 -2.35363 5.03902 0 0 0
1.21801 -1.87254 4.61855 0 0 0
1.19729 -1.98831 4.51485 0 0 0
1.21496 -1.50117 4.54943 0 0 0
1.20459 1.02058 4.4488 0 0 0
1.266 -1.44029 4.61581 0 0 0
1.31735 -1.88927 4.71972 0 0 0
1.39744 -2.46571 4.8798 0 0 0
1.2719 0.266422 4.35212 0 0 0
1.27797 0.318688 4.34647 0 0 0
1.28634 0.308462 4.34446 0 0 0
1.36825 -2.0666 4.62504 0 0 0
1.30803 0.33645 4.39515 0 0 0
1.41591 -1.84362 4.76989 0 0 0
1.29295 0.764057 4.30592 0 0 0
1.48573 -2.48063 4.92652 0 0 0
1.4136 -2.00122 4.66061 0 0 0
1.29745 1.00228 4.27376 0 0 0
1.30763 0.74517 4.30249 0 0 0
1.33024 1.01425 4.3192 0 0 0
1.32107 0.808497 4.29738 0 0 0
1.5325 -2.47308 4.9749 0 0 0
1.48696 -1.83898 4.80435 0 0 0
1.46361 -2.0002 4.68912 0 0 0
1.49458 -2.00154 4.68304 0 0 0
1.42647 0.428365 4.45472 0 0 0
1.42647 0.428365 4.45472 0 0 0
1.44781 0.208881 4.51692 0 0 0
1.50836 -2.0966 4.67758 0 0 0
1.50816 -2.09615 4.67732 0 0 0
1.52916 -2.06055 4.70145 0 0 0
1.58064 -1.40223 4.83478 0 0 0
1.30551 -1.83454 3.98546 0 0 0
1.56797 -1.34368 4.78236 0 0 0
1.55189 -2.16151 4.70248 0 0 0
1.55898 -2.12992 4.6544 0 0 0
1.52424 1.00182 4.39611 0 0 0
1.59353 0.429702 4.56337 0 0 0
1.70889 0.423677 4.59663 0 0 0
2.02923 -0.15965 5.27093 0 0 0
1.80882 0.769672 4.60066 0 0 0
1.81003 1.00678 4.56711 0 0 0
2.13942 -0.41198 5.3637 0 0 0
2.22705 -0.381983 5.40882 0 0 0
2.23832 -0.879149 5.44333 0 0 0
2.22146 0.119169 5.38024 0 0 0
2.22146 0.119169 5.38024 0 0 0
2.23724 -0.22231 5.40391 0 0 0
2.23724 -0.22231 5.40391 0 0 0
2.27541 -0.757801 5.48102 0 0 0
2.2615 -0.753159 5.4654 0 0 0
2.28285 -0.630941 5.44081 0 0 0
2.25366 -0.581903 5.37183 0 0 0
2.28027 -0.181978 5.41626 0 0 0
2.27062 -0.27341 5.39876 0 0 0
2.26616 -0.0733516 5.36845 0 0 0
2.28013 -0.217046 5.39685 0 0 0
2.30663 -0.325115 5.4032 0 0 0
2.31791 -0.4608 5.42016 0 0 0
2.30716 -0.281696 5.38448 0 0 0
2.32302 -0.349 5.36514 0 0 0
2.32624 -0.468669 5.36999 0 0 0
2.33211 -0.289046 5.34656 0 0 0
2.33785 -0.219888 5.35986 0 0 0
2.41926 -0.776441 5.52946 0 0 0
2.35109 0.44921 5.3684 0 0 0
2.36192 -0.177214 5.39223 0 0 0
2.3208 0.691651 5.30067 0 0 0
2.36036 -0.437354 5.38778 0 0 0
2.38496 -0.255549 5.43278 0 0 0
2.34599 -0.0402087 5.34534 0 0 0
2.32523 0.721541 5.29364 0 0 0
2.35823 0.684477 5.35503 0 0 0
2.35761 0.166708 5.3507 0 0 0
2.36385 -0.295093 5.3655 0 0 0
2.34397 0.234102 5.31892 0 0 0
2.36469 0.0887575 5.3578 0 0 0
2.34849 0.263338 5.31374 0 0 0
2.37763 -0.205047 5.37756 0 0 0
2.34777 0.569344 5.30878 0 0 0
2.37337 0.0722499 5.36113 0 0 0
2.40946 -0.173434 5.41458 0 0 0
2.40256 -0.280043 5.39821 0 0 0
2.40256 -0.280043 5.39821 0 0 0
2.4195 -0.484583 5.42681 0 0 0
2.4106 -0.479366 5.4243 0 0 0
2.31742 1.03424 5.18796 0 0 0
2.39728 -0.261277 5.36256 0 0 0
2.39728 -0.261277 5.36256 0 0 0
2.38726 0.680574 5.32519 0 0 0
2.41619 -0.411879 5.3882 0 0 0
2.43804 -0.420201 5.4535 0 0 0
2.4196 -0.172508 5.39363 0 0 0
2.38751 0.642035 5.30325 0 0 0
2.36498 0.724951 5.25208 0 0 0
2.35888 0.738837 5.22721 0 0 0
2.36371 0.776452 5.23737 0 0 0
2.23641 0.72307 4.94122 0 0 0
2.35587 0.759488 5.2043 0 0 0
2.38713 0.607985 5.27665 0 0 0
2.44909 0.0903636 5.40831 0 0 0
2.44664 -0.172102 5.40782 0 0 0
2.36023 1.02702 5.1878 0 0 0
2.47555 -0.171797 5.42055 0 0 0
2.35986 0.985179 5.15835 0 0 0
2.39047 0.709361 5.22124 0 0 0
2.56074 -0.651596 5.59034 0 0 0
2.36393 1.00555 5.13145 0 0 0
2.51466 -0.243738 5.43449 0 0 0
2.53104 -0.511004 5.46159 0 0 0
2.5529 0.38375 5.4647 0 0 0
2.54834 -0.2525 5.44751 0 0 0
2.53696 0.573399 5.40811 0 0 0
2.57908 -0.480365 5.48779 0 0 0
2.63079 -0.584508 5.58279 0 0 0
2.58118 0.10936 5.44881 0 0 0
2.64758 -0.521785 5.56104 0 0 0
2.62771 0.271476 5.49961 0 0 0
2.59192 0.316666 5.43356 0 0 0
2.60247 0.572789 5.43967 0 0 0
2.60039 0.472958 5.41537 0 0 0
2.65359 1.03481 5.33104 0 0 0
2.76015 0.795606 5.42158 0 0 0
3.24809 0.791069 6.02895 0 0 0
3.26999 0.792644 6.02542 0 0 0
3.27192 1.07416 5.97079 0 0 0
4.58879 -4.12988 8.37431 0 0 0
3.27037 1.01801 5.9645 0 0 0
3.27037 1.01801 5.9645 0 0 0
4.64051 -4.03657 8.40726 0 0 0
4.66015 -4.1208 8.42718 0 0 0
4.64836 -4.12232 8.37503 0 0 0
4.74308 -3.59918 8.44237 0 0 0
4.70744 -4.12621 8.36397 0 0 0
4.67169 -4.16405 8.23363 0 0 0
4.67169 -4.16405 8.23363 0 0 0
4.82343 -4.10128 8.45494 0 0 0
4.79141 -3.40476 8.18313 0 0 0
4.79141 -3.40476 8.18313 0 0 0
4.82675 -3.13066 8.16187 0 0 0
4.81523 -2.89997 8.13366 0 0 0
4.83793 -3.42373 8.16003 0 0 0
4.8335 -3.02695 8.12502 0 0 0
4.8335 -3.02695 8.12502 0 0 0
4.94613 -3.23664 8.2524 0 0 0
4.9383 -3.34489 8.16624 0 0 0
4.09987 0.866244 6.69407 0 0 0
4.9782 -2.31958 8.08471 0 0 0
4.9811 -2.31648 8.06369 0 0 0
-1.66772 0.97401 2.84473 100 93 83
-1.44326 0.83309 2.53966 188 179 172
-1.68374 -0.48841 3.05816 220 226 238
-1.69791 -0.2844 3.09161 88 86 74
-1.57664 0.794221 2.90047 130 130 128
-1.57664 0.794221 2.90047 130 130 128
-1.68431 -0.214527 3.10548 108 112 115
-1.57564 0.722634 2.92634 200 195 192
-1.55727 0.988681 2.89366 118 119 113
-1.55468 0.97951 2.89365 110 111 105
-1.56825 0.725863 2.93125 205 204 199
-1.64242 -0.00947773 3.09094 125 122 115
-1.64972 -0.579212 3.10853 220 226 238
-1.4675 -0.461655 2.77045 222 226 238
-1.63719 -0.00200056 3.09251 122 122 112
-1.61985 0.220591 3.07166 212 212 210
-1.59085 0.554079 3.03235 245 246 241
-1.61127 -0.310501 3.09998 118 120 119
-1.58452 0.446513 3.05076 220 216 213
-1.61088 -0.173466 3.10655 87 87 85
-1.57577 0.454644 3.05328 216 213 208
-1.57577 0.454644 3.05328 216 213 208
-1.44252 -0.183648 2.81401 24 24 22
-1.56499 0.398772 3.06604 225 216 211
-1.47892 -0.196568 2.92909 30 32 29
-1.57553 -0.0151742 3.12216 157 152 148
-1.57628 -0.382304 3.12494 112 112 112
-1.56714 -0.268443 3.10763 44 45 39
-1.56329 -0.0883648 3.13213 120 124 127
-1.55776 -0.512975 3.13278 218 224 236
-1.45479 0.986729 2.9344 145 143 146
-1.54972 -0.307922 3.13123 122 126 127
-1.61511 -0.733955 3.26429 215 221 233
-1.54525 -0.0872555 3.13972 127 133 133
-1.53362 -0.130639 3.15055 12 17 11
-1.43711 0.759623 2.96029 213 214 209
-1.52843 -0.0887963 3.14859 131 133 132
-1.52013 -0.182229 3.14842 25 27 24
-1.47755 0.662132 3.06246 108 105 96
-1.42728 0.747163 2.98785 128 119 112
-1.5067 -0.103681 3.19846 130 131 135
-4.30754 -0.689475 9.1134 44 46 45
-7.63354 -0.862444 16.1776 33 34 29
-1.46659 0.0874186 3.14596 15 18 11
-1.39789 0.74892 2.99913 178 173 170
-1.47515 -0.0547116 3.174 176 176 176
-1.46703 0.164422 3.16092 157 159 158
-1.4527 0.162725 3.13833 160 162 161
-1.4181 0.66117 3.09455 210 209 205
-1.43602 0.252387 3.13661 221 221 219
-1.36759 0.816716 2.98872 215 214 209
-1.2105 0.671904 2.65015 223 224 219
-1.45395 0.0154849 3.21043 221 221 219
-1.39308 0.675658 3.09012 214 213 208
-1.37909 -0.431466 3.34986 206 207 202
-1.20282 -0.374965 2.99101 207 208 203
-1.34986 -0.46219 3.35835 205 204 199
-1.20508 -0.0719127 3.01205 142 146 147
-1.28364 -0.430005 3.38985 202 198 189
-1.26622 -0.468387 3.38988 197 190 180
-1.26794 -0.427728 3.40325 201 201 193
-1.10262 -0.415297 3.00183 119 119 111
-1.2313 -0.468204 3.40245 155 157 156
-1.20925 -0.417702 3.42514 118 112 100
-1.19016 -0.493893 3.40277 212 211 207
-1.00278 -0.377131 3.05794 210 207 200
-1.09882 -0.491764 3.44432 210 207 200
-1.09235 -0.417496 3.47974 209 209 199
-0.952507 -0.40671 3.05975 207 204 197
-1.08211 -0.46236 3.47623 207 204 197
-0.964056 -0.028384 3.50487 194 194 194
-0.956112 -0.0218008 3.50785 200 200 198
-0.945151 0.0192615 3.48914 218 218 216
-0.954161 -0.409646 3.55244 152 151 149
-0.857724 -0.0424188 3.23656 178 178 178
-0.932056 -0.0455031 3.51753 178 178 178
-0.917988 0.0424313 3.51212 226 226 224
-0.91452 -0.231491 3.55753 27 29 24
-0.805158 -0.252697 3.20948 40 42 37
-0.895974 -0.668625 3.59902 210 209 205
-0.878846 -0.489525 3.54959 211 210 206
-0.809503 -0.0718314 3.27885 147 147 147
-0.883829 -0.60509 3.58621 213 212 208
-0.871343 -0.489985 3.55389 213 209 206
-0.864724 -0.506636 3.55596 208 207 203
-0.787484 -0.488479 3.55836 212 211 207
-0.310395 -1.84161 3.77883 30 23 15
-0.253198 -1.82558 4.06869 27 27 19
-0.18573 -1.77455 4.18174 26 25 21
-0.181335 -1.76389 4.15383 26 25 21
-0.177457 -1.57251 4.15497 63 62 57
-0.172484 -1.89177 4.0501 231 223 220
-0.176678 -1.77898 4.18276 20 24 23
-0.154981 -1.94471 3.98811 35 31 30
-0.154218 -1.70708 4.20098 145 140 134
-0.153293 -1.67658 4.18694 66 58 55
-0.15268 -1.72924 4.18972 87 82 78
-0.135428 -1.74488 4.20819 56 59 52
-0.125452 -1.97268 4.00391 109 115 115
-0.125452 -1.97268 4.00391 109 115 115
-0.129537 -1.61966 4.19304 81 78 71
-0.0978075 -1.65369 4.22002 56 63 56
-0.0650718 -1.75206 4.25269 27 29 26
-0.0597015 -1.94633 4.12735 90 91 83
-0.0553211 -1.61422 4.23376 68 68 58
-0.0554283 -1.66139 4.2422 74 74 64
-0.0402669 -1.72421 4.2564 87 82 76
-0.0316066 -1.74791 4.23532 87 84 77
-0.0324731 -1.95316 4.13667 93 90 83
-0.0300547 -1.62186 4.25468 62 65 58
-0.0179972 -1.71725 4.27286 56 56 54
-0.0145883 -1.30082 3.54024 68 69 63
-0.00112968 -1.62725 4.26962 58 51 45
-0.00043806 -1.66961 4.27666 73 70 65
0.00261731 -1.76213 4.29145 72 68 57
0.0144455 -1.67806 4.24899 73 72 68
0.0231373 -1.62635 4.28423 71 72 66
0.0232961 -1.64952 4.28798 70 73 64
0.0235786 -1.26375 4.20447 203 202 197
0.0273367 -1.74026 4.30328 64 65 57
0.0393945 -1.98916 4.18539 99 97 85
0.0413004 -1.7232 4.30569 91 86 80
0.108072 -1.9792 4.22527 120 113 103
0.108072 -1.9792 4.22527 120 113 103
0.115204 -1.99763 4.22996 122 115 107
0.126928 -2.04098 4.19174 118 111 101
0.130808 -1.97593 4.29812 120 111 102
0.16453 -1.76865 4.38599 19 19 11
0.169117 -1.9505 4.25383 120 116 107
0.195419 -1.95034 4.27163 114 110 99
0.204384 -1.43871 4.40637 169 162 152
0.207962 -2.01955 4.27378 115 111 102
0.197721 -1.20211 3.63031 165 158 148
0.254496 -1.96659 4.30816 103 98 94
0.267179 -1.94549 4.30299 81 82 76
0.279711 -1.66581 4.44315 160 153 143
0.279831 -1.35698 4.40021 145 137 126
0.279831 -1.35698 4.40021 145 137 126
0.28711 -1.67247 4.44451 159 150 141
0.308558 -1.6251 4.45056 154 149 143
0.304239 -1.48007 4.36186 146 141 135
0.317234 -1.70769 4.46707 148 148 140
0.317234 -1.70769 4.46707 148 148 140
0.326289 -1.42246 4.37282 104 94 84
0.34935 -1.95321 4.35939 47 39 36
0.356532 -2.05064 4.3369 75 77 72
0.356532 -2.05064 4.3369 75 77 72
0.367338 -1.31348 4.42617 140 143 136
0.378243 -1.72305 4.46863 126 122 113
0.377186 -1.7362 4.50195 126 122 113
0.372512 -1.36973 4.42526 114 115 107
0.381447 -1.69813 4.47197 103 104 98
0.380863 -1.9667 4.383 28 30 25
0.390211 -1.57312 4.47446 114 115 109
0.398946 -1.66917 4.51049 119 116 109
0.398946 -1.66917 4.51049 119 116 109
0.418033 -1.3296 4.44028 122 121 116
0.418033 -1.3296 4.44028 122 121 116
0.417965 -2.04762 4.36299 64 65 60
0.417965 -2.04762 4.36299 64 65 60
0.437672 -1.95458 4.41054 120 119 114
0.444629 -2.04913 4.38154 58 60 57
0.444629 -2.04913 4.38154 58 60 57
0.475612 -1.98826 4.44931 148 149 141
0.475612 -1.98826 4.44931 148 149 141
0.499869 -1.78841 4.57983 107 108 102
0.499869 -1.78841 4.57983 107 108 102
0.499717 -1.71461 4.55858 113 115 110
0.521335 -1.96206 4.47186 102 103 95
0.525077 -1.98398 4.4664 87 88 80
0.559295 -1.4206 4.54412 118 117 112
0.57314 -1.95381 4.48221 96 97 91
0.58265 -2.04733 4.45593 45 49 48
0.621574 -1.60863 4.63418 102 103 97
0.642695 -1.7028 4.62025 124 121 112
0.643822 -1.71783 4.65787 124 121 112
0.646226 -1.76558 4.66278 113 114 108
0.65202 -1.76649 4.67021 121 122 116
0.680824 -1.63077 4.66696 110 107 100
0.686296 -1.7867 4.68855 105 108 101
0.687362 -1.65283 4.67718 113 115 110
0.688324 -1.62358 4.67565 132 129 122
0.694163 -1.72157 4.65578 129 130 124
0.788737 -1.37219 4.75152 115 105 95
0.800763 -1.72394 4.75044 119 109 99
0.809393 0.299751 4.80194 133 109 85
0.804001 -1.29958 4.70442 128 122 110
0.811685 -1.70591 4.74853 118 109 100
0.820259 -1.7134 4.76061 119 111 100
0.806872 -1.13144 4.6515 128 122 110
0.821883 -1.63838 4.75241 107 100 90
0.821883 -1.63838 4.75241 107 100 90
0.854223 -1.40859 4.75795 108 99 90
0.940752 -0.58602 4.66414 101 94 86
0.97156 -0.588616 4.70212 0 0 0
0.998078 -1.00639 4.79259 0 0 0
0.982857 -2.08972 4.59195 0 0 0
1.05713 -0.449484 4.76444 0 0 0
1.06616 -1.4828 4.80509 0 0 0
1.06225 -0.253758 4.73629 0 0 0
1.23569 -1.85915 4.66066 0 0 0
1.23794 -1.8307 4.65695 0 0 0
1.26633 -1.80056 4.67432 0 0 0
1.26838 -1.84032 4.67822 0 0 0
1.38048 -1.4141 4.74017 0 0 0
1.40021 -2.09612 4.61839 0 0 0
1.39463 -2.08517 4.59192 0 0 0
1.41463 -2.06941 4.65128 0 0 0
1.52106 -1.97932 4.86442 0 0 0
1.50315 -1.8355 4.80302 0 0 0
1.45722 -2.09704 4.64992 0 0 0
1.45108 -2.08233 4.61731 0 0 0
1.56511 -1.80863 4.82858 0 0 0
1.54423 -2.00171 4.73887 0 0 0
1.53472 -1.99877 4.69924 0 0 0
1.59788 -1.83231 4.85013 0 0 0
1.59274 -2.00221 4.76699 0 0 0
1.67698 -0.436175 4.81965 0 0 0
1.8526 -0.432521 5.19671 0 0 0
1.85511 -0.449776 5.18564 0 0 0
1.87259 -0.0992368 5.18022 0 0 0
2.02971 -0.468027 5.58414 0 0 0
2.01414 -0.0984665 5.42912 0 0 0
1.94013 -0.534173 5.21168 0 0 0
2.02853 -0.464664 5.30518 0 0 0
2.099 -0.0231604 5.45235 0 0 0
2.04877 -0.487223 5.31322 0 0 0
2.11689 0.0260569 5.45779 0 0 0
2.06965 -0.437447 5.30965 0 0 0
2.06718 -0.146704 5.27546 0 0 0
2.14042 0.144102 5.45214 0 0 0
2.15423 0.317978 5.4274 0 0 0
2.16196 0.687548 5.39276 0 0 0
2.17077 -0.43783 5.4009 0 0 0
2.16609 -0.449752 5.387 0 0 0
2.01874 -0.305818 4.94725 0 0 0
2.18029 -0.328667 5.33325 0 0 0
2.01448 -0.502932 4.90787 0 0 0
2.1946 -0.54558 5.34687 0 0 0
2.22285 -0.764871 5.40632 0 0 0
2.20795 -0.463288 5.36177 0 0 0
2.21885 -0.381995 5.37153 0 0 0
2.20348 -0.111144 5.31867 0 0 0
2.22166 -0.256856 5.357 0 0 0
2.22198 0.472016 5.27342 0 0 0
2.25864 -0.0368208 5.35533 0 0 0
2.21344 0.802091 5.21361 0 0 0
2.2681 0.278705 5.3199 0 0 0
2.28989 -0.0374412 5.3705 0 0 0
2.30349 -0.101187 5.37518 0 0 0
2.31599 -0.0777388 5.38275 0 0 0
2.31333 0.0754414 5.35843 0 0 0
2.31775 -0.407605 5.3566 0 0 0
2.2885 0.687979 5.28132 0 0 0
2.28516 0.762872 5.26631 0 0 0
2.30485 -0.537608 5.31152 0 0 0
2.30087 0.725194 5.28319 0 0 0
2.34081 -0.396958 5.3664 0 0 0
2.34124 -0.409199 5.36721 0 0 0
2.30796 0.737262 5.28061 0 0 0
2.3322 -0.113139 5.33219 0 0 0
2.37916 -0.761357 5.43797 0 0 0
2.34456 -0.511923 5.35561 0 0 0
2.34309 -0.272204 5.34777 0 0 0
2.37202 -0.471839 5.43648 0 0 0
2.33545 0.0753064 5.32257 0 0 0
2.32824 0.696107 5.28827 0 0 0
2.33965 0.476231 5.30971 0 0 0
2.36225 -0.324974 5.36041 0 0 0
2.36731 -0.238937 5.37099 0 0 0
2.34066 0.201349 5.30967 0 0 0
2.36891 -0.283076 5.35114 0 0 0
2.3456 0.653452 5.28624 0 0 0
2.36984 0.225405 5.31501 0 0 0
2.39269 0.0873438 5.34601 0 0 0
2.40527 -0.093252 5.36334 0 0 0
2.35438 0.699797 5.24424 0 0 0
2.40386 -0.321393 5.35416 0 0 0
2.39132 0.350798 5.3133 0 0 0
2.43635 -0.337316 5.3743 0 0 0
2.4401 -0.3804 5.37563 0 0 0
2.4401 -0.3804 5.37563 0 0 0
2.40522 0.672063 5.28576 0 0 0
2.45025 -0.321071 5.38064 0 0 0
2.42172 0.269332 5.31715 0 0 0
2.46326 -0.381114 5.38962 0 0 0
2.35321 0.885156 5.14645 0 0 0
2.35672 0.989079 5.13246 0 0 0
2.54222 -0.685388 5.51132 0 0 0
2.53304 -0.632066 5.48528 0 0 0
2.50384 -0.0955138 5.40174 0 0 0
2.53823 -0.198466 5.52608 0 0 0
2.49613 0.161357 5.37527 0 0 0
2.54907 -0.464168 5.45174 0 0 0
2.55757 -0.116948 5.45081 0 0 0
2.56285 -0.0333003 5.44852 0 0 0
2.45535 0.775856 5.21366 0 0 0
2.45535 0.775856 5.21366 0 0 0
2.38721 -0.0900328 5.06295 0 0 0
2.58341 -0.104704 5.48804 0 0 0
2.58116 -0.493496 5.46405 0 0 0
2.59634 -0.285924 5.49427 0 0 0
2.57579 0.143804 5.43602 0 0 0
2.5746 0.0816478 5.42952 0 0 0
2.59994 -0.527826 5.44822 0 0 0
2.59994 -0.527826 5.44822 0 0 0
2.57813 0.487936 5.39983 0 0 0
2.58356 0.315412 5.40677 0 0 0
2.61706 0.36296 5.38892 0 0 0
2.56026 0.774832 5.2681 0 0 0
2.68382 0.833201 5.30348 0 0 0
-1.62458 0.939566 2.86168 128 128 126
-1.62879 0.749849 2.90083 42 37 34
-1.58318 0.807025 2.89749 215 214 209
-1.5715 0.934797 2.89019 151 151 151
-1.60952 0.220573 3.05991 200 199 195
-1.57341 -0.464278 2.75416 213 220 228
-1.63257 -0.51317 3.08911 220 227 235
-1.5894 -0.202953 3.10601 179 180 175
-1.58824 -0.398197 3.11715 220 227 235
-1.37609 0.765902 3.00464 45 47 42
-1.42839 -0.523793 3.18976 217 214 209
-1.34504 -0.421026 3.35166 205 201 192
-1.70193 -0.201413 7.75952 21 23 18
-1.20345 -0.458558 3.33159 212 209 200
-1.18144 -0.494814 3.40324 145 135 126
-1.12364 -0.411562 3.30914 217 214 207
-0.924272 -0.253285 3.54606 209 206 199
-0.895256 -0.278198 3.56339 210 209 204
-0.53169 0.5606 3.22629 10 15 9
-0.525831 0.239494 3.26384 164 164 156
-0.497514 0.945296 3.18881 10 12 9
-0.491131 0.319678 3.27255 189 186 179
-0.40678 -1.96975 3.59586 71 54 46
-0.174094 0.6805 3.42515 30 31 26
-0.0492912 -1.76101 4.2221 113 106 96
-0.0153974 -1.57173 4.27268 23 24 19
-0.166224 -2.03445 3.73192 109 105 94
-0.169903 -2.04405 3.6551 112 108 96
-0.0184411 -2.03936 4.1096 72 62 53
0.173307 -1.97512 4.24976 81 80 75
0.0860454 -1.27457 3.82008 148 142 128
0.241082 -1.45671 4.39562 169 163 149
0.290363 -1.4044 4.38881 138 134 125
0.966355 -1.97029 4.64986 105 101 90
0.945133 -2.06309 4.60374 113 109 100
1.1888 -1.92251 4.56964 110 106 94
2.19758 -0.545666 5.36251 0 0 0
2.32114 0.28057 5.37705 0 0 0
2.40859 -0.52835 5.45528 0 0 0
-2.51758e+09 -4.32818e+08 4.75311e+09 69 66 61
-2.47413e+09 -4.15746e+08 4.72178e+09 26 27 21
-2.46764e+09 -4.3469e+08 4.72053e+09 67 68 62
-2.46764e+09 -4.3469e+08 4.72053e+09 67 68 62
-2.39059e+09 -2.84582e+08 4.73147e+09 21 23 18
32.8677 8.46599 -70.1757 153 153 153
1.3899e+08 2.70052e+07 -2.99868e+08 96 101 104
-1.40696 0.521511 3.40199 220 221 216
-6.35963 -1.98764 17.1356 207 207 199
-3.99586 -2.10562 15.1334 210 209 204
-0.510099 0.324551 3.37357 227 227 225
-0.493267 0.326182 3.383 226 227 222
-0.45715 0.326308 3.40371 227 228 223
-0.393333 0.429416 3.43678 220 221 216
-0.393333 0.429416 3.43678 220 221 216
-0.365931 0.365874 3.45266 233 232 227
-0.31572 0.430052 3.47163 152 149 144
-0.286784 0.318082 3.50319 162 163 157
-0.22886 0.419523 3.52028 161 162 154
-0.0451689 -1.44582 3.53072 61 61 53
-0.0447121 -1.73191 4.23274 63 64 56
-0.0384744 -1.68732 4.2216 101 101 91
0.00102454 -1.97428 4.15279 102 93 84
0.0522001 -1.6416 3.53696 107 103 94
0.0721191 -1.7277 3.52972 106 101 95
0.153138 -2.00897 4.24486 122 118 107
0.167576 -1.77212 4.35679 18 19 13
0.240172 -1.97604 4.28885 113 109 98
0.268056 -2.01916 4.30129 86 85 80
0.290192 -1.97635 4.31753 82 81 77
0.277879 -1.65068 3.67601 44 46 43
0.51969 -1.77448 4.55763 107 106 102
0.535498 -2.04633 4.42893 48 53 49
0.581915 -1.66779 3.87764 91 91 83
0.745085 -1.83056 4.68763 102 95 85
0.691232 -1.42005 4.01045 118 110 99
1.58543 0.313061 4.59575 0 0 0
1.98147 -0.456661 5.45145 0 0 0
1.98553 -0.4246 4.91157 0 0 0
2.35804 -0.753771 5.45983 0 0 0
-4.32518 3.01946 18.463 137 130 120
-3.95616 -0.964625 18.6505 209 206 199
-1.52108 -0.200677 3.29506 208 205 196
-2.50215 -1.28398 10.9794 217 214 207
-1.1378 -1.1396 10.5491 219 216 209
0.061899 -1.94794 4.19025 118 111 101
-0.0780885 -1.80228 3.62745 116 109 99
0.155607 -1.95334 4.19082 81 80 75
0.207648 -2.01687 4.26431 77 76 71
-1.67054 -0.269321 3.06243 72 67 61
-1.66962 -0.45933 3.07045 73 71 59
-1.48255 -0.435176 3.20102 214 216 215
1.14586e+08 4.20801e+06 -1.50509e+08 218 217 215
-1.27086 -0.420213 3.39398 184 182 183
-3.92281 -0.96773 7.28472 186 184 185
1.89078e+08 4.68785e+07 -3.07852e+08 40 40 38
-3.3847 -4.79315 8.81754 38 35 30
-3.23239 -3.18884 9.20137 214 210 207
-3.23239 -3.18884 9.20137 214 210 207
-3.04559 -3.49133 9.21747 214 215 209
-0.514115 -1.82217 3.65203 17 23 11
-2.80101 -3.77541 9.26332 83 83 75
-0.446821 -1.83248 3.7076 38 34 23
-2.52569 0.620761 9.72997 45 43 31
-0.27601 -1.64567 3.75449 71 71 63
-2.48116 0.544208 9.89601 99 104 100
-0.235808 -2.02164 3.72053 46 42 31
0.124088 -1.4734 3.60553 87 80 72
-0.0449275 -1.72898 4.22204 87 80 72
0.0488622 -2.043 4.14966 17 19 16
0.0306279 -1.68181 4.25208 66 69 60
0.0882344 -2.04085 4.16565 86 92 82
0.0807125 -1.56614 4.29223 205 206 200
0.15444 -1.95152 4.24325 72 73 65
0.155488 -1.9954 4.24396 64 59 55
0.179745 -1.69121 4.34097 115 102 94
0.178422 -1.68958 4.34369 115 102 94
0.266944 -2.04485 4.2726 25 28 21
0.266944 -2.04485 4.2726 25 28 21
0.293507 -1.56218 4.41696 211 210 206
0.334891 -1.94784 4.3393 162 158 146
0.369907 -1.35606 4.3955 21 22 17
0.364367 -1.60403 4.44562 188 182 170
0.385951 -2.04787 4.34344 136 132 123
0.431339 -2.39186 4.56102 79 80 75
0.475436 -2.04903 4.39656 114 111 104
0.475436 -2.04903 4.39656 114 111 104
0.454043 -2.40231 4.56215 79 80 75
0.47718 -1.95012 4.42649 125 126 120
0.481192 -2.39043 4.58567 85 74 70
0.508637 -1.95046 4.44573 111 112 106
0.520031 -1.78576 4.53233 142 142 132
0.536229 -1.9501 4.4592 108 109 103
0.554 -2.3721 4.63136 122 123 117
0.572563 -1.97978 4.48307 116 117 111
0.578646 -2.36695 4.64464 98 99 93
0.606711 -2.40488 4.6477 88 90 79
0.613365 -1.69979 4.59609 135 130 124
0.624317 -1.95536 4.51506 110 111 105
0.646863 -1.64237 4.60844 115 103 91
0.643656 -2.40946 4.67067 99 99 91
0.649828 -1.71404 4.61806 141 142 136
0.687479 -1.95478 4.55119 125 121 110
0.822276 -1.66505 4.713 132 124 113
1.19467 -2.1042 4.5145 0 0 0
1.35716 -2.42463 4.85103 0 0 0
1.36271 -2.44553 4.85064 0 0 0
1.36271 -2.44553 4.85064 0 0 0
1.36014 -2.01487 4.63372 0 0 0
1.37699 -2.42387 4.86274 0 0 0
1.44155 -2.44044 4.8932 0 0 0
1.44128 -2.03244 4.68027 0 0 0
1.46749 -2.44716 4.90586 0 0 0
1.48901 -2.03049 4.70262 0 0 0
1.5234 -1.87146 4.83052 0 0 0
1.56372 -2.03104 4.75023 0 0 0
1.57658 -2.09939 4.72901 0 0 0
1.57658 -2.09939 4.72901 0 0 0
1.61415 -2.09729 4.75066 0 0 0
1.79702 -0.461302 5.16317 0 0 0
1.8416 -0.445683 5.19864 0 0 0
1.84444 -0.441797 5.1809 0 0 0
1.86091 -0.51368 5.17865 0 0 0
1.98424 -0.520225 5.24391 0 0 0
2.16617 -0.470407 5.4017 0 0 0
2.23688 -0.384324 5.43393 0 0 0
2.44344 -0.37573 5.41516 0 0 0
2.50522 -0.207319 5.44968 0 0 0
2.52209 -0.226351 5.45659 0 0 0
-2.60307 -1.03099 10.6667 216 213 204
-0.136728 -2.19083 5.56551 20 22 17
-0.286832 -1.62064 3.7129 6 22 12
0.298226 -1.91015 4.24549 32 34 31
0.811835 -1.11877 3.39931 0 0 0
-2.0715 0.781389 2.8738 88 84 75
-2.0715 0.781389 2.8738 88 84 75
-4.28508 -4.18674 3.34292 130 146 146
-4.3485 -4.32451 3.40629 164 177 186
-4.37499 -4.30574 3.45954 37 38 30
-4.34485 -4.47228 3.4607 164 174 184
-4.35404 -4.4494 3.46324 163 173 183
-4.29297 -4.48169 3.46638 166 174 185
-7.86887 -6.28244 4.17128 165 173 184
-4.33803 -4.44382 3.48195 165 173 184
-1.59261 0.440304 3.01101 62 66 51
-4.30987 -4.57884 3.5483 163 171 182
-4.27889 -4.61112 3.55502 162 172 182
-4.27146 -4.62673 3.565 161 171 181
-1.62907 -0.406096 3.04968 188 185 176
-1.55856 -0.237427 3.05958 197 190 180
-1.57891 -0.588475 3.06632 185 181 170
-4.34543 -4.3231 3.64576 21 26 19
-4.26127 -4.62363 3.62459 165 171 183
-4.26127 -4.62363 3.62459 165 171 183
-1.55877 -0.465164 3.08379 194 187 177
-1.55202 -0.161634 3.0885 94 84 72
-4.28369 -4.52546 3.66243 36 29 36
-1.51679 -0.266281 3.09699 91 83 70
-1.48892 -0.267413 3.09189 91 83 70
-1.53992 -0.431694 3.1053 187 183 172
-4.25246 -4.5263 3.69041 25 24 20
-4.31831 -3.93707 3.71673 92 102 93
-4.33346 -4.32288 3.71782 103 99 98
-4.36243 -4.3115 3.72788 15 24 21
-1.49465 -0.508074 3.10914 171 165 153
-1.45375 0.100684 3.1106 206 203 198
-4.32252 -4.33725 3.72884 29 34 27
-1.49675 -0.161433 3.12117 198 195 186
-4.27797 -4.36833 3.73433 17 18 12
-4.29729 -4.4034 3.73968 17 20 13
-1.61504 -0.706275 3.15189 184 180 169
-4.29868 -4.35713 3.74186 25 31 21
-1.4539 -0.176795 3.1325 201 197 186
-4.27028 -4.19794 3.7732 27 29 18
-1.40192 -0.204122 3.13411 208 203 197
-1.39711 -0.246236 3.14026 207 204 197
-1.42711 -0.16094 3.15281 201 194 184
-1.4209 -0.0705585 3.15276 213 212 207
-1.4209 -0.0705585 3.15276 213 212 207
-1.39278 0.638183 3.15572 102 95 85
-1.42221 -0.202504 3.16299 206 203 194
-4.38385 -3.80703 3.84847 184 190 202
-1.37059 0.645382 3.16342 117 123 113
-4.76055 -1.16583 3.97839 199 186 180
-1.52969 -0.739247 3.19878 199 186 180
-1.41803 -0.210084 3.17626 203 200 191
-1.36426 0.59286 3.17662 122 125 114
-1.37618 0.644438 3.18022 108 108 98
-1.50731 -0.759613 3.20396 201 193 182
-1.37338 -0.0337453 3.17769 203 199 190
-1.32174 0.677812 3.17167 116 118 107
-1.39478 -0.303306 3.18238 205 202 195
-1.37448 0.657448 3.18641 119 120 112
-1.36883 0.573598 3.18445 81 81 73
-4.36476 -3.75453 3.88979 185 191 203
-1.33807 0.494037 3.18063 123 123 115
-1.35198 -0.513928 3.17689 209 202 194
-1.39388 0.112958 3.19311 179 179 167
-1.37173 0.439524 3.19127 122 123 115
-4.3511 -3.71362 3.90696 184 192 203
-4.3569 -3.64697 3.90949 190 196 208
-1.38429 0.482996 3.20417 107 104 95
-1.36678 0.452 3.20105 87 82 76
-1.35183 0.0141258 3.19715 182 183 169
-1.39471 0.291593 3.21415 67 65 52
-1.41538 -0.372877 3.21521 207 205 193
-1.41538 -0.372877 3.21521 207 205 193
-1.31866 -0.486909 3.19174 207 204 195
-1.3515 0.205343 3.21241 81 79 67
-1.38091 0.0814246 3.21997 90 81 72
-1.38692 0.0286922 3.22355 73 67 53
-1.36931 0.290995 3.2268 83 80 73
-1.4059 -0.0646091 3.23693 91 85 71
-1.37431 -0.206201 3.23342 181 177 168
-1.31938 -0.51574 3.21843 209 206 197
-1.40672 -0.224577 3.25063 118 127 110
-1.38113 -0.240641 3.2451 185 196 179
-1.38113 -0.240641 3.2451 185 196 179
-1.36958 -0.295618 3.24537 187 184 177
-1.38262 -0.261351 3.25699 86 80 66
-1.40245 -0.229428 3.26315 82 79 62
-1.37955 -0.425617 3.26341 181 174 166
-1.34315 0.0260041 3.25914 94 92 80
-1.29824 0.308262 3.26296 69 61 50
-1.39784 -0.876555 3.30287 201 199 187
-1.24364 -0.0933263 3.3319 68 69 55
-1.19547 -0.421682 3.38509 109 103 89
-1.34791 0.0802279 3.43276 116 116 108
-1.16913 -0.445104 3.39691 82 76 62
-0.453715 -2.04283 3.49303 71 72 66
-0.453715 -2.04283 3.49303 71 72 66
-0.389792 -2.01639 3.54527 43 39 36
-0.473672 -1.31159 3.58344 116 105 101
-0.632636 -2.39401 3.67475 55 54 52
-0.632636 -2.39401 3.67475 55 54 52
-0.474353 -1.34204 3.62329 193 192 187
-0.474353 -1.34204 3.62329 193 192 187
-0.60717 -2.37251 3.68552 178 157 166
-0.364062 -1.46156 3.60963 188 192 178
-0.290398 -1.96704 3.61268 33 30 23
-0.514439 -2.41336 3.72448 28 30 17
-0.248199 -2.02012 3.62624 41 38 33
-0.485049 -2.39935 3.7298 83 84 68
-0.258511 -1.95916 3.64295 69 70 62
-0.481921 -2.39245 3.74832 34 30 19
-0.134971 -2.04613 3.66326 105 110 106
-0.265778 -1.67827 3.73557 26 31 25
-0.112535 -2.05273 3.68582 27 28 22
-0.112535 -2.05273 3.68582 27 28 22
-0.142798 -1.96114 3.70162 16 21 15
-0.129684 -1.96324 3.72059 8 10 5
-0.130308 -1.4786 3.71998 211 208 201
-0.102291 0.783277 3.69501 28 31 24
-0.184375 -1.55584 3.7538 189 185 182
-0.169624 -1.6163 3.74906 179 177 182
-0.165349 -1.59871 3.75218 129 125 122
-0.165349 -1.59871 3.75218 129 125 122
-0.19231 -1.87044 3.76564 70 66 63
-0.237885 -1.82297 3.7873 47 47 39
-0.34115 -2.37674 3.84705 42 38 29
-0.0946691 -1.98875 3.73613 18 24 12
-0.0799743 -1.98658 3.73069 18 24 12
-0.14918 0.350555 3.76442 159 160 155
-0.309617 -2.39588 3.85755 66 65 63
-0.148179 -1.90206 3.78225 33 41 30
-0.148179 -1.90206 3.78225 33 41 30
-0.156748 0.637736 3.77846 214 213 208
-0.166345 0.361502 3.7977 160 162 159
-0.155901 0.626922 3.7915 212 212 204
-0.159769 0.651105 3.79378 215 215 207
-0.219462 -0.147109 3.82992 168 172 173
-0.156509 0.574345 3.79805 185 186 181
-0.163814 0.358978 3.8087 130 132 129
-0.181443 0.0610862 3.82605 205 204 209
-0.167539 0.33152 3.81848 193 192 190
-0.0206652 -2.05253 3.77 150 149 144
-0.151605 0.499099 3.81476 32 33 27
-0.191046 0.0306313 3.83689 180 178 181
-0.191046 0.0306313 3.83689 180 178 181
-0.205783 -0.299156 3.85167 21 27 13
-0.158783 0.317913 3.82697 179 180 175
-0.186313 -0.0473162 3.85466 45 46 30
-0.222142 -0.425479 3.87623 35 35 23
-0.222142 -0.425479 3.87623 35 35 23
-0.300838 -1.79364 3.92777 49 41 30
-0.155872 0.469341 3.84165 29 34 30
-0.301557 -1.35418 3.93462 203 202 198
-0.22491 -0.719389 3.89459 209 210 204
-0.22491 -0.719389 3.89459 209 210 204
-0.118675 -1.97136 3.85619 69 69 69
-0.270094 -1.42258 3.92423 13 24 16
-0.283627 -1.50316 3.93497 207 207 199
-0.283627 -1.50316 3.93497 207 207 199
-0.136582 -1.9454 3.87147 52 49 42
-0.27286 -1.53869 3.93288 213 210 205
-0.290755 -1.35014 3.94154 205 204 200
-0.0662702 -2.0429 3.84408 62 68 64
-0.0662702 -2.0429 3.84408 62 68 64
-0.230913 -1.28075 3.92255 212 211 206
-0.230913 -1.28075 3.92255 212 211 206
-0.12159 -2.00267 3.88636 78 84 74
-0.274305 -1.45871 3.96066 167 167 157
-0.272211 -1.44343 3.96016 106 119 109
-0.103913 -2.03861 3.88806 33 35 24
-0.103913 -2.03861 3.88806 33 35 24
-0.158681 -0.437337 3.90316 39 40 34
-0.165278 -0.40294 3.91301 28 29 21
-0.0511627 0.791754 3.84949 32 33 27
-0.245523 -1.7315 3.97056 150 147 140
-0.245523 -1.7315 3.97056 150 147 140
-0.220013 -1.91747 3.9606 35 35 25
-0.161547 -0.146543 3.92555 14 16 11
-0.166485 -0.507447 3.93396 41 42 28
-0.150095 -1.95138 3.94224 33 33 21
-0.258356 -1.78774 4.00771 48 51 42
-0.170985 -0.514168 3.96288 62 62 54
-0.250614 -1.78515 4.01718 44 25 21
-0.212728 -1.45621 3.99743 168 169 161
-0.0856743 -2.06896 3.94194 56 58 47
-0.193038 -1.42307 3.98849 36 44 33
-0.204721 -1.4275 3.99512 31 39 28
-0.245325 -1.79215 4.02307 36 16 9
-0.184475 -1.52429 3.99036 211 210 205
-0.214918 -1.0756 4.0027 29 31 18
-0.208581 -1.44305 4.00327 134 142 129
-0.215989 -0.961008 4.00425 172 149 141
-0.185956 -1.5077 4.00189 208 207 202
-0.18765 -1.50632 4.00259 208 207 202
-0.180951 -1.5163 4.00153 212 211 206
-0.181394 -1.62039 4.00915 197 196 192
-0.22017 -1.81541 4.0325 95 97 86
-0.217835 -1.80819 4.03757 187 174 165
-0.209916 -1.08401 4.02699 67 61 49
-0.221093 -1.29456 4.04023 215 212 205
-0.154995 -1.91419 4.01784 17 20 13
-0.231354 -1.44857 4.05101 40 53 44
-0.214282 -1.82316 4.04803 192 183 174
-0.256175 -1.79117 4.06981 177 180 173
-0.0634177 -2.03175 3.97928 63 65 54
-0.217819 -1.46216 4.05116 141 143 132
-0.254614 -1.77928 4.07476 153 155 150
-0.254614 -1.77928 4.07476 153 155 150
-0.205833 -1.52088 4.04942 209 208 203
-0.206756 -1.49683 4.04996 201 201 193
-0.250769 -1.79679 4.08021 179 179 171
-0.250769 -1.79679 4.08021 179 179 171
-0.185441 -1.07095 4.03955 75 72 63
-0.328471 -2.37347 4.12688 105 106 100
-0.0726367 -1.9351 3.99964 13 16 7
-0.0350613 -2.03253 4.00549 23 26 15
-0.172695 -1.38071 4.08444 199 198 194
-0.172695 -1.38071 4.08444 199 198 194
-0.201305 -1.72285 4.10603 184 183 178
-0.132781 -1.90703 4.07836 36 27 20
-0.264486 -2.34923 4.16613 40 42 31
-0.00587556 -2.06165 4.04736 14 17 8
-0.156938 -1.77941 4.13708 184 184 174
-0.126376 -1.63698 4.14244 204 201 196
-0.129891 -1.73746 4.14978 143 125 111
-0.103341 -1.57322 4.14205 211 210 205
-0.0298295 -2.00906 4.11493 193 190 183
-0.105061 -1.63826 4.15018 200 199 194
-0.0110007 -1.93154 4.11065 193 190 183
0.00847888 -1.93233 4.12816 190 190 182
-0.0660266 -1.74141 4.17971 184 184 176
0.0312312 -1.93354 4.13547 191 191 183
-0.0228861 -1.64115 4.19913 198 197 193
-0.0329964 -1.72698 4.20614 121 121 111
-0.00603645 -1.6104 4.20631 206 206 198
0.00211027 -1.6027 4.21075 208 207 202
0.0131341 -1.54628 4.22594 210 209 204
0.0116957 -1.69603 4.22957 167 172 165
0.0246474 -1.65718 4.22913 186 182 179
0.0354656 -1.6436 4.23013 191 190 186
0.0269383 -1.74749 4.24013 184 184 176
0.0478375 -1.66307 4.24609 173 169 166
0.0451607 -1.71994 4.24957 188 185 176
0.0605063 -1.57668 4.24116 210 209 204
0.0968513 -1.41098 4.23067 23 18 14
0.150955 -1.97481 4.20956 194 194 186
0.0716744 -1.66914 4.25875 161 160 158
0.0837523 -2.40764 4.35388 177 170 160
0.16631 -1.40946 4.28572 40 25 22
0.16631 -1.40946 4.28572 40 25 22
0.168772 -1.76127 4.32805 184 181 172
0.129485 -2.40537 4.38354 174 174 164
0.266421 -1.72618 4.37891 186 186 174
0.328089 -1.33134 4.33926 202 201 197
0.338498 -1.25347 4.35372 211 210 205
0.356507 -1.3593 4.35534 188 189 184
0.31955 -1.54603 4.39987 213 210 205
0.311951 -1.72051 4.41035 187 187 179
0.328603 -1.60311 4.40582 202 201 196
0.326146 -1.69728 4.41653 184 185 177
0.324052 -1.74468 4.42267 188 185 178
0.385687 -1.36358 4.37486 183 182 180
0.426316 -1.95284 4.37195 191 190 185
0.363393 -1.57591 4.41939 207 206 202
0.346587 -1.75309 4.43577 181 181 173
0.377101 -1.59744 4.43677 202 201 197
0.324478 -2.40875 4.50166 170 170 160
0.397159 -1.61433 4.44279 196 195 191
0.438924 -1.42291 4.41052 165 168 159
0.391634 -1.66767 4.45477 185 186 178
0.391634 -1.66767 4.45477 185 186 178
0.39276 -1.7166 4.46033 190 187 180
0.330815 -2.39855 4.51873 64 66 55
0.428574 -1.43165 4.44642 159 160 152
0.447735 -1.37063 4.43488 177 176 172
-0.526268 -1.84686 5.14895 198 198 190
0.451258 -1.4642 4.46564 199 199 191
0.231211 -2.75242 4.6503 10 15 9
0.44193 -1.44603 4.47192 175 176 168
0.549606 -2.03777 4.42167 187 187 177
0.465712 -1.4206 4.47789 125 135 126
0.405631 -2.4138 4.54807 53 53 45
0.565219 -2.01275 4.45525 188 187 182
0.6132 -1.95141 4.50641 72 78 64
0.511909 -2.38003 4.6283 51 51 39
0.671728 -1.97306 4.52484 65 69 55
0.600332 -1.79457 4.59182 32 34 21
0.607985 -1.72786 4.59251 33 36 25
0.627862 -1.72759 4.60324 25 27 16
0.648284 -1.66366 4.60525 197 172 165
0.653642 -1.73039 4.6267 21 22 14
0.663039 -1.75678 4.62943 21 24 17
0.664398 -1.76749 4.63816 21 24 15
0.686714 -1.64801 4.62897 52 29 23
0.69491 -1.48715 4.62019 211 208 203
0.763538 -1.98349 4.58783 89 80 65
0.696865 -1.60367 4.62881 188 187 182
0.697129 -1.74869 4.65094 16 19 12
0.697129 -1.74869 4.65094 16 19 12
0.714447 -1.66705 4.64819 52 38 25
0.706499 -1.71254 4.65647 26 29 20
0.713571 -1.67894 4.65561 43 40 25
0.712658 -1.72172 4.65773 30 34 20
0.730667 -1.69557 4.66418 22 28 16
0.80839 -1.95166 4.62028 162 159 150
0.838535 -1.94886 4.63895 159 155 146
0.801684 -1.26039 4.64601 210 207 202
0.815725 -1.69752 4.7235 124 124 116
0.85379 -1.43481 4.69743 125 118 108
0.863748 -1.37768 4.6974 144 137 127
0.104823 -1.70137 5.35324 120 117 110
0.865353 -1.38933 4.70367 116 113 106
0.968864 -0.578234 4.61529 32 34 29
0.998248 -0.543765 4.63062 31 33 28
0.924068 -1.39967 4.73258 130 132 121
1.20591 -1.93959 4.59302 172 154 144
1.35519 -2.09003 4.58131 44 47 38
1.26191 -1.85597 4.67414 157 154 145
1.40256 -1.83538 4.64433 179 176 169
1.37431 -1.44354 4.67313 130 128 116
1.38278 -1.7107 4.7197 74 74 62
1.33109 -2.36517 4.87545 101 103 92
1.65058 0.430469 4.59155 0 0 0
0.231564 -1.90034 4.19286 80 79 74
0.248444 -2.03641 4.25307 74 75 69
0.501041 -1.91921 4.37574 30 32 27
0.602014 -1.69351 4.59846 111 113 102
0.521196 -1.92031 4.39298 28 30 25
1.46498 -1.68154 4.82523 0 0 0
1.61876 -2.06241 4.68319 0 0 0
-0.10244 -0.2307 1.68837 33 35 34
-4.14644 -1.19119 7.73516 43 45 42
-0.192945 -0.232904 2.0566 198 198 200
1.83868 -0.435085 5.19405 0 0 0
-1.61306 -0.492015 3.03192 189 185 174
-1.56505 -0.659722 3.08856 202 199 190
-1.39865 -0.211471 3.15499 206 203 194
-1.36573 -0.148476 3.22533 181 189 174
-1.36259 -0.462875 3.26336 178 175 166
-1.95307 -1.77337 4.15694 197 192 189
-0.191962 -1.53539 3.75408 202 199 194
-1.33633 -2.01895 4.26855 123 128 124
-0.173268 -1.60852 3.75931 95 101 99
-1.55948 -1.76119 4.39375 172 158 155
-0.215834 -1.84896 3.79867 34 36 23
-0.309718 -2.39594 3.85778 66 65 63
-0.0551453 -2.0313 3.7529 87 89 84
-0.0355811 -2.04281 3.75517 35 36 28
-0.141826 0.426276 3.88674 122 124 123
-2.04247 0.705081 4.79596 34 36 33
-1.55159 -2.99283 4.6383 56 55 53
-0.184571 -1.52419 3.99063 211 210 205
-1.93514 1.11746 4.83928 25 26 20
-0.220067 -1.81509 4.03226 95 97 86
-0.214541 -1.11437 4.03152 69 66 49
-0.116439 -0.445159 4.01019 42 45 38
-0.18537 -1.80689 4.12031 189 186 179
-0.187137 -0.547814 4.20318 23 23 15
0.469444 -1.48178 4.43062 208 208 200
0.442731 -1.45851 4.45577 197 197 189
0.673516 -1.58012 4.6134 200 199 195
1.35786 -2.47057 4.88102 93 94 88
1.35968 -2.46345 4.88437 81 82 76
1.36965 -2.43266 4.90591 74 75 67
1.33294 -2.37345 5.05871 90 91 83
1.59198 -1.9842 4.78595 84 84 74
1.63943 -2.10048 4.77158 106 106 98
1.26174 -2.19857 5.63383 89 81 70
1.16671 -2.11416 5.78565 110 86 62
1.1952 -1.73985 5.80253 89 85 76
1.6295 -1.49863 5.23444 89 85 76
1.1063 -0.569294 5.84128 113 107 93
1.79152 -2.10908 5.1294 69 66 59
1.11325 -0.464376 5.92765 98 80 66
1.19406 -0.567858 5.88677 89 86 77
1.2009 -0.54908 5.91809 0 0 0
1.50944 -0.555739 6.11189 0 0 0
1.68047 -0.510804 6.24482 0 0 0
1.65437 -0.154599 6.3188 0 0 0
2.21334 0.487586 5.39741 0 0 0
2.35565 0.528431 5.40639 0 0 0
2.41727 0.561176 5.4542 0 0 0
2.41889 0.565624 5.45689 0 0 0
2.41889 0.565624 5.45689 0 0 0
1.90932 1.13354 6.47362 0 0 0
1.97663 0.182996 6.5887 0 0 0
1.93846 0.671459 6.65808 0 0 0
1.93846 0.671459 6.65808 0 0 0
2.06132 -0.25315 6.52338 0 0 0
1.98111 0.967536 6.57617 0 0 0
2.00277 0.419605 6.68218 0 0 0
2.51677 0.3377 5.56549 0 0 0
2.5389 0.325293 5.58469 0 0 0
2.10813 0.983369 6.71721 0 0 0
-4.08014 0.684993 2.64951 83 79 67
-3.96124 -3.8416 2.75474 159 169 181
-3.96507 -3.81988 2.78069 164 172 183
-3.93081 -3.43952 2.79808 167 177 189
-3.90968 -3.5454 2.83972 168 176 189
-4.30157 -3.80457 3.23519 174 180 192
-1.48196 0.439684 3.02376 56 55 50
-1.4113 0.221722 3.08935 72 75 64
-1.4447 -0.345128 3.11983 79 79 69
-4.24081 -4.30814 3.4119 23 27 13
-1.28064 0.653673 3.12391 194 194 186
-1.36605 -0.183353 3.14757 112 112 104
-1.28124 0.653509 3.14045 194 194 186
-1.38407 -0.238986 3.16557 115 116 111
-1.38171 -0.396 3.18743 98 94 85
-1.3076 0.512723 3.17928 197 197 187
-1.36067 -0.222141 3.20811 99 95 83
-4.26641 -4.5626 3.53438 16 15 10
-1.32319 0.163492 3.20405 93 95 94
-1.3351 0.0474572 3.21147 121 123 120
-1.33214 0.00571738 3.21981 128 130 125
-4.28577 -4.64077 3.57254 17 23 11
-4.25843 -4.62948 3.59616 36 36 26
-10.3644 -0.686181 4.14075 128 129 121
-1.32848 -0.272188 3.263 128 129 121
-1.30347 -0.516658 3.27457 105 99 87
-1.33631 -0.448937 3.28159 124 121 116
-1.25862 0.120229 3.27298 115 117 116
-1.36736 -0.893312 3.32422 108 101 91
-8.85868 -2.008 4.15017 117 118 110
-1.32428 -0.92093 3.33832 114 116 105
-4.24366 -4.50362 3.71673 21 20 15
-0.31069 0.311489 3.42938 181 180 176
-0.249996 0.314609 3.4643 187 188 183
-4.7785 -2.37382 4.32454 190 186 183
-0.484359 -1.34071 3.59851 190 186 183
-0.124993 0.315757 3.53668 192 192 190
-0.327778 -1.98877 3.62188 25 31 29
-0.336822 -1.35008 3.67286 135 112 106
-0.0711359 0.318077 3.59505 197 196 192
-0.0914444 0.353662 3.6377 208 209 203
-0.0914444 0.353662 3.6377 208 209 203
-3.70649 -3.73451 4.41073 11 14 7
-0.474759 -2.37149 3.76688 11 14 7
-0.0838769 0.762542 3.64232 215 215 207
-0.0838769 0.762542 3.64232 215 215 207
-0.172239 -1.47164 3.73669 203 204 198
-0.205767 -1.51521 3.75419 191 186 182
-0.199752 -1.55653 3.7552 47 43 42
-0.187699 -1.58842 3.75773 44 40 41
-0.0537611 -2.04416 3.75556 32 31 27
-0.347291 -2.41441 3.8377 4 9 5
-0.267704 -1.35457 3.81505 183 180 175
-0.264239 -1.8124 3.84566 49 42 34
-0.169805 0.507629 3.80517 198 195 186
-0.1769 0.464801 3.81146 217 214 205
-0.175214 0.385644 3.81635 213 213 205
-0.237278 -0.443651 3.86676 205 208 215
-0.161052 0.629232 3.83439 171 172 167
-0.266199 -0.925493 3.90101 184 187 180
-0.127102 0.258294 3.86093 136 138 137
-0.29949 -1.48456 3.93542 207 206 201
-0.236012 -0.770026 3.92236 197 202 196
-0.136037 0.532652 3.88152 149 150 142
-0.180192 -1.94077 3.94467 47 46 28
-0.140665 0.481748 3.889 213 213 203
-0.152192 0.202671 3.8984 191 190 186
-0.157768 0.286941 3.89911 104 100 97
-0.157844 0.00566274 3.90638 52 47 25
-0.160498 0.083021 3.91281 89 100 94
-0.176855 -0.561704 3.9341 58 66 68
-0.162058 0.0529499 3.91822 214 215 220
-0.167988 -0.00874213 3.92453 195 192 185
-0.164889 0.0966269 3.92494 22 21 17
-0.1747 -0.212234 3.93467 154 142 142
-0.190568 -0.606663 3.95027 23 23 13
-0.181431 -0.500151 3.94958 100 118 128
-0.179236 -0.571875 3.9508 58 51 33
-0.19759 -0.786983 3.96505 101 107 97
-0.187787 -0.349704 3.95423 58 84 97
-0.192438 -0.813939 3.96545 199 198 193
-0.413608 -2.36003 4.06147 40 40 30
-0.264304 -1.7958 4.014 43 43 43
-0.0533444 0.769026 3.91318 216 215 210
-0.193653 -0.829587 3.9807 199 199 191
-0.0414231 0.795227 3.91825 215 214 209
-3.47907 -3.70898 4.86558 24 28 14
-0.393826 -2.38343 4.07446 32 34 23
-0.224023 -1.06917 4.011 29 26 19
-0.233966 -1.79629 4.0314 13 19 15
-0.232637 -1.13669 4.02119 21 16 10
-0.238383 -1.3123 4.03533 209 208 203
-0.0963848 -1.96462 4.02123 24 26 21
-0.0044417 -2.0581 4.0024 16 15 11
-0.231756 -1.80237 4.05845 22 33 25
-0.22469 -1.33189 4.04841 207 206 201
-0.24858 -1.68506 4.06667 216 191 187
-0.248321 -1.72737 4.06955 23 21 8
-0.225637 -1.41496 4.07067 151 144 136
-0.0924297 -1.98736 4.06548 25 27 16
-0.19325 -0.417155 4.134 113 101 85
-0.00774149 -1.96979 4.12218 21 21 13
-0.107582 -1.57165 4.14331 196 195 191
-0.110026 -1.60797 4.14634 183 184 179
-0.110026 -1.60797 4.14634 183 184 179
-0.189302 -0.578173 4.17592 101 81 70
-0.0289155 -1.5925 4.19704 174 173 169
-0.0289155 -1.5925 4.19704 174 173 169
0.0982835 -1.94172 4.17945 171 172 166
-0.0196798 -1.69376 4.21315 192 189 180
-0.0120992 -1.67749 4.21339 188 185 178
0.00532138 -1.73709 4.23013 190 187 182
0.0679791 -1.68828 4.25989 191 188 181
0.0214096 -2.38551 4.32126 14 19 13
0.165074 -2.38959 4.40604 9 10 4
0.381619 -1.37022 4.37451 185 185 175
0.306692 -1.72028 4.4122 184 185 171
0.34942 -1.7674 4.42735 179 179 171
0.411562 -1.25931 4.42285 207 206 202
0.45719 -1.45641 4.41118 203 202 197
0.372046 -1.74641 4.45546 184 181 174
0.446498 -1.46914 4.44404 204 203 198
0.433531 -1.46115 4.45696 207 207 199
0.509098 -1.76804 4.5368 190 187 178
0.649102 -1.42269 4.56591 208 207 202
0.655421 -1.76913 4.62713 186 186 178
0.683995 -1.74799 4.6404 188 187 182
1.34397 0.315151 4.38651 209 208 203
1.19563 -1.92777 4.58212 16 17 12
1.45796 0.46323 4.43122 49 41 30
1.32498 -2.05955 4.58078 16 18 13
1.53867 1.02039 4.41248 201 195 183
1.39301 -2.12124 4.58899 15 17 12
1.54519 0.769273 4.44476 136 134 122
1.4368 -2.12173 4.61726 14 16 13
1.46476 -2.09494 4.64939 12 17 11
1.47047 -2.07072 4.68159 13 15 12
1.37348 -1.3837 4.72076 110 107 100
1.37348 -1.3837 4.72076 110 107 100
1.66566 0.319658 4.56358 119 122 113
1.52011 -1.98864 4.74018 41 42 37
1.72834 0.45741 4.59564 132 128 116
1.63455 -2.13955 4.72579 88 93 86
1.47914 -1.86613 4.81084 99 102 93
1.66672 -2.1409 4.74734 101 98 91
1.88917 1.03024 4.62215 164 158 146
1.63106 -1.45048 4.85636 85 85 75
