ply
format ascii 1.0 
element vertex 936
property float32 x 
property float32 y 
property float32 z
property uchar red  
property uchar green
property uchar blue
element face 0
property list uchar int vertex_indices
end_header
-1.03517 0.999501 1.92904 200 200 190
-1.02121 0.984085 1.94146 105 100 94
-1.02643 0.807276 1.98345 197 198 192
-1.02114 0.762541 1.98721 87 88 74
-0.997819 0.858865 1.96508 180 177 170
-1.00087 0.7757 1.97367 110 106 95
-0.98468 0.954041 1.98019 188 179 172
-0.987447 0.731871 2.03397 140 142 139
-1.03814 -0.257366 2.26914 108 109 104
-0.927328 0.935729 1.99164 129 128 126
-1.0052 -0.410792 2.19637 223 227 239
-0.91497 0.864957 2.00179 114 114 104
-0.905039 1.00188 1.99413 99 98 94
-0.949939 0.696889 2.10558 213 209 206
-0.894748 0.994408 1.99906 110 111 105
-0.983771 -0.375044 2.22985 108 113 109
-0.969932 -0.282257 2.20339 120 122 121
-0.95518 -0.538481 2.17598 220 226 238
-0.958422 0.0913757 2.18721 119 121 107
-0.958422 0.0913757 2.18721 119 121 107
-0.967617 -0.411734 2.22174 218 228 238
-0.956088 -0.197818 2.19588 17 20 13
-0.923748 0.712929 2.16969 216 216 216
-0.917645 0.595744 2.15031 245 246 241
-0.868363 0.788607 2.04393 50 46 43
-0.868363 0.788607 2.04393 50 46 43
-0.85531 1.0108 2.02221 130 129 125
0.160468 0.384452 2.29869 58 60 55
-0.848475 0.852468 2.03495 210 210 208
-0.928692 -0.176425 2.28723 33 33 31
0.197657 0.342985 2.37666 47 49 44
-0.850106 0.781256 2.06117 30 30 28
0.258586 -0.150868 2.6141 32 32 30
-0.841408 0.789443 2.05481 30 35 28
-0.899471 -0.210991 2.20431 43 43 41
-0.897888 0.207721 2.27246 107 103 92
-1.20268 0.00086263 2.98706 187 190 183
-0.8797 0.5308 2.23082 214 214 206
-0.883673 -0.361904 2.21219 109 113 112
-0.867289 0.700066 2.17617 216 215 211
-0.878478 -0.473513 2.22537 219 225 237
-0.886731 -0.356674 2.30842 112 112 112
-0.809628 0.782818 2.07832 32 39 31
-0.809628 0.782818 2.07832 32 39 31
-0.86419 -0.330829 2.22581 145 147 146
0.313443 -0.574213 2.61717 145 147 146
-0.864791 -0.151897 2.23683 29 29 27
-0.859638 -0.153662 2.21887 29 29 27
0.274801 -0.379956 2.31988 132 136 137
-0.858519 -0.290071 2.22576 132 136 137
-0.869603 -0.330389 2.30702 141 143 142
-1.46584 -0.292851 3.90158 48 50 47
-0.788962 -0.127082 2.12112 11 12 7
0.379557 -0.44558 2.63599 9 11 6
-0.830409 -0.318922 2.24188 9 11 6
-0.816454 0.534259 2.25853 144 145 147
-0.808377 -0.343548 2.28897 225 229 214
-0.747159 1.00842 2.06092 148 150 149
-0.752908 0.794686 2.08397 152 153 155
-0.823343 -0.163252 2.32979 213 214 209
-0.806144 -0.477976 2.24883 25 25 25
-0.809574 0.0234491 2.26176 219 225 237
0.385231 -0.433902 2.49974 210 210 208
-0.774625 0.708223 2.1939 29 29 27
-0.723676 0.965804 2.07729 25 27 24
-0.788291 -0.236699 2.32142 211 206 202
-0.773751 0.296226 2.24654 164 165 167
-0.705354 0.993233 2.08165 44 46 43
-0.769038 -0.144088 2.27935 220 220 218
-0.708564 0.802684 2.10202 178 180 179
-0.692843 0.775274 2.05899 34 34 34
-0.755816 -0.208877 2.27196 22 25 18
-0.752724 -0.0467728 2.29489 113 111 99
-0.741625 -0.479921 2.29874 131 131 123
-1.2123 0.341706 3.72828 44 44 42
0.45678 0.217759 2.40466 130 134 133
-0.74342 0.211682 2.32072 216 224 235
-0.673237 0.791291 2.11687 157 159 158
-0.734608 -0.472297 2.37053 104 106 105
-0.646498 0.79971 2.12493 160 162 161
-0.671596 0.746761 2.22239 213 214 209
-0.66972 0.74089 2.2046 217 223 235
-0.673298 0.626828 2.20062 124 124 122
-0.67314 0.68092 2.20393 204 205 199
-0.686215 0.459992 2.27008 204 205 199
-0.679524 0.599824 2.25491 219 218 214
-0.679041 0.588503 2.25842 162 162 154
-0.688054 0.0134252 2.31565 219 220 215
-0.696531 -0.26082 2.3463 220 221 216
-0.696531 -0.26082 2.3463 224 225 220
-0.698108 -0.4045 2.36375 199 199 199
-0.626513 0.845992 2.12756 98 106 109
-0.625655 0.796495 2.15981 98 106 109
-0.586245 0.797663 2.14598 163 163 163
-0.627627 -0.220199 2.56755 213 208 204
-0.600718 0.546898 2.41359 211 212 206
-0.598661 0.545333 2.41425 210 211 205
-0.602266 -0.425638 2.60879 48 47 43
-0.588429 -0.4122 2.61315 205 204 202
-0.428635 -0.408631 2.60129 208 207 205
-0.416485 -0.455142 2.664 206 207 202
-0.416631 -0.400659 2.5882 204 205 200
-0.430487 -0.652219 4.27452 206 203 196
-0.202414 -0.438962 2.70482 131 123 112
-0.199373 -0.103842 2.64673 209 208 204
-0.173459 -0.435541 2.69772 210 207 200
-0.144284 -0.423896 2.76698 211 211 203
-0.144284 -0.423896 2.76698 20 22 17
-0.147465 -0.453128 2.70324 208 209 203
-0.1392 -0.484496 2.67848 200 197 190
-0.163997 -0.50019 3.37584 200 197 190
-0.0954616 -0.19941 2.7605 209 208 203
0.00125597 -0.719415 2.89575 205 202 195
-0.00204722 -0.011072 2.72088 204 201 196
0.0117775 -0.443508 2.80728 28 30 27
0.00723873 0.547242 2.65295 208 209 204
0.00847642 0.763381 2.63957 165 165 165
0.0166055 -0.766719 2.81626 209 208 204
0.0246802 -0.221592 2.79968 221 222 224
0.0219579 -2.02178 3.2372 27 27 19
0.0307094 0.0104856 2.77472 207 204 197
0.0454737 -0.486886 2.75356 58 60 59
0.0593985 -0.231697 2.8115 13 16 7
0.065081 -0.405743 2.83028 185 185 185
0.0598468 -0.496181 2.75779 211 210 205
0.0703857 -0.221137 2.80194 40 42 39
0.0702949 -0.240042 2.7823 199 201 198
0.0761119 -0.4194 2.81576 212 211 206
0.085693 -0.375609 2.84894 34 34 34
0.0875245 -0.446856 2.84273 40 42 39
0.0900365 -0.16956 2.80136 207 208 203
0.0999228 -0.0353282 2.78755 149 151 148
0.106801 -0.419006 2.82796 211 210 206
0.110972 -0.65542 2.87764 22 24 19
0.1193 -0.66086 2.86026 147 147 147
0.119503 -0.0365387 2.77823 207 208 203
0.119503 -0.0365387 2.77823 212 213 208
0.120363 -0.488372 2.78853 214 213 208
0.116752 0.727193 2.67158 145 145 145
0.13241 -0.595935 2.82696 145 145 145
0.139947 -0.611138 2.82675 212 211 207
0.137899 -0.020892 2.77206 18 19 11
0.151767 -1.59697 2.93397 207 212 208
0.147067 -1.56633 2.8992 219 218 213
0.147399 -0.539266 2.80156 153 153 153
0.142067 0.754601 2.68889 123 124 119
0.177954 -1.61999 2.95002 91 90 86
0.31793 -1.60733 2.5489 202 199 194
0.561136 0.451278 4.4895 13 18 12
0.321391 0.256916 2.56273 20 20 18
0.326268 -1.58822 2.57612 1 13 9
0.330763 -1.59278 2.56565 174 176 171
0.304393 0.380424 2.23928 174 176 171
0.306711 0.575818 2.21319 63 78 75
0.29681 0.666462 2.16984 152 140 140
0.309353 0.772429 2.18247 99 102 93
0.314667 0.741288 2.19392 11 16 9
0.311964 0.938577 2.164 38 38 26
0.312022 0.97301 2.15889 37 37 25
0.31887 0.970388 2.16332 38 38 26
0.33025 0.751762 2.17238 13 16 7
0.39724 0.230833 2.43466 17 20 13
0.384193 0.34824 2.27292 14 17 10
0.384193 0.34824 2.27292 31 32 18
0.384957 0.770835 2.21753 178 177 172
0.408517 0.885659 2.2077 226 228 225
0.398108 0.878839 2.17943 226 228 225
0.434082 0.277347 2.27167 37 38 24
0.450964 0.377888 2.29439 50 50 38
0.503119 0.690019 2.27743 50 50 38
0.503119 0.690019 2.27743 188 190 187
0.545796 0.455099 2.35188 231 232 227
0.622548 -1.46799 2.6896 19 22 13
0.654398 -1.85105 2.79426 19 22 13
0.636107 -1.47375 2.67315 220 221 216
0.58205 0.358938 2.32115 17 17 7
0.707486 -1.78103 2.79429 21 22 16
0.607053 0.440082 2.35275 59 58 53
0.585871 0.999347 2.25559 227 228 222
0.735304 -1.51374 2.79398 58 60 49
0.736139 -1.81922 2.81178 219 220 215
0.604894 0.364157 2.32727 13 16 9
0.645386 0.451555 2.36184 164 160 149
0.645386 0.451555 2.36184 52 48 37
0.831851 -1.92498 2.88403 209 208 203
0.708729 0.481129 2.39593 220 219 214
0.746799 0.230887 2.49593 220 219 214
0.746799 0.230887 2.49593 44 46 35
0.870018 -1.85677 2.88399 192 196 199
0.709138 0.818419 2.33206 162 159 150
0.709138 0.818419 2.33206 162 159 150
0.897875 -1.92077 2.90826 50 46 37
0.89381 -1.80602 2.88615 18 19 13
0.753295 0.458534 2.40879 18 19 13
0.914783 -1.86429 2.9084 62 55 45
0.910672 -1.78033 2.89002 41 35 23
0.83409 0.577889 2.42414 152 153 147
0.840492 0.477569 2.43828 70 66 54
0.84066 0.665154 2.4099 63 57 43
0.838889 0.479447 2.41445 128 129 131
1.00706 -1.67215 2.88568 171 172 167
0.876615 0.450799 2.45804 109 117 120
0.885089 0.454023 2.47789 160 161 156
0.882799 0.441365 2.45372 25 26 20
1.24793 -2.17005 3.39402 156 157 151
1.32296 -2.20893 3.33818 156 157 151
1.35276 -2.25408 3.39931 42 35 29
1.53115 -2.30271 3.58235 72 49 41
1.6166 -2.04295 3.78884 126 131 135
1.69908 -2.13828 3.97506 126 131 135
1.61298 -2.06804 3.77785 88 88 80
1.70459 -2.07244 3.95143 26 23 14
1.61706 -1.98492 3.77633 26 23 14
1.62844 -2.05332 3.78848 68 66 54
1.62407 -1.9546 3.76971 105 103 91
1.63495 -1.9242 3.76679 105 103 91
1.64912 -2.04482 3.79907 101 101 91
1.69879 -2.0132 3.81552 70 67 60
1.73465 -2.09257 3.8522 63 66 59
1.73936 -2.11739 3.85347 53 52 47
1.7392 -2.06777 3.84391 77 74 67
1.73689 -2.04699 3.8389 71 73 62
1.63115 -2.29601 3.60433 67 66 61
1.76389 -2.15719 3.86569 62 65 56
1.75432 -1.93618 3.82588 75 74 69
1.74894 -1.9312 3.81594 100 96 85
1.69049 -2.34107 3.62002 66 66 56
1.81493 -2.35898 3.67932 73 69 60
1.78165 -2.39049 3.59614 73 69 60
1.97524 -1.92836 3.92585 104 100 91
1.88663 -2.41756 3.72166 120 116 107
2.04259 -2.25142 4.0359 118 111 101
1.95937 -2.55999 3.85764 25 24 20
1.95937 -2.55999 3.85764 114 110 101
2.06458 -1.7409 3.95871 56 55 50
2.20837 -1.79843 4.02928 118 109 100
2.19577 -2.46085 3.94029 118 109 100
2.20557 -1.61111 3.96275 169 162 152
2.31547 -2.22668 4.14314 161 157 146
2.31547 -2.22668 4.14314 82 81 77
2.21162 -1.69674 3.95565 112 108 99
2.14624 -2.3576 3.83405 139 135 124
2.24445 -1.72367 3.99513 139 135 124
2.24301 -2.5114 3.94843 130 127 118
2.09865 -2.459 3.69919 79 75 72
2.31377 -2.1588 4.08493 124 120 111
2.35319 -2.19683 4.14668 69 70 65
2.35832 -2.23032 4.15499 76 77 72
2.35832 -2.23032 4.15499 149 142 134
2.23258 -1.72968 3.94462 149 142 134
2.35864 -2.12911 4.14262 129 125 116
2.31443 -2.06663 4.06151 129 125 116
2.36418 -2.18146 4.11007 104 94 84
2.25353 -2.37682 3.89577 134 130 121
2.41984 -2.18223 4.17925 134 135 127
2.29089 -1.65899 3.96885 123 114 105
2.17747 -2.47246 3.73837 69 55 52
2.37356 -2.00828 4.07626 141 132 123
2.39765 -2.25299 4.08857 140 141 135
2.38064 -2.0163 4.06207 69 70 65
2.45809 -2.14652 4.19185 94 96 91
2.45809 -2.14652 4.19185 99 99 91
2.28444 -2.3726 3.89315 112 113 108
2.30641 -2.37184 3.90423 95 98 91
2.32522 -2.54029 3.94437 95 98 91
2.33709 -2.54144 3.94956 100 87 81
2.35915 -2.3767 3.92373 148 141 131
2.51781 -2.21134 4.19967 70 71 66
2.45128 -1.76791 4.04926 70 71 66
2.39784 -1.65248 3.9668 125 126 118
2.44057 -1.79492 4.01884 112 112 104
2.39394 -1.77591 3.93966 108 111 104
2.42289 -2.39673 3.97094 126 125 120
2.47746 -1.81802 4.02075 113 115 110
2.50024 -2.41357 4.01584 99 101 96
2.60813 -1.75674 4.14181 103 102 97
2.69131 -1.80876 4.26097 122 123 117
2.56779 -2.17244 4.0568 108 107 102
2.51945 -2.47636 3.98259 99 98 93
2.76176 -2.30135 4.35138 99 98 93
2.56241 -2.50113 3.96686 109 111 106
2.63496 -1.71237 4.07467 93 82 76
2.5995 -2.38482 4.00888 107 106 102
2.63455 -2.50295 4.05414 48 53 49
2.62293 -2.41177 4.00103 118 117 112
2.81149 -2.28341 4.29393 108 108 100
2.74622 -2.02228 4.11649 100 100 92
2.84899 -2.18441 4.28607 108 109 104
2.97487 -2.24436 4.4427 128 129 123
2.76967 -2.04981 4.12341 106 107 101
2.92618 -2.112 4.36086 97 98 92
2.72182 -2.36586 4.02016 114 117 108
3.02856 -2.01543 4.45195 135 135 125
2.9119 -2.07117 4.2871 102 101 97
2.92651 -2.09943 4.30586 85 85 75
2.87138 -1.88564 4.21893 105 106 100
3.01789 -2.04878 4.4196 112 113 107
2.93798 -2.04862 4.29628 105 106 100
2.97577 -2.22843 4.33829 113 114 106
2.97661 -1.98887 4.30004 123 124 118
3.04427 -1.90031 4.37795 137 138 132
3.00672 -2.11904 4.32909 100 101 95
2.92036 -2.55481 4.13897 104 103 98
3.09616 -2.57559 4.35881 104 106 101
3.09616 -2.57559 4.35881 119 120 114
2.88825 -2.35755 4.05053 108 108 100
2.97081 -2.41846 4.16531 101 101 93
3.02217 -2.42129 4.18235 101 101 93
3.17419 -1.32702 4.36053 80 77 68
3.20853 -2.57057 4.39897 93 93 81
3.05768 -2.1176 4.18835 107 97 85
3.38466 -2.31526 4.63602 123 117 105
3.2149 -2.17752 4.41978 111 103 90
3.38501 -2.21744 4.6256 114 107 97
2.99966 -2.36037 4.1362 115 107 96
3.53627 -0.616626 4.82178 124 115 106
3.17989 -2.50045 4.33225 118 110 99
3.45624 -2.37901 4.69474 110 101 92
3.2442 -2.17743 4.42345 131 122 113
3.55007 -0.641062 4.82086 101 97 85
3.71217 -3.46601 5.0279 105 98 88
3.28622 -1.80018 4.43068 97 87 78
3.6654 -3.4005 4.91276 128 120 109
3.15237 -2.43375 4.23222 86 83 74
3.27624 -1.9786 4.40152 117 111 99
3.45653 -2.08124 4.62556 94 92 80
3.45653 -2.08124 4.62556 108 102 90
3.33459 -1.74741 4.38726 115 109 97
3.26004 1.12076 4.27033 115 109 97
3.86359 -3.44153 5.04676 115 109 97
3.86359 -3.44153 5.04676 124 116 105
3.14423 -2.56875 4.08523 99 99 91
3.48463 -1.89541 4.53164 78 78 68
3.30501 -0.548067 4.24907 78 78 68
3.71549 -2.3249 4.76825 104 100 88
3.25835 -0.621061 4.18088 111 104 94
3.10433 -2.42371 3.99691 100 96 87
3.21931 -2.40222 4.13826 117 113 101
3.67186 -2.47993 4.68591 85 86 81
3.57382 -1.32612 4.52354 100 98 86
4.1311 -3.53223 5.21134 111 107 96
3.45402 -1.88442 4.35466 0 0 0
3.43166 -1.90547 4.32675 0 0 0
3.56385 -1.21763 4.46189 0 0 0
4.1549 -3.53945 5.19909 0 0 0
3.49174 -2.03601 4.38833 0 0 0
3.36105 -0.904919 4.21506 0 0 0
3.44728 -1.82645 4.31696 0 0 0
4.15654 -3.48753 5.17002 0 0 0
4.15654 -3.48753 5.17002 0 0 0
3.39046 -0.934902 4.20821 0 0 0
3.4387 -0.630217 4.23375 0 0 0
3.41634 -0.716872 4.20068 0 0 0
3.52088 -1.8026 4.33634 0 0 0
3.02013 0.991642 3.70979 0 0 0
3.53237 -1.8283 4.3418 0 0 0
4.10119 -3.41644 5.01895 0 0 0
3.11951 1.001 3.81546 0 0 0
3.5484 -1.80777 4.34578 0 0 0
3.36236 0.213697 4.10378 0 0 0
3.27682 0.0816821 3.99905 0 0 0
3.41005 -0.00707776 4.14952 0 0 0
3.70738 -1.83134 4.50234 0 0 0
3.4357 -2.09932 4.17852 0 0 0
3.32665 0.305673 4.02986 0 0 0
3.27792 0.587325 3.96141 0 0 0
3.68334 -1.82896 4.44179 0 0 0
3.26265 0.732098 3.93314 0 0 0
3.22884 -2.48471 3.88839 0 0 0
3.38729 -2.57441 4.06291 0 0 0
3.24863 0.897514 3.90129 0 0 0
3.25861 0.871291 3.9109 0 0 0
3.51433 -2.45894 4.18876 0 0 0
3.70552 -2.4096 4.40161 0 0 0
3.69727 -1.70111 4.27725 0 0 0
3.31679 -2.2971 3.79402 0 0 0
3.46521 -2.25974 3.94775 0 0 0
3.61423 -2.23956 4.11415 0 0 0
3.32157 -2.31793 3.77837 0 0 0
3.60202 -2.15956 4.09818 0 0 0
3.27194 -2.37796 3.71881 0 0 0
3.51288 -2.202 3.97925 0 0 0
3.3768 -2.2919 3.81017 0 0 0
3.41786 -1.71677 3.84301 0 0 0
3.09558 1.19018 3.45645 0 0 0
3.57066 -1.66981 3.9614 0 0 0
3.57496 -2.17063 3.96007 0 0 0
4.27601 -3.21144 4.6412 0 0 0
3.02002 0.341286 3.2438 0 0 0
3.00168 0.398057 3.21461 0 0 0
3.01653 0.383275 3.21797 0 0 0
3.58241 -2.35747 3.82791 0 0 0
3.14296 0.424396 3.34193 0 0 0
4.01964 -2.25198 4.2813 0 0 0
2.92234 0.841694 3.09551 0 0 0
4.46177 -3.2503 4.71342 0 0 0
3.76168 -2.32682 3.96189 0 0 0
2.90683 1.07614 3.05923 0 0 0
2.95524 0.822032 3.1089 0 0 0
3.0121 1.12041 3.13405 0 0 0
2.9553 0.882818 3.08999 0 0 0
4.61666 -3.2821 4.82219 0 0 0
4.14711 -2.25013 4.3202 0 0 0
3.7071 -2.26424 3.85217 0 0 0
3.92909 -2.34953 4.0257 0 0 0
3.17919 0.502482 3.25676 0 0 0
3.17919 0.502482 3.25676 0 0 0
3.38347 0.290728 3.45953 0 0 0
3.88172 -2.42716 3.95313 0 0 0
3.88172 -2.42716 3.95313 0 0 0
3.99763 -2.4278 4.05374 0 0 0
4.22954 -1.67133 4.2771 0 0 0
2.87251 -1.82354 2.90238 0 0 0
4.10548 -1.56721 4.14513 0 0 0
4.02886 -2.5487 4.05282 0 0 0
3.93939 -2.46097 3.93035 0 0 0
3.20834 1.07537 3.13961 0 0 0
3.57141 0.534187 3.48449 0 0 0
3.6393 0.51122 3.42291 0 0 0
5.30893 -0.118463 4.8924 0 0 0
3.67024 0.856149 3.33988 0 0 0
3.60784 1.08491 3.26704 0 0 0
5.66081 -0.459989 5.10785 0 0 0
5.80746 -0.418046 5.14096 0 0 0
5.53582 -1.02547 4.91319 0 0 0
5.61182 0.248693 4.95953 0 0 0
5.61182 0.248693 4.95953 0 0 0
5.75483 -0.200977 5.0776 0 0 0
5.75483 -0.200977 5.0776 0 0 0
6.14419 -0.957479 5.41171 0 0 0
4.82994 -0.741952 4.24388 0 0 0
5.97807 -0.761004 5.23153 0 0 0
5.40911 -0.636468 4.74382 0 0 0
5.7893 -0.146148 5.05612 0 0 0
4.82056 -0.212619 4.20845 0 0 0
5.31829 -0.00172602 4.64625 0 0 0
5.40216 -0.178893 4.71769 0 0 0
5.4536 -0.312609 4.73152 0 0 0
5.60624 -0.489408 4.85427 0 0 0
5.43331 -0.254919 4.7043 0 0 0
5.41719 -0.340131 4.65774 0 0 0
5.47595 -0.48948 4.70933 0 0 0
5.38582 -0.264936 4.6088 0 0 0
5.39711 -0.180327 4.61881 0 0 0
6.32578 -0.971362 5.39491 0 0 0
5.53275 0.648676 4.71589 0 0 0
5.72402 -0.136129 4.87856 0 0 0
5.12585 0.891987 4.37463 0 0 0
5.50242 -0.450026 4.69657 0 0 0
5.60916 -0.222769 4.77878 0 0 0
5.34837 0.0381634 4.55879 0 0 0
5.11612 0.924503 4.35733 0 0 0
5.46391 0.929869 4.641 0 0 0
5.5306 0.295472 4.69647 0 0 0
5.44333 -0.272212 4.62902 0 0 0
5.25621 0.363535 4.46793 0 0 0
5.35838 0.198387 4.5495 0 0 0
5.24792 0.397305 4.45259 0 0 0
5.45979 -0.157973 4.63325 0 0 0
5.18336 0.75161 4.39583 0 0 0
5.57901 0.178609 4.72373 0 0 0
5.5491 -0.118857 4.68767 0 0 0
5.76876 -0.267075 4.86809 0 0 0
5.76876 -0.267075 4.86809 0 0 0
5.67457 -0.514408 4.78737 0 0 0
4.93569 -0.434242 4.15979 0 0 0
4.91479 1.24888 4.13892 0 0 0
5.46262 -0.22976 4.6024 0 0 0
5.46262 -0.22976 4.6024 0 0 0
5.38334 0.905982 4.522 0 0 0
5.54823 -0.415889 4.66596 0 0 0
4.9518 -0.367699 4.15722 0 0 0
5.51191 -0.12157 4.63426 0 0 0
5.32863 0.85158 4.46424 0 0 0
5.1836 0.933138 4.34202 0 0 0
5.11811 0.940281 4.28132 0 0 0
5.14073 0.986693 4.29991 0 0 0
3.97172 0.745219 3.31662 0 0 0
5.05871 0.955181 4.22333 0 0 0
5.16745 0.787821 4.31855 0 0 0
5.71636 0.20238 4.77193 0 0 0
5.55731 -0.120844 4.64742 0 0 0
4.99869 1.24933 4.15953 0 0 0
5.60268 -0.120215 4.65746 0 0 0
4.9302 1.18726 4.08833 0 0 0
5.07981 0.892243 4.21171 0 0 0
6.49692 -0.788103 5.38416 0 0 0
4.89083 1.20065 4.03701 0 0 0
5.67354 -0.207767 4.67699 0 0 0
5.77808 -0.538581 4.7583 0 0 0
5.82447 0.564797 4.7673 0 0 0
5.72595 -0.218134 4.68726 0 0 0
5.62886 0.77839 4.59488 0 0 0
5.86324 -0.501612 4.78618 0 0 0
6.44455 -0.680097 5.24566 0 0 0
5.6755 0.222858 4.60763 0 0 0
6.06353 -0.55839 4.90765 0 0 0
5.94555 0.426108 4.79706 0 0 0
5.62504 0.462298 4.54572 0 0 0
5.71567 0.775853 4.60748 0 0 0
5.56288 0.643383 4.47482 0 0 0
5.36405 1.2429 4.21408 0 0 0
5.61845 0.989696 4.34996 0 0 0
7.47571 1.14586 5.57532 0 0 0
7.44501 1.13829 5.52539 0 0 0
7.18036 1.45579 5.29385 0 0 0
7.1653 1.38268 5.28082 0 0 0
7.1653 1.38268 5.28082 0 0 0
9.70119 1.34712 6.62924 0 0 0
-1.05865 1.00336 2.00062 0 0 0
-0.752692 0.723896 1.50758 0 0 0
-1.1809 -0.515585 2.50107 0 0 0
-1.15917 -0.275823 2.47948 0 0 0
-0.9421 0.832192 2.05525 0 0 0
-0.9421 0.832192 2.05525 0 0 0
-1.13799 -0.197328 2.49491 0 0 0
-0.942105 0.768278 2.09496 0 0 0
-0.916309 1.02034 2.03816 0 0 0
-0.912427 1.01046 2.03638 0 0 0
-0.931852 0.771734 2.09884 0 0 0
-1.06387 0.0331594 2.4304 0 0 0
-1.08636 -0.606216 2.48704 0 0 0
-1.38777 -0.686848 3.18929 0 0 0
-1.05574 0.0414226 2.42991 0 0 0
-1.02191 0.281996 2.37133 0 0 0
-0.968097 0.624949 2.27134 0 0 0
-1.02082 -0.299201 2.43865 0 0 0
-0.96242 0.516092 2.3047 0 0 0
-1.01902 -0.147828 2.44647 0 0 0
-0.949818 0.524361 2.30463 0 0 0
-0.949818 0.524361 2.30463 0 0 0
-1.57952 -0.282781 3.88323 0 0 0
-0.935413 0.466893 2.32268 100 93 83
-2.03102 -0.388836 5.15573 188 179 172
-0.963153 0.0273886 2.44856 220 226 238
-0.969506 -0.379431 2.46628 88 86 74
-0.952564 -0.250483 2.42465 130 130 128
-0.945743 -0.0531756 2.4616 130 130 128
-0.942869 -0.524531 2.47343 108 112 115
-0.783784 1.01886 2.06584 200 195 192
-0.927964 -0.2954 2.45942 118 119 113
-1.04721 -0.825746 2.77771 110 111 105
-0.918482 -0.0517463 2.46473 205 204 199
-0.901663 -0.0996633 2.47908 125 122 115
-0.759867 0.799228 2.09857 220 226 238
-0.89316 -0.053277 2.47092 222 226 238
-0.88188 -0.156143 2.46913 122 122 112
-0.808115 0.731452 2.26752 212 212 210
-0.745379 0.793025 2.13544 245 246 241
-1.47998 -0.127174 3.76049 118 120 119
-0.842676 -0.214071 2.49266 220 216 213
0.436822 0.38657 2.45578 87 87 85
-0.798551 0.138764 2.42402 216 213 208
-0.706782 0.794765 2.14271 216 213 208
-0.81264 -0.0152107 2.48443 24 24 22
-0.971433 0.266279 2.96196 225 216 211
-0.777654 0.21878 2.40053 30 32 29
-0.72541 0.731826 2.29395 157 152 148
-0.752798 0.313546 2.38584 112 112 112
-0.66902 0.856403 2.11768 44 45 39
-1.43195 1.71249 4.56148 120 124 127
-0.779225 0.0628582 2.53551 218 224 236
-0.691748 0.742562 2.27602 145 143 146
-0.662261 -0.450951 2.77118 122 126 127
-1.33839 -0.94371 5.99822 215 221 233
-0.617015 -0.484969 2.7695 127 133 133
-1.8082 -0.120351 8.2296 12 17 11
-0.512893 -0.445684 2.78574 213 214 209
-0.48749 -0.488382 2.77668 131 133 132
-0.487273 -0.443512 2.80105 25 27 24
-0.934099 -0.992622 5.65298 108 105 96
-0.434121 -0.486592 2.77896 128 119 112
-0.39706 -0.429525 2.80551 130 131 135
-0.375106 -0.511952 2.75667 44 46 45
-0.570346 -0.8831 5.71668 33 34 29
-0.23632 -0.507178 2.78082 15 18 11
-0.217022 -0.426505 2.83744 178 173 170
-0.395639 -0.921209 5.48431 176 176 176
-0.203917 -0.476782 2.82758 157 159 158
-0.0330702 0.0191714 2.79087 160 162 161
-0.0215205 0.0265818 2.79195 210 209 205
-0.0136365 0.0717664 2.75334 221 221 219
-0.00333661 -0.415623 2.89167 215 214 209
0.259053 0.00698016 50.5318 223 224 219
0.0137187 0.000283076 2.79773 221 221 219
0.0301346 0.097985 2.7778 214 213 208
0.0517214 -0.209867 2.86892 206 207 202
0.328673 -1.06522 11.6038 207 208 203
0.0931408 -0.71831 2.95962 205 204 199
0.0962471 -0.500655 2.85227 142 146 147
0.778088 -0.265433 22.2398 202 198 189
0.10432 -0.639954 2.92505 197 190 180
0.107819 -0.501164 2.85605 201 201 193
0.117371 -0.519934 2.85759 119 119 111
0.218639 -0.493266 2.82379 155 157 156
1.0469 -2.34944 3.50345 118 112 100
1.22134 -2.18652 3.57234 212 211 207
1.39033 -2.15983 3.74105 210 207 200
1.46707 -2.29356 3.98909 210 207 200
1.37436 -1.88356 3.67184 209 209 199
1.31515 -2.24345 3.51372 207 204 197
1.40301 -2.16372 3.7389 207 204 197
1.29579 -2.27646 3.40782 194 194 194
1.44371 -2.07321 3.75574 200 200 198
1.43334 -2.02708 3.72786 218 218 216
1.43772 -2.09609 3.73592 152 151 149
1.47498 -2.12143 3.76345 178 178 178
1.34561 -2.31326 3.42622 178 178 178
1.34561 -2.31326 3.42622 226 226 224
1.46674 -1.95063 3.72327 27 29 24
1.53005 -2.00012 3.76159 40 42 37
1.60015 -2.13326 3.80959 210 209 205
1.51812 -2.32441 3.60525 211 210 206
1.59345 -1.94476 3.76235 147 147 147
1.60116 -2.00864 3.77969 213 212 208
1.63474 -2.09398 3.80504 213 209 206
1.71881 -2.23985 4.00812 208 207 203
1.56012 -2.33121 3.61084 212 211 207
1.64214 -1.95732 3.78768 30 23 15
1.67614 -2.08705 3.82371 27 27 19
1.72209 -1.95502 3.92796 26 25 21
1.69113 -1.96421 3.80163 26 25 21
1.70024 -2.02336 3.81994 63 62 57
1.7196 -2.1497 3.85219 231 223 220
1.79191 -2.12935 3.98375 20 24 23
1.73366 -1.96376 3.81641 35 31 30
1.73806 -1.99567 3.82557 145 140 134
1.65199 -1.46771 3.6348 66 58 55
1.7597 -2.12018 3.85955 87 82 78
1.69063 -2.38463 3.66894 56 59 52
1.77767 -2.09411 3.8531 109 115 115
1.80928 -2.37577 3.71035 109 115 115
1.80928 -2.37577 3.71035 81 78 71
1.82296 -2.40035 3.71732 56 63 56
1.80925 -2.43529 3.6527 27 29 26
1.85685 -2.34064 3.72798 90 91 83
2.0046 -2.16246 3.94804 68 68 58
1.99003 -2.45276 3.91873 74 74 64
2.03414 -2.44815 3.9288 87 82 76
2.05548 -1.73092 3.93548 87 84 77
2.06017 -2.53077 3.92245 93 90 83
2.03934 -1.70009 3.80622 62 65 58
2.06134 -2.36574 3.79418 56 56 54
2.15235 -2.4337 3.94453 68 69 63
2.19409 -2.0266 3.98981 58 51 45
2.13607 -1.60759 3.87754 73 70 65
2.13607 -1.60759 3.87754 72 68 57
2.20493 -2.03438 3.98972 73 72 68
2.23363 -1.96962 3.98502 71 72 66
2.13924 -1.74765 3.81294 70 73 64
2.26479 -2.08369 4.02021 203 202 197
2.26479 -2.08369 4.02021 64 65 57
2.23896 -1.73507 3.95635 99 97 85
2.27984 -2.42131 3.96016 91 86 80
2.21814 -2.46644 3.81326 120 113 103
2.21814 -2.46644 3.81326 120 113 103
2.26219 -1.54538 3.87965 122 115 107
2.38633 -2.11977 4.06768 118 111 101
2.37273 -2.12298 4.05878 120 111 102
2.27127 -1.61617 3.88208 19 19 11
2.39077 -2.09642 4.08373 120 116 107
2.28368 -2.37289 3.87362 114 110 99
2.39564 -1.92018 4.05696 169 162 152
2.40331 -2.03346 4.05759 115 111 102
2.40331 -2.03346 4.05759 165 158 148
2.40104 -1.61107 4.00868 103 98 94
2.40104 -1.61107 4.00868 81 82 76
2.36578 -2.52446 3.93003 160 153 143
2.36578 -2.52446 3.93003 145 137 126
2.41968 -2.40566 3.9782 145 137 126
2.3666 -2.46637 3.85622 159 150 141
2.3666 -2.46637 3.85622 154 149 143
2.46208 -2.411 3.95296 146 141 135
2.46208 -2.411 3.95296 148 148 140
2.60165 -2.19936 4.15082 148 148 140
2.60165 -2.19936 4.15082 104 94 84
2.57277 -2.08967 4.09927 47 39 36
2.53703 -2.37653 3.97066 75 77 72
2.53842 -2.40248 3.96289 75 77 72
2.6366 -1.70165 4.05392 140 143 136
2.62668 -2.3795 3.99944 126 122 113
2.62195 -2.50147 3.97625 126 122 113
2.79007 -1.95811 4.17566 114 115 107
2.79543 -2.0404 4.10483 103 104 98
2.84868 -2.1073 4.21975 28 30 25
2.86132 -2.17335 4.23466 114 115 109
2.87588 -2.17639 4.24548 119 116 109
2.89543 -1.98795 4.21001 119 116 109
2.93723 -2.20349 4.26504 122 121 116
2.9154 -2.01977 4.22785 122 121 116
2.9124 -1.98006 4.22097 64 65 60
2.87903 -2.07184 4.14636 64 65 60
3.08925 -1.6572 4.28401 120 119 114
3.13427 -2.12159 4.32006 58 60 57
3.00222 0.438615 4.13852 58 60 57
3.04703 -1.54331 4.17784 148 149 141
3.14269 -2.09383 4.30822 148 149 141
3.16701 -2.10737 4.3281 107 108 102
2.96228 -1.3051 4.03513 107 108 102
3.15332 -2.00372 4.30344 113 115 110
3.15332 -2.00372 4.30344 102 103 95
3.17424 -1.69525 4.26837 87 88 80
3.09103 -0.625029 3.96036 118 117 112
3.16444 -0.630521 4.01235 96 97 91
3.33447 -1.16414 4.21359 45 49 48
3.22388 -2.50642 4.02625 102 103 97
3.30998 -0.462541 4.06614 124 121 112
3.47951 -1.77441 4.27464 124 121 112
3.26584 -0.225348 3.99232 113 114 108
3.56814 -2.19033 4.02925 121 122 116
3.56403 -2.15223 4.0195 110 107 100
3.61139 -2.11509 4.03436 105 108 101
3.62292 -2.16769 4.04564 113 115 110
3.7576 -1.62388 4.04375 132 129 122
3.594 -2.40353 3.79855 129 130 124
3.7188 -2.43487 3.91681 115 105 95
3.76804 -2.4116 3.96104 119 109 99
4.13713 -2.37843 4.28791 133 109 85
4.02863 -2.17044 4.174 128 122 110
3.8109 -2.43305 3.94095 118 109 100
3.8109 -2.43305 3.94095 119 111 100
4.12525 -2.13576 4.1934 128 122 110
3.77644 -2.28853 3.84294 107 100 90
3.98031 -2.34463 4.03059 107 100 90
4.19071 -2.16943 4.22195 108 99 90
3.84138 -2.28273 3.85908 101 94 86
4.04601 -0.428309 3.95283 0 0 0
4.66359 -0.440324 4.49381 0 0 0
4.65562 -0.460791 4.47719 0 0 0
4.61317 -0.0346066 4.41 0 0 0
3.80706 -0.358843 3.62788 0 0 0
5.06983 -0.031023 4.77444 0 0 0
4.7928 -0.563497 4.50454 0 0 0
4.95932 -0.475892 4.58559 0 0 0
5.17503 0.0622177 4.76908 0 0 0
4.95869 -0.497822 4.55884 0 0 0
5.19199 0.122545 4.76362 0 0 0
4.59199 -0.399845 4.18507 0 0 0
4.94254 -0.0899943 4.50742 0 0 0
5.18768 0.265424 4.72563 0 0 0
5.1392 0.471531 4.65089 0 0 0
5.03856 0.898571 4.53245 0 0 0
5.18965 -0.43842 4.65511 0 0 0
4.68924 -0.401882 4.15594 0 0 0
4.00687 -0.242456 3.56649 0 0 0
5.16643 -0.310204 4.59349 0 0 0
3.98056 -0.441846 3.5305 0 0 0
5.23781 -0.577991 4.64566 0 0 0
5.38583 -0.858468 4.77189 0 0 0
5.25638 -0.476478 4.65293 0 0 0
5.26551 -0.376268 4.65225 0 0 0
5.13449 -0.0461453 4.52842 0 0 0
5.22754 -0.222416 4.60759 0 0 0
5.0013 0.634195 4.3659 0 0 0
5.22514 0.0435341 4.55851 0 0 0
4.87126 0.998693 4.23288 0 0 0
5.13649 0.41401 4.45158 0 0 0
5.2774 0.0430962 4.57343 0 0 0
5.30939 -0.0332746 4.5869 0 0 0
4.83029 0.00501082 4.14804 0 0 0
5.2674 0.177029 4.53 0 0 0
5.3582 -0.404399 4.6016 0 0 0
5.04407 0.877323 4.32811 0 0 0
5.01104 0.95921 4.2961 0 0 0
5.31239 -0.561502 4.55417 0 0 0
5.05249 0.918684 4.32181 0 0 0
5.39335 -0.391228 4.60872 0 0 0
5.39711 -0.406236 4.61184 0 0 0
5.05522 0.931532 4.31463 0 0 0
5.28959 -0.0477416 4.51252 0 0 0
5.59662 -0.849067 4.77341 0 0 0
5.40557 -0.5316 4.6088 0 0 0
5.34947 -0.238828 4.55865 0 0 0
4.8947 -0.42728 4.15957 0 0 0
5.26408 0.18079 4.4841 0 0 0
5.09251 0.885623 4.32685 0 0 0
5.16643 0.638865 4.38728 0 0 0
5.39562 -0.302768 4.58147 0 0 0
5.3981 -0.198694 4.58311 0 0 0
5.21543 0.322051 4.42765 0 0 0
5.38353 -0.25162 4.5583 0 0 0
5.11591 0.836725 4.32565 0 0 0
5.24893 0.349895 4.42463 0 0 0
5.33478 0.189968 4.48633 0 0 0
5.40244 -0.0234267 4.53749 0 0 0
5.07087 0.882806 4.25644 0 0 0
5.43228 -0.297413 4.55928 0 0 0
5.24768 0.494142 4.3978 0 0 0
5.4954 -0.31672 4.58436 0 0 0
5.50936 -0.369033 4.59227 0 0 0
5.50936 -0.369033 4.59227 0 0 0
5.17512 0.855063 4.30724 0 0 0
5.51523 -0.296955 4.58788 0 0 0
5.29888 0.399974 4.40759 0 0 0
5.55211 -0.369945 4.608 0 0 0
4.93448 1.07297 4.09484 0 0 0
4.90755 1.18312 4.06176 0 0 0
5.85462 -0.752757 4.83066 0 0 0
5.80061 -0.683853 4.78285 0 0 0
5.55593 -0.0253571 4.57032 0 0 0
5.06638 -0.119826 4.16221 0 0 0
5.46702 0.277026 4.49204 0 0 0
5.74036 -0.472421 4.696 0 0 0
5.67886 -0.0503665 4.63542 0 0 0
5.6651 0.0496411 4.61688 0 0 0
5.13233 0.95867 4.17993 0 0 0
5.13233 0.95867 4.17993 0 0 0
4.1748 -0.0206127 3.39707 0 0 0
5.12232 -0.0222907 4.15544 0 0 0
5.79706 -0.508336 4.71151 0 0 0
5.14604 -0.221272 4.16484 0 0 0
5.64699 0.264417 4.5829 0 0 0
5.63184 0.185258 4.56623 0 0 0
5.80433 -0.549088 4.68689 0 0 0
5.80433 -0.549088 4.68689 0 0 0
5.5223 0.654054 4.45788 0 0 0
5.56935 0.456565 4.49353 0 0 0
5.57347 0.509044 4.45019 0 0 0
5.30302 0.960589 4.23264 0 0 0
5.46299 1.02451 4.24732 0 0 0
-0.983002 0.957096 1.98257 0 0 0
-0.984475 0.779542 2.03442 0 0 0
-0.928371 0.8318 2.01887 0 0 0
-0.916225 0.955699 2.00807 0 0 0
-0.947817 0.267889 2.25295 0 0 0
-1.32586 -1.04031 4.96133 0 0 0
-0.935928 -0.480374 2.23161 0 0 0
-0.911971 -0.171172 2.30801 0 0 0
-0.906273 -0.375019 2.32018 0 0 0
-0.66357 0.800887 2.11351 0 0 0
-0.690243 -0.507646 2.38438 0 0 0
-0.559623 -0.416352 2.62706 0 0 0
-0.543616 -0.0398578 2.56861 0 0 0
-0.37673 -0.446885 2.54351 0 0 0
-0.331137 -0.494916 2.65531 0 0 0
-0.62583 -0.625692 4.11627 0 0 0
0.0438318 -0.232073 2.80582 0 0 0
0.088364 -0.25309 2.80441 0 0 0
0.377868 0.58877 2.2013 0 0 0
0.402494 0.274482 2.2516 0 0 0
0.443802 0.354478 2.2545 0 0 0
0.726792 -2.69454 3.58372 0 0 0
1.71003 -2.23088 3.95695 0 0 0
1.67917 -1.9063 3.83172 128 128 126
1.16824 -2.70129 3.59347 42 37 34
1.04984 -2.1378 2.79793 215 214 209
1.55118 -2.39292 3.52691 151 151 151
2.01421 -2.484 3.92444 200 199 195
2.22617 -1.84276 4.12837 213 220 228
2.12845 -1.78517 3.99688 220 227 235
2.17833 -1.70335 3.95107 179 180 175
3.28099 -2.40961 4.16461 220 227 235
3.20728 -2.50733 4.08928 45 47 42
3.46755 -2.29262 3.96642 217 214 209
5.37851 -0.600945 4.79658 205 201 192
5.34493 0.429085 4.6125 21 23 18
4.93214 -0.489049 4.15807 212 209 200
-0.808809 0.787377 3.34192 145 135 126
0.528303 0.413689 2.72566 217 214 207
0.554019 0.415562 2.73181 209 206 199
0.609407 0.41579 2.74611 210 209 204
0.70322 0.534429 2.75719 10 15 9
0.70322 0.534429 2.75719 164 164 156
0.746194 0.461162 2.77338 189 186 179
0.81596 0.539469 2.79508 71 54 46
0.870466 0.406772 2.81601 113 106 96
0.947545 0.527471 2.82839 23 24 19
1.67122 -2.19486 3.94151 109 105 94
1.71199 -2.21539 4.00087 112 108 96
1.72848 -2.13419 3.95256 72 62 53
1.7224 -2.51225 3.86686 81 80 75
1.83044 -2.47309 3.89635 148 142 128
1.79926 -2.51288 3.7545 169 163 149
1.975 -2.52859 3.91042 138 134 125
2.06387 -2.22929 4.05075 105 101 90
2.11345 -2.47429 3.9312 113 109 100
2.15227 -2.51727 3.92295 110 106 94
2.19219 -2.4644 3.94182 0 0 0
2.41925 -2.59528 4.23756 0 0 0
2.63478 -2.12934 4.06581 0 0 0
2.54761 -2.51334 3.97058 220 221 216
1.38179 -1.16525 1.98906 227 227 225
2.97423 -2.15242 4.09925 226 227 222
2.55684 -1.67351 3.49419 227 228 223
3.56689 0.40947 3.50068 220 221 216
4.6391 -0.411578 4.41838 220 221 216
3.56744 -0.327689 3.19329 233 232 227
3.23541 -1.47039 3.18921 152 149 144
3.23982 -1.71934 3.09565 162 163 157
-1.09344 -0.460363 7.03885 161 162 154
-0.734888 -0.543158 3.4496 61 61 53
-0.708167 -0.549046 3.45776 63 64 56
1.66016 -2.2134 3.99398 101 101 91
1.67525 -2.23601 4.04862 102 93 84
1.75197 -2.62606 3.89924 107 103 94
1.83421 -2.10853 3.94882 106 101 95
1.81867 -2.61513 3.89925 122 118 107
1.88225 -1.98593 4.04675 18 19 13
1.95174 -2.47921 3.95257 113 109 98
1.95552 -2.53819 3.95628 86 85 80
2.07188 -2.09518 3.99315 82 81 77
2.04806 -2.1313 4.06115 44 46 43
2.11443 -2.57171 3.92356 107 106 102
2.11443 -2.57171 3.92356 48 53 49
2.23697 -1.93743 4.07249 91 91 83
2.2444 -2.437 3.97555 102 95 85
2.29786 -1.65077 3.97806 118 110 99
2.34395 -1.97854 4.06852 0 0 0
2.30916 -2.54623 3.94208 0 0 0
2.45264 -2.52551 3.95468 0 0 0
2.45264 -2.52551 3.95468 0 0 0
2.47549 -2.3957 3.98366 209 206 199
2.52542 -2.3951 3.99892 208 205 196
2.56647 -2.38514 3.99388 184 182 183
2.6252 -2.4153 4.00288 186 184 185
2.75674 -2.02289 4.06198 87 80 72
2.70549 -2.37225 4.01049 87 80 72
2.79779 -1.94776 4.06192 17 19 16
2.81462 -2.03044 4.06084 66 69 60
2.80162 -2.35711 4.01726 86 92 82
3.05629 -1.9682 4.12706 205 206 200
3.29165 -2.40941 3.69042 72 73 65
3.52886 -2.28375 3.73643 64 59 55
3.63283 -2.41413 3.9355 115 102 94
3.69556 -2.40198 3.93779 115 102 94
3.81833 -2.09052 3.87049 25 28 21
3.80208 -2.38275 3.9451 25 28 21
3.80057 -2.48364 3.94972 211 210 206
3.80057 -2.48364 3.94972 162 158 146
3.84542 -2.34383 3.74056 21 22 17
4.21658 -0.42758 4.02638 188 182 170
4.27817 -0.406484 4.0397 136 132 123
4.29074 -0.407712 4.05941 114 111 104
4.28424 -0.485765 4.01438 114 111 104
4.43595 -0.491178 4.02864 125 126 120
4.69405 -0.419118 4.11248 111 112 106
