ply
format ascii 1.0 
element vertex 959
property float32 x 
property float32 y 
property float32 z
property uchar red  
property uchar green
property uchar blue
element face 0
property list uchar int vertex_indices
end_header
-0.130161 0.525262 2.23077 200 200 190
-0.105208 0.510668 2.24217 105 100 94
-0.0708941 0.376514 2.35423 197 198 192
-0.0770906 0.326341 2.28534 87 88 74
-0.061634 0.405123 2.2568 180 177 170
-0.0599853 0.337394 2.26336 110 106 95
-0.0223875 0.495739 2.34176 188 179 172
-0.00789146 0.295158 2.33186 140 142 139
0.0904071 -0.524377 2.63875 108 109 104
0.0401867 0.460042 2.27364 129 128 126
0.0651513 -0.614427 2.44811 223 227 239
0.0612857 0.401538 2.27849 114 114 104
0.0686123 0.511486 2.27407 99 98 94
0.0800869 0.257732 2.40671 213 209 206
0.0839633 0.50425 2.27662 110 111 105
0.109879 -0.59113 2.48535 108 113 109
0.106231 -0.509476 2.41664 120 122 121
0.111846 -0.702353 2.39811 220 226 238
0.116924 -0.228741 2.4651 119 121 107
0.116924 -0.228741 2.4651 119 121 107
0.124085 -0.616264 2.4676 218 228 238
0.12364 -0.451016 2.45093 17 20 13
0.162992 0.267506 2.51895 216 216 216
0.145302 0.171037 2.44479 245 246 241
0.158748 0.344974 2.37253 50 46 43
0.158748 0.344974 2.37253 50 46 43
0.161233 0.527507 2.35172 130 129 125
0.160468 0.384452 2.29869 58 60 55
0.232364 -0.456262 2.62468 210 210 208
0.173788 0.325362 2.32686 33 33 31
0.197657 0.342985 2.37666 47 49 44
0.194887 -0.459311 2.44376 30 30 28
0.258586 -0.150868 2.6141 32 32 30
0.276218 -0.393799 3.22684 30 35 28
0.254247 0.111749 2.5718 43 43 41
0.210334 -0.565202 2.40177 107 103 92
0.220726 0.249216 2.46691 187 190 183
0.223221 -0.647593 2.40877 214 214 206
0.294462 -0.596156 2.62445 109 113 112
0.231528 0.322846 2.33541 216 215 211
0.231528 0.322846 2.33541 219 225 237
0.247117 -0.549813 2.44907 112 112 112
0.254204 -0.417613 2.47677 32 39 31
0.243533 -0.411415 2.42068 32 39 31
0.25401 -0.519226 2.45096 145 147 146
0.313443 -0.574213 2.61717 145 147 146
0.265938 0.321079 2.34283 29 29 27
0.428448 -0.651236 3.75246 29 29 27
0.274801 -0.379956 2.31988 132 136 137
0.295165 -0.541247 2.45949 132 136 137
0.345548 0.109581 2.58314 141 143 142
24.6912 -12.3089 66.8891 48 50 47
0.294878 0.49875 2.308 11 12 7
0.318589 0.338943 2.38257 9 11 6
0.379557 -0.44558 2.63599 9 11 6
0.324646 -0.657266 2.44644 144 145 147
0.333737 -0.286402 2.50385 225 229 214
0.307417 -0.387404 2.3462 148 150 149
0.33979 0.250249 2.45976 152 153 155
0.331488 0.462047 2.31857 213 214 209
0.415481 -0.498891 2.61134 25 25 25
0.368347 -0.0757253 2.49459 219 225 237
0.355217 0.481922 2.31974 210 210 208
0.385231 -0.433902 2.49974 29 29 27
0.387916 -0.413019 2.49848 25 27 24
0.380765 0.340921 2.39042 211 206 202
0.356037 0.312263 2.27525 164 165 167
0.397834 -0.459586 2.4811 44 46 43
0.416505 -0.34168 2.51968 220 220 218
0.417515 -0.653063 2.4565 178 180 179
-5.02588 1.74469 -29.8713 34 34 34
0.465749 -0.151569 2.61571 22 25 18
0.411356 0.319167 2.34187 113 111 99
0.502719 -0.679683 2.63391 131 131 123
0.464921 0.33248 2.397 44 44 42
0.489643 0.278038 2.5035 130 134 133
0.46598 0.270492 2.44143 216 224 235
0.453972 0.176128 2.39576 157 159 158
0.45678 0.217759 2.40466 104 106 105
0.482584 0.0468494 2.50558 160 162 161
0.48282 0.156064 2.4949 213 214 209
0.4853 0.14692 2.49819 217 223 235
0.501469 -0.29705 2.52867 124 124 122
0.505418 -0.504727 2.54519 204 205 199
0.505418 -0.504727 2.54519 204 205 199
0.511687 -0.612587 2.55538 219 218 214
0.470379 0.358028 2.34304 162 162 154
0.507843 0.324209 2.42706 219 220 215
0.525516 0.317014 2.35035 220 221 216
0.725461 -0.506755 2.81787 224 225 220
0.661487 0.0954938 2.65095 199 199 199
0.66411 0.0941881 2.65097 98 106 109
0.773833 -0.663054 2.84358 98 106 109
0.790837 -0.652478 2.84365 163 163 163
0.912413 -0.617484 2.69572 213 208 204
0.99506 -0.676067 2.83291 211 212 206
0.935214 -0.620185 2.7199 210 211 205
1.60973 -0.905011 3.93945 48 47 43
1.19157 -0.637188 2.73936 205 204 202
1.19091 -0.404771 2.73488 208 207 205
1.23377 -0.641539 2.7584 206 207 202
1.31148 -0.64457 2.84316 204 205 200
1.31148 -0.64457 2.84316 206 203 196
1.26095 -0.652546 2.75489 131 123 112
1.25435 -0.670452 2.72393 209 208 204
1.50766 -0.727715 3.25001 210 207 200
1.34838 -0.480365 2.81503 211 211 203
1.50239 -0.849734 2.90512 20 22 17
1.41967 -0.340623 2.75556 208 209 203
1.45489 -0.641001 2.79151 200 197 190
1.40724 0.0599557 2.713 200 197 190
1.40621 0.215788 2.70917 209 208 203
1.46253 -0.865717 2.79974 205 202 195
1.48659 -0.496417 2.82643 204 201 196
1.6385 -1.7319 3.13115 28 30 27
1.48296 -0.332309 2.80768 208 209 204
1.46503 -0.667834 2.74475 165 165 165
1.52327 -0.50265 2.82556 209 208 204
1.51472 -0.613909 2.79805 221 222 224
1.4802 -0.673683 2.74455 27 27 19
1.52176 -0.491521 2.80304 207 204 197
1.51048 -0.502086 2.78145 58 60 59
1.50428 -0.617856 2.76637 13 16 7
1.56178 -0.603528 2.84635 185 185 185
1.55972 -0.651426 2.83797 211 210 205
1.54787 -0.457407 2.80988 40 42 39
1.5517 -0.362894 2.79723 199 201 198
1.53795 -0.61708 2.76966 212 211 206
1.56016 -0.779173 2.80492 34 34 34
1.55918 -0.780526 2.78609 40 42 39
1.55944 -0.360345 2.77464 207 208 203
1.55944 -0.360345 2.77464 149 151 148
1.55031 -0.667626 2.75727 211 210 206
1.52059 0.183329 2.70399 22 24 19
1.57721 -0.743088 2.78567 147 147 147
1.58268 -0.75238 2.78142 207 208 203
1.57184 -0.348044 2.76162 212 213 208
1.59976 -1.39364 2.80227 214 213 208
1.59061 -1.37942 2.78927 145 145 145
1.55991 -0.692654 2.72987 145 145 145
1.55413 0.200233 2.71632 212 211 207
1.62977 -1.40663 2.80948 18 19 11
1.5631 -1.34092 2.40646 207 212 208
3.02623 -0.243456 4.65693 219 218 213
1.6376 -0.131803 2.51792 153 153 153
1.58425 -1.33118 2.43135 123 124 119
1.58295 -1.33231 2.42032 91 90 86
1.46516 -0.0128551 2.21333 202 199 194
1.45756 0.123851 2.19293 13 18 12
1.45888 0.19505 2.19261 20 20 18
1.44702 0.262465 2.16671 1 13 9
1.45731 0.239612 2.17616 174 176 171
1.44105 0.378968 2.1503 174 176 171
1.43866 0.403288 2.14566 63 78 75
1.44604 0.40042 2.14708 152 140 140
1.49237 0.253644 2.18978 99 102 93
1.64177 -0.137355 2.37307 11 16 9
1.55363 -0.0384325 2.22778 38 38 26
1.55363 -0.0384325 2.22778 37 37 25
1.53298 0.255313 2.1841 38 38 26
1.55062 0.33417 2.17175 13 16 7
1.56188 0.339089 2.18635 17 20 13
1.6314 -0.0856784 2.25472 14 17 10
1.62427 -0.0207267 2.23481 31 32 18
1.6671 0.191009 2.21509 178 177 172
1.6671 0.191009 2.21509 226 228 225
1.73193 0.0244909 2.26599 226 228 225
1.89244 -1.23592 2.47765 37 38 24
1.95067 -1.47362 2.54449 50 50 38
1.8957 -1.23627 2.45952 50 50 38
1.78668 -0.0356729 2.26993 188 190 187
1.99585 -1.42503 2.53613 231 232 227
1.78967 0.0142388 2.25821 19 22 13
1.73023 0.39881 2.17996 19 22 13
2.03746 -1.26463 2.55399 220 221 216
2.02493 -1.44592 2.54331 17 17 7
1.8099 -0.0325562 2.27145 21 22 16
1.82637 0.020694 2.25817 59 58 53
1.82637 0.020694 2.25817 227 228 222
2.12773 -1.50324 2.58012 58 60 49
1.89644 0.0362705 2.27696 219 220 215
1.96801 -0.137785 2.35246 13 16 9
1.96801 -0.137785 2.35246 164 160 149
2.15985 -1.45823 2.57482 52 48 37
1.87123 0.265716 2.22389 209 208 203
1.87123 0.265716 2.22389 220 219 214
2.1892 -1.49451 2.58652 220 219 214
2.18113 -1.42565 2.57383 44 46 35
1.93903 0.0198312 2.27854 192 196 199
2.20445 -1.45931 2.58555 162 159 150
2.19675 -1.40884 2.57463 162 159 150
2.01378 0.0954545 2.27697 50 46 37
2.02397 0.0287014 2.28653 18 19 13
2.01441 0.153733 2.26476 18 19 13
2.04746 0.0333106 2.30021 62 55 45
2.27246 -1.33366 2.55473 41 35 23
2.06141 0.00913612 2.29574 152 153 147
2.08349 0.00685672 2.31738 70 66 54
2.06478 0.00346547 2.29082 63 57 43
2.63808 -1.63377 2.90078 128 129 131
2.66425 -1.64004 2.83407 171 172 167
2.72724 -1.67563 2.89316 109 117 120
2.90231 -1.6851 2.98094 160 161 156
3.02351 -1.53642 3.1108 25 26 20
3.09044 -1.56859 3.17926 156 157 151
3.03211 -1.55718 3.11684 156 157 151
3.09355 -1.53498 3.17132 42 35 29
3.02103 -1.50347 3.10298 72 49 41
3.03078 -1.54073 3.10739 126 131 135
3.04017 -1.49249 3.11191 126 131 135
3.03079 -1.46712 3.09313 88 88 80
3.04684 -1.53372 3.10943 26 23 14
3.10076 -1.51834 3.12461 26 23 14
3.11408 -1.55123 3.12293 68 66 54
3.11665 -1.5642 3.12185 105 103 91
3.13378 -1.54499 3.13345 105 103 91
3.13097 -1.53344 3.13071 101 101 91
2.96646 -1.66569 2.9657 70 67 60
3.13448 -1.58336 3.12321 63 66 59
3.14051 -1.46956 3.11992 53 52 47
3.11562 -1.45927 3.09769 77 74 67
3.00747 -1.68289 2.96097 71 73 62
3.10479 -1.67918 2.9744 67 66 61
3.05235 -1.69475 2.91769 62 65 56
3.30609 -1.44481 3.13573 75 74 69
3.16501 -1.7046 2.98978 100 96 85
3.32601 -1.59587 3.1472 66 66 56
3.22149 -1.76383 3.04134 73 69 60
3.22149 -1.76383 3.04134 73 69 60
3.34644 -1.32644 3.11816 104 100 91
3.47627 -1.35506 3.15333 120 116 107
3.39297 -1.68717 3.05078 118 111 101
3.43522 -1.24423 3.09311 25 24 20
3.55699 -1.57352 3.19304 114 110 101
3.55699 -1.57352 3.19304 56 55 50
3.45616 -1.29573 3.10186 118 109 100
3.35153 -1.64216 3.00586 118 109 100
3.47592 -1.30481 3.11208 169 162 152
3.41659 -1.707 3.04169 161 157 146
3.27499 -1.69401 2.91605 82 81 77
3.51095 -1.5241 3.13105 112 108 99
3.57834 -1.55314 3.18585 139 135 124
3.58264 -1.57031 3.18937 139 135 124
3.58264 -1.57031 3.18937 130 127 118
3.44397 -1.304 3.07267 79 75 72
3.58222 -1.51718 3.18365 124 120 111
3.51435 -1.47805 3.12485 69 70 65
3.54537 -1.53098 3.13515 76 77 72
3.433 -1.64291 3.02471 149 142 134
3.62436 -1.53921 3.19178 149 142 134
3.50076 -1.26711 3.08992 129 125 116
3.33314 -1.69281 2.92562 129 125 116
3.54639 -1.4394 3.1153 104 94 84
3.56231 -1.56638 3.1184 134 130 121
3.55807 -1.44676 3.11564 134 135 127
3.64933 -1.51684 3.19157 123 114 105
3.64933 -1.51684 3.19157 69 55 52
3.44605 -1.63465 3.01268 141 132 123
3.46137 -1.63189 3.01494 140 141 135
3.46434 -1.71017 3.01857 69 70 65
3.47444 -1.71367 3.02572 94 96 91
3.49602 -1.6286 3.01559 99 99 91
3.65655 -1.53526 3.16236 112 113 108
3.61177 -1.31307 3.10362 95 98 91
3.54086 -1.2473 3.04638 95 98 91
3.59577 -1.3264 3.08438 100 87 81
3.53045 -1.3114 3.02823 148 141 131
3.5488 -1.63541 3.036 70 71 66
3.61408 -1.33422 3.07503 70 71 66
3.6036 -1.63661 3.04817 125 126 118
3.69451 -1.28863 3.10703 112 112 104
3.80095 -1.32235 3.18919 108 111 104
3.67592 -1.51439 3.0812 126 125 120
3.6061 -1.66529 3.02293 113 115 110
3.8457 -1.56691 3.21785 99 101 96
3.61712 -1.66992 2.99623 103 102 97
3.73087 -1.2732 3.09236 122 123 117
3.66433 -1.61335 3.02906 108 107 102
3.68196 -1.66643 3.03947 99 98 93
3.67651 -1.62377 3.02018 99 98 93
3.82405 -1.53849 3.14492 109 111 106
3.78903 -1.42203 3.08596 93 82 76
3.84346 -1.48497 3.13337 107 106 102
3.97521 -1.51774 3.22539 48 53 49
3.80332 -1.43304 3.0824 118 117 112
3.90412 -1.44584 3.168 108 108 100
3.74375 -1.59192 3.01721 100 100 92
4.01012 -1.39985 3.22388 108 109 104
3.87818 -1.4224 3.12208 128 129 123
3.88901 -1.43553 3.12969 106 107 101
3.847 -1.33183 3.09316 97 98 92
3.99389 -1.41529 3.20377 114 117 108
3.89379 -1.40893 3.12223 135 135 125
3.91791 -1.49499 3.13594 102 101 97
3.91479 -1.37559 3.11657 85 85 75
3.99892 -1.33722 3.17367 105 106 100
3.93369 -1.4378 3.12547 112 113 107
3.84862 -1.66004 3.02796 105 106 100
3.99775 -1.66115 3.13283 113 114 106
3.99775 -1.66115 3.13283 123 124 118
3.84607 -1.57448 3.00887 137 138 132
3.8788 -1.58575 3.03244 100 101 95
3.90863 -1.58201 3.03196 104 103 98
4.07046 -1.04197 3.14355 104 106 101
4.0616 -1.64706 3.13275 119 120 114
3.97416 -1.44378 3.06455 108 108 100
4.21023 -1.51447 3.24565 101 101 93
4.05339 -1.44834 3.133 101 101 93
4.21024 -1.46738 3.24108 80 77 68
3.92285 -1.56273 3.03134 93 93 81
4.37062 -0.701091 3.36083 107 97 85
4.02879 -1.61136 3.09564 123 117 105
4.25357 -1.53949 3.26267 111 103 90
4.06834 -1.44554 3.12891 114 107 97
4.37009 -0.711262 3.35231 115 107 96
4.41989 -2.02644 3.38422 124 115 106
4.104 -1.26278 3.13721 118 110 99
4.37153 -1.99581 3.3258 110 101 92
3.98409 -1.57528 3.03442 131 122 113
4.08364 -1.34608 3.11259 101 97 85
4.24474 -1.39504 3.22652 105 98 88
4.24474 -1.39504 3.22652 97 87 78
4.11342 -1.22905 3.09551 128 120 109
4.11461 0.18709 3.08843 86 83 74
4.48342 -1.99126 3.35774 117 111 99
4.48342 -1.99126 3.35774 94 92 80
3.94117 -1.63661 2.94203 108 102 90
4.21587 -1.29539 3.15255 115 109 97
4.11957 -0.641596 3.05556 115 109 97
4.38161 -1.48829 3.24619 115 109 97
4.07829 -0.675623 3.02122 124 116 105
3.96372 -1.58741 2.94014 99 99 91
4.00203 -1.55156 2.96737 78 78 68
4.34163 -1.56278 3.20533 78 78 68
4.2883 -1.01987 3.15004 104 100 88
4.62493 -2.00208 3.39007 111 104 94
4.16352 -1.28415 3.0512 100 96 87
4.15066 -1.29681 3.04261 117 113 101
4.26909 -0.964829 3.11472 85 86 81
4.63138 -2.00211 3.37768 100 98 86
4.18752 -1.35575 3.0636 111 107 96
4.11274 -0.810058 3.00449 0 0 0
4.15552 -1.25599 3.03246 0 0 0
4.62285 -1.97492 3.35877 0 0 0
4.62285 -1.97492 3.35877 0 0 0
4.12525 -0.822841 2.99404 0 0 0
4.17079 -0.674189 3.01132 0 0 0
4.14324 -0.713089 2.98934 0 0 0
4.19478 -1.23926 3.02933 0 0 0
3.81393 0.182259 2.75544 0 0 0
4.2007 -1.25075 3.02978 0 0 0
4.56682 -1.94519 3.28443 0 0 0
3.92202 0.170896 2.8211 0 0 0
4.20926 -1.23976 3.02906 0 0 0
4.11382 -0.24966 2.95445 0 0 0
4.04051 -0.309537 2.90194 0 0 0
4.1447 -0.361912 2.97085 0 0 0
4.32821 -1.24727 3.09781 0 0 0
4.12372 -1.38522 2.95379 0 0 0
4.08142 -0.198653 2.9173 0 0 0
4.0381 -0.0515577 2.88242 0 0 0
4.30019 -1.24442 3.0642 0 0 0
4.02387 0.0240639 2.86788 0 0 0
3.96208 -1.58831 2.81914 0 0 0
4.05904 -1.61322 2.88237 0 0 0
4.00702 0.10969 2.84904 0 0 0
4.01284 0.0953593 2.85209 0 0 0
4.15207 -1.54904 2.93666 0 0 0
4.28935 -1.51385 3.02722 0 0 0
4.27614 -1.17659 2.96723 0 0 0
3.99484 -1.4863 2.75002 0 0 0
4.06928 -1.4469 2.79614 0 0 0
4.17822 -1.42915 2.86949 0 0 0
3.99399 -1.49585 2.7394 0 0 0
4.1714 -1.3919 2.86385 0 0 0
3.95657 -1.52935 2.71207 0 0 0
4.12896 -1.4242 2.82516 0 0 0
3.99299 -1.46584 2.72671 0 0 0
4.03872 -1.18495 2.75156 0 0 0
3.80347 0.300507 2.58117 0 0 0
4.14044 -1.15543 2.7964 0 0 0
4.20199 -1.416 2.8298 0 0 0
4.55123 -1.81845 3.0303 0 0 0
3.73287 -0.122017 2.46838 0 0 0
3.72316 -0.0900764 2.45725 0 0 0
3.72541 -0.0978016 2.45236 0 0 0
4.20276 -1.51569 2.76803 0 0 0
3.88288 -0.0863019 2.54978 0 0 0
4.39362 -1.40242 2.88917 0 0 0
3.63663 0.156492 2.38364 0 0 0
4.63775 -1.81536 3.03324 0 0 0
4.24761 -1.46274 2.77035 0 0 0
3.60604 0.284589 2.35376 0 0 0
3.65429 0.144213 2.38409 0 0 0
3.75641 0.304138 2.42868 0 0 0
3.64923 0.178259 2.37118 0 0 0
4.71741 -1.81382 3.06226 0 0 0
4.45543 -1.39114 2.88704 0 0 0
4.28251 -1.46007 2.76618 0 0 0
4.29852 -1.44706 2.7547 0 0 0
3.81807 -0.0380112 2.4467 0 0 0
3.81807 -0.0380112 2.4467 0 0 0
3.96973 -0.162129 2.54057 0 0 0
4.30331 -1.50026 2.74406 0 0 0
4.30331 -1.50026 2.74406 0 0 0
4.3327 -1.47758 2.75741 0 0 0
4.49531 -1.11911 2.8555 0 0 0
3.76686 -1.32897 2.39176 0 0 0
4.42006 -1.07475 2.8047 0 0 0
4.34302 -1.53006 2.74916 0 0 0
4.28133 -1.49492 2.69512 0 0 0
3.78398 0.269272 2.35216 0 0 0
4.33724 -0.0385315 2.6838 0 0 0
4.08308 -0.0466018 2.46925 0 0 0
5.00873 -0.410913 2.98688 0 0 0
4.06658 0.13221 2.40427 0 0 0
4.00892 0.253579 2.36253 0 0 0
5.16248 -0.55579 3.03351 0 0 0
5.20881 -0.535149 3.02018 0 0 0
5.15339 -0.797497 2.99356 0 0 0
5.1075 -0.25441 2.95849 0 0 0
5.1075 -0.25441 2.95849 0 0 0
5.17609 -0.443964 2.99449 0 0 0
5.17609 -0.443964 2.99449 0 0 0
5.346 -0.751997 3.08869 0 0 0
4.98302 -0.696299 2.87731 0 0 0
5.27151 -0.672259 3.0319 0 0 0
5.08357 -0.627361 2.92629 0 0 0
5.18344 -0.419472 2.97729 0 0 0
4.97484 -0.450645 2.85639 0 0 0
5.04775 -0.352344 2.89754 0 0 0
5.08439 -0.430843 2.91789 0 0 0
5.10672 -0.487824 2.91744 0 0 0
5.12478 -0.557866 2.92529 0 0 0
5.08327 -0.460668 2.89859 0 0 0
5.08583 -0.496452 2.88674 0 0 0
5.09624 -0.558771 2.89201 0 0 0
5.0716 -0.462443 2.86893 0 0 0
5.07737 -0.426268 2.87231 0 0 0
5.3927 -0.748432 3.04562 0 0 0
5.03155 -0.0727605 2.84139 0 0 0
5.14104 -0.407477 2.90232 0 0 0
4.95971 0.0555802 2.79944 0 0 0
5.1215 -0.543083 2.89202 0 0 0
5.11612 -0.443048 2.88712 0 0 0
5.0561 -0.329444 2.85202 0 0 0
4.95629 0.0714222 2.79359 0 0 0
4.98698 0.0493601 2.80942 0 0 0
5.04162 -0.220015 2.83913 0 0 0
5.09557 -0.465207 2.86971 0 0 0
5.01639 -0.18316 2.82394 0 0 0
4.98382 -0.255437 2.80603 0 0 0
5.01256 -0.167392 2.81803 0 0 0
5.09207 -0.415007 2.86247 0 0 0
4.98452 -0.00804656 2.80106 0 0 0
5.06143 -0.269983 2.84433 0 0 0
5.07971 -0.395494 2.84944 0 0 0
5.15418 -0.459842 2.88924 0 0 0
5.15418 -0.459842 2.88924 0 0 0
5.13969 -0.562701 2.88014 0 0 0
5.02044 -0.544159 2.80983 0 0 0
4.86747 0.238378 2.72229 0 0 0
5.10251 -0.44515 2.85459 0 0 0
5.10251 -0.44515 2.85459 0 0 0
4.94349 0.0484856 2.763 0 0 0
5.13813 -0.525769 2.87085 0 0 0
5.02933 -0.513449 2.80689 0 0 0
5.12513 -0.399452 2.86297 0 0 0
4.91837 0.0300398 2.74378 0 0 0
4.84678 0.0742528 2.70357 0 0 0
4.81128 0.0819392 2.68119 0 0 0
4.82133 0.100374 2.68665 0 0 0
4.65161 0.0866661 2.58816 0 0 0
4.78389 0.0935993 2.66218 0 0 0
4.97555 0.014443 2.76704 0 0 0
5.11247 -0.260903 2.84418 0 0 0
5.144 -0.398936 2.86252 0 0 0
4.73784 0.226021 2.63055 0 0 0
5.16256 -0.39829 2.86058 0 0 0
4.70161 0.205634 2.60399 0 0 0
4.93453 0.0701786 2.72867 0 0 0
5.43797 -0.669381 3.00915 0 0 0
4.84174 0.228348 2.668 0 0 0
5.19073 -0.434973 2.85899 0 0 0
5.2358 -0.576282 2.88229 0 0 0
5.13276 -0.10975 2.81583 0 0 0
5.21275 -0.438827 2.85678 0 0 0
5.03851 -0.0104184 2.75902 0 0 0
5.26646 -0.558897 2.88046 0 0 0
5.40713 -0.623126 2.95378 0 0 0
5.18256 -0.247685 2.82224 0 0 0
5.28172 -0.57426 2.87316 0 0 0
5.17825 -0.16757 2.81151 0 0 0
5.1728 -0.142511 2.80832 0 0 0
5.06678 -0.0124307 2.74955 0 0 0
5.13738 -0.0597963 2.77901 0 0 0
4.86641 0.212517 2.59243 0 0 0
4.99017 0.0946002 2.63011 0 0 0
5.63559 0.0603858 2.89001 0 0 0
5.61738 0.060383 2.87037 0 0 0
5.51428 0.191697 2.80411 0 0 0
9.83046 -2.94544 4.99678 0 0 0
5.50913 0.165849 2.80073 0 0 0
5.50913 0.165849 2.80073 0 0 0
9.82313 -2.86966 4.97506 0 0 0
9.86845 -2.92333 4.99336 0 0 0
9.76525 -2.9031 4.93207 0 0 0
9.65415 -2.54186 4.84669 0 0 0
9.67792 -2.86275 4.8539 0 0 0
9.44504 -2.83977 4.7178 0 0 0
9.01013 -2.71665 4.50428 0 0 0
9.73966 -2.82275 4.8517 0 0 0
9.02611 -2.28415 4.43728 0 0 0
8.58325 -2.17904 4.22331 0 0 0
8.88714 -2.09986 4.34675 0 0 0
8.77929 -1.96 4.29177 0 0 0
8.9442 -2.26422 4.36885 0 0 0
8.78036 -2.02246 4.28149 0 0 0
8.78036 -2.02246 4.28149 0 0 0
8.9698 -2.14179 4.35693 0 0 0
8.85044 -2.17648 4.27898 0 0 0
6.14921 0.0563884 2.9548 0 0 0
8.39891 -1.56406 4.02295 0 0 0
8.35955 -1.55568 3.99739 0 0 0
-0.119813 0.548153 2.44763 0 0 0
-0.0148583 0.173096 0.824509 0 0 0
0.033533 -0.803341 3.04352 0 0 0
0.0487456 -0.597287 3.00414 0 0 0
0.0648128 0.389483 2.47365 0 0 0
0.0648128 0.389483 2.47365 0 0 0
0.0856901 -0.531123 3.00451 0 0 0
0.0893633 0.329222 2.51213 0 0 0
0.0872758 0.546406 2.44513 100 93 83
0.0910855 0.538373 2.44219 188 179 172
0.104738 0.330901 2.51184 220 226 238
0.140286 -0.326991 2.89715 88 86 74
0.145365 -0.863112 2.9801 130 130 128
0.18535 -0.990742 3.66331 130 130 128
0.150154 -0.319756 2.89326 108 112 115
0.157332 -0.113385 2.81239 200 195 192
0.164044 0.181514 2.68181 118 119 113
0.198247 -0.599199 2.90267 110 111 105
0.191228 0.0874668 2.71647 205 204 199
0.205392 -0.474905 2.90102 125 122 115
0.206678 0.0940759 2.71214 220 226 238
0.206678 0.0940759 2.71214 222 226 238
0.415458 -0.882671 5.13172 122 122 112
0.23494 0.0447746 2.72555 212 212 210
0.350586 -0.64359 3.70312 245 246 241
0.27514 -0.329067 2.87483 118 120 119
0.277534 -0.661201 2.90241 220 216 213
0.27373 -0.550656 2.85304 87 87 85
0.303734 -0.394536 2.88016 216 213 208
0.313742 -0.775757 2.89729 216 213 208
0.268774 0.532366 2.43639 24 24 22
0.323751 -0.588477 2.8763 225 216 211
0.365163 -1.05933 3.24133 30 32 29
0.338266 -0.392133 2.87195 157 152 148
0.366496 -0.43098 2.8782 112 112 112
0.317029 0.347641 2.46411 44 45 39
0.371946 -0.3925 2.86688 120 124 127
0.384272 -0.473824 2.86274 218 224 236
0.356257 0.263828 2.62633 145 143 146
0.355793 0.335213 2.49259 122 126 127
0.450147 -0.499965 3.39968 215 221 233
0.443704 -0.519744 2.87031 127 133 133
-0.217004 -0.128041 3.33272 12 17 11
0.456429 -0.229556 2.78224 213 214 209
0.406093 0.334043 2.48881 131 133 132
0.473818 -0.359176 2.84549 25 27 24
0.516801 -0.200614 3.20076 108 105 96
0.467566 -0.162658 2.75157 128 119 112
0.468535 0.257491 2.62553 130 131 135
0.488143 -0.0854693 2.72742 44 46 45
0.436822 0.38657 2.45578 33 34 29
0.968347 0.73907 5.3715 15 18 11
0.540271 -0.302281 2.87716 178 173 170
0.497752 0.268165 2.59956 176 176 176
0.794759 -0.714587 3.05032 157 159 158
1.26637 -1.05165 4.56506 160 162 161
0.842046 -0.735653 3.03074 210 209 205
1.5265 -0.71589 5.4312 221 221 219
0.958747 -0.697644 3.00329 215 214 209
0.980388 -0.7261 2.98586 223 224 219
0.992592 -0.695142 3.00705 221 221 219
1.39302 -0.997464 4.10514 214 213 208
1.03582 -0.719952 2.96761 206 207 202
1.08588 -0.677237 2.97673 207 208 203
1.08442 -0.731022 2.92629 205 204 199
1.77834 -0.992146 4.34403 142 146 147
1.23246 -0.717256 2.89831 202 198 189
1.27706 -0.663056 2.94011 197 190 180
1.77906 -0.963481 4.05317 201 201 193
1.28516 -0.69697 2.92747 119 119 111
1.43191 -0.333043 2.8434 155 157 156
1.44346 -0.32762 2.84152 118 112 100
1.43535 -0.291718 2.80984 212 211 207
1.50069 -0.643869 2.91417 210 207 200
0.918179 -0.213763 1.7615 210 207 200
1.47858 -0.345237 2.83544 209 209 199
1.4865 -0.274607 2.81668 207 204 197
1.5426 -0.49635 2.88082 207 204 197
4.18095 -1.41627 7.65194 194 194 194
1.61451 -0.848942 2.93648 200 200 198
1.57437 -0.691834 2.85085 218 218 216
3.45923 -0.811879 6.25004 152 151 149
1.61163 -0.792634 2.90792 178 178 178
1.58634 -0.691622 2.85041 178 178 178
1.59523 -0.703737 2.84808 226 226 224
1.67197 -0.675387 2.79137 27 29 24
2.49592 -1.73534 2.97355 40 42 37
2.69205 -1.66038 3.05229 210 209 205
2.85472 -1.62527 3.12436 211 210 206
2.92658 -1.67015 3.21406 147 147 147
2.8282 -1.46817 3.08563 213 212 208
2.73841 -1.67921 2.98712 213 209 206
2.86247 -1.62577 3.11965 208 207 203
2.69374 -1.69939 2.91778 212 211 207
2.89499 -1.56955 3.12182 30 23 15
2.881 -1.54404 3.10631 27 27 19
2.88543 -1.58289 3.1099 26 25 21
2.91689 -1.59291 3.11835 26 25 21
2.73307 -1.71404 2.91812 63 62 57
2.73307 -1.71404 2.91812 231 223 220
2.90252 -1.49643 3.09575 20 24 23
2.95328 -1.51748 3.10448 35 31 30
3.01022 -1.58486 3.11799 145 140 134
2.89974 -1.69931 2.99941 66 58 55
2.99517 -1.47894 3.09021 87 82 78
3.00432 -1.51442 3.09943 56 59 52
3.03114 -1.55837 3.10651 109 115 115
3.10569 -1.61837 3.18516 109 115 115
2.92889 -1.69764 2.9932 81 78 71
3.03304 -1.48105 3.09511 56 63 56
3.06231 -1.54989 3.10873 27 29 26
2.90782 -1.37388 2.95167 90 91 83
3.06765 -1.47956 3.0923 68 68 58
3.07699 -1.51149 3.10083 74 74 64
3.09607 -1.57975 3.11581 87 82 76
3.15769 -1.55552 3.16952 87 84 77
3.09825 -1.47482 3.09175 93 90 83
3.10288 -1.49212 3.09617 62 65 58
3.00654 -1.20127 2.99931 56 56 54
3.12345 -1.55887 3.11143 68 69 63
3.02833 -1.71101 3.00064 58 51 45
3.13387 -1.54257 3.1039 73 70 65
3.11436 -1.69115 3.00056 72 68 57
3.11436 -1.69115 3.00056 73 72 68
3.12439 -1.70299 3.00166 71 72 66
3.09925 -1.72342 2.96236 70 73 64
3.14909 -1.66607 3.0017 203 202 197
3.29412 -1.55483 3.10979 64 65 57
3.2594 -1.70502 3.07674 99 97 85
3.29064 -1.69823 3.07541 91 86 80
3.32595 -1.3169 3.09418 120 113 103
3.29142 -1.73499 3.05806 120 113 103
3.11575 -1.23048 2.86027 122 115 107
3.29048 -1.65541 2.9983 118 111 101
3.36311 -1.67541 3.05823 120 111 102
3.4171 -1.46221 3.09402 19 19 11
3.3634 -1.24173 3.0424 120 116 107
3.3634 -1.24173 3.0424 114 110 99
3.42332 -1.46518 3.09147 169 162 152
3.43999 -1.42794 3.08312 115 111 102
3.34959 -1.31487 3.00029 165 158 148
3.46417 -1.48551 3.0964 103 98 94
3.46417 -1.48551 3.0964 81 82 76
3.46345 -1.31163 3.09099 160 153 143
3.45677 -1.66099 3.0538 145 137 126
3.38782 -1.69072 2.97556 145 137 126
3.38782 -1.69072 2.97556 159 150 141
3.4394 -1.1975 3.01703 154 149 143
3.55753 -1.49943 3.11395 146 141 135
3.53385 -1.49546 3.09583 148 148 140
3.44453 -1.23448 3.01596 148 148 140
3.56192 -1.48524 3.11964 104 94 84
3.44071 -1.63391 2.99998 47 39 36
3.57161 -1.39577 3.11345 75 77 72
3.55194 -1.44565 3.08932 75 77 72
3.55194 -1.44565 3.08932 140 143 136
3.57568 -1.23668 3.09427 126 122 113
3.57568 -1.23668 3.09427 126 122 113
3.50177 -1.7064 3.01879 114 115 107
3.50177 -1.7064 3.01879 103 104 98
3.54878 -1.64025 3.04233 28 30 25
3.4845 -1.67351 2.97111 114 115 109
3.4845 -1.67351 2.97111 119 116 109
3.56004 -1.63438 3.01059 119 116 109
3.56004 -1.63438 3.01059 122 121 116
3.67936 -1.51258 3.10076 122 121 116
3.67936 -1.51258 3.10076 64 65 60
3.65584 -1.45903 3.07867 64 65 60
3.60669 -1.60844 3.00628 120 119 114
3.60556 -1.62159 3.00102 58 60 57
3.7294 -1.26788 3.08299 58 60 57
3.68005 -1.60697 3.02063 148 149 141
3.66663 -1.66794 3.00132 148 149 141
3.78906 -1.37229 3.0782 107 108 102
3.81504 -1.4301 3.07461 107 108 102
3.82705 -1.44284 3.09063 113 115 110
3.83534 -1.47478 3.09569 102 103 95
3.84496 -1.47507 3.0989 87 88 80
3.85151 -1.37857 3.07663 118 117 112
3.88065 -1.48302 3.09759 96 97 91
3.86489 -1.39303 3.08256 45 49 48
3.86259 -1.37337 3.07964 102 103 97
3.86619 -1.43541 3.07503 124 121 112
3.96852 -1.19969 3.0821 124 121 112
3.99301 -1.42508 3.09003 113 114 108
3.92426 -0.149049 3.03645 121 122 116
3.93267 -1.14405 3.03362 110 107 100
3.9961 -1.41068 3.08236 105 108 101
4.01135 -1.41537 3.08834 113 115 110
3.94026 -1.04595 3.03526 132 129 122
4.00156 -1.36544 3.07817 129 130 124
4.00156 -1.36544 3.07817 115 105 95
4.01064 -1.21185 3.0576 119 109 99
3.93448 -0.672166 2.91191 133 109 85
3.98151 -0.674589 2.92776 128 122 110
4.09145 -0.939223 3.00224 118 109 100
3.98979 -1.6032 2.90622 119 111 100
4.06769 -0.587897 2.93255 128 122 110
4.16592 -1.2275 3.00361 107 100 90
4.03837 -0.466788 2.90258 107 100 90
4.17268 -1.41732 2.85083 108 99 90
4.16962 -1.39904 2.84637 101 94 86
4.19624 -1.37737 2.84693 0 0 0
4.20286 -1.40193 2.85071 0 0 0
4.27989 -1.13084 2.8338 0 0 0
4.21729 -1.53279 2.75663 0 0 0
4.23086 -1.52392 2.76181 0 0 0
4.26171 -1.50816 2.77835 0 0 0
4.48077 -1.46136 2.89387 0 0 0
4.41931 -1.3723 2.85339 0 0 0
4.28053 -1.51529 2.76043 0 0 0
4.28053 -1.51529 2.76043 0 0 0
4.46824 -1.34893 2.84843 0 0 0
4.34594 -1.45181 2.7635 0 0 0
4.37731 -1.45685 2.78312 0 0 0
4.5019 -1.35993 2.85268 0 0 0
4.38039 -1.44461 2.75901 0 0 0
4.43285 -0.53995 2.75137 0 0 0
4.76739 -0.555834 2.93126 0 0 0
4.76249 -0.564426 2.92428 0 0 0
4.74502 -0.369247 2.90174 0 0 0
4.83614 -0.560755 2.95105 0 0 0
4.96585 -0.380571 3.00552 0 0 0
4.82396 -0.607412 2.91579 0 0 0
4.90311 -0.567436 2.93045 0 0 0
5.0107 -0.337799 2.98764 0 0 0
4.90114 -0.575794 2.91771 0 0 0
5.01874 -0.311135 2.98333 0 0 0
4.85972 -0.541663 2.87664 0 0 0
4.89667 -0.393115 2.89873 0 0 0
5.01705 -0.246909 2.9675 0 0 0
4.99585 -0.152573 2.94153 0 0 0
4.953 0.0441912 2.90412 0 0 0
5.00596 -0.54783 2.9295 0 0 0
4.91093 -0.542283 2.86641 0 0 0
4.99448 -0.490295 2.90707 0 0 0
4.99572 -0.48964 2.90557 0 0 0
5.0007 -0.604329 2.90346 0 0 0
5.0246 -0.606441 2.9174 0 0 0
5.08778 -0.727089 2.95187 0 0 0
5.03347 -0.562263 2.91843 0 0 0
5.03895 -0.518724 2.91779 0 0 0
4.98148 -0.371063 2.88085 0 0 0
5.02304 -0.450646 2.90366 0 0 0
4.92741 -0.0598777 2.82933 0 0 0
5.02344 -0.332023 2.88304 0 0 0
4.86913 0.11618 2.787 0 0 0
4.98639 -0.163376 2.84851 0 0 0
5.04662 -0.332242 2.88276 0 0 0
5.05973 -0.365641 2.88394 0 0 0
4.98756 -0.347044 2.83211 0 0 0
5.04295 -0.271315 2.86521 0 0 0
5.07519 -0.525754 2.88059 0 0 0
4.94867 0.0523338 2.80732 0 0 0
4.93399 0.0920413 2.79733 0 0 0
5.05142 -0.592589 2.86349 0 0 0
4.95263 0.0714333 2.80334 0 0 0
5.09075 -0.519546 2.87926 0 0 0
5.09223 -0.526061 2.88006 0 0 0
4.95391 0.0778285 2.79972 0 0 0
5.04816 -0.367838 2.85182 0 0 0
5.17432 -0.71561 2.92263 0 0 0
5.09363 -0.579548 2.8763 0 0 0
5.07247 -0.452198 2.86334 0 0 0
5.00188 -0.542374 2.81706 0 0 0
5.01452 -0.26482 2.82721 0 0 0
4.97038 0.0561132 2.80005 0 0 0
5.00095 -0.0587402 2.8161 0 0 0
5.0917 -0.479931 2.86685 0 0 0
5.09439 -0.435084 2.86816 0 0 0
5.01871 -0.201423 2.82548 0 0 0
5.08662 -0.456909 2.85827 0 0 0
4.98 0.0343301 2.79582 0 0 0
5.03386 -0.188597 2.81983 0 0 0
5.07024 -0.261804 2.83536 0 0 0
5.09744 -0.35664 2.84797 0 0 0
4.95864 0.061034 2.76955 0 0 0
5.1051 -0.475391 2.85064 0 0 0
5.0347 -0.123094 2.80863 0 0 0
5.13356 -0.483653 2.85431 0 0 0
5.13884 -0.506137 2.85557 0 0 0
5.13884 -0.506137 2.85557 0 0 0
5.00589 0.0440864 2.77901 0 0 0
5.1424 -0.474899 2.85346 0 0 0
5.0556 -0.16484 2.80527 0 0 0
5.15706 -0.506234 2.85689 0 0 0
4.89466 0.162811 2.71187 0 0 0
4.8831 0.21689 2.70046 0 0 0
5.28191 -0.669042 2.91393 0 0 0
5.25869 -0.639869 2.89958 0 0 0
5.16272 -0.356581 2.84191 0 0 0
5.08984 -0.397603 2.79505 0 0 0
5.12811 -0.222598 2.82062 0 0 0
5.23517 -0.549072 2.87036 0 0 0
5.21497 -0.368813 2.85479 0 0 0
5.21028 -0.325419 2.84898 0 0 0
4.98534 0.101912 2.72519 0 0 0
4.98534 0.101912 2.72519 0 0 0
5.39723 -0.371122 2.94789 0 0 0
5.12107 -0.354119 2.79147 0 0 0
5.25792 -0.563342 2.86935 0 0 0
5.12481 -0.442598 2.78818 0 0 0
5.17831 -0.230161 2.82027 0 0 0
5.19749 -0.264873 2.83155 0 0 0
5.25972 -0.57911 2.85698 0 0 0
5.25972 -0.57911 2.85698 0 0 0
5.15653 -0.0560717 2.80051 0 0 0
5.1743 -0.143983 2.8091 0 0 0
5.1749 -0.118045 2.78832 0 0 0
5.06248 0.0974795 2.72738 0 0 0
5.13384 0.123967 2.71372 0 0 0
-0.0161134 0.497718 2.34616 0 0 0
0.0135682 0.344067 2.39742 0 0 0
0.0744825 0.386617 2.36659 0 0 0
0.0822197 0.488636 2.35472 0 0 0
0.186942 -0.100365 2.60912 0 0 0
0.753936 -1.12006 4.29181 0 0 0
0.202562 -0.664787 2.47387 0 0 0
0.26328 -0.452641 2.63876 0 0 0
0.277519 -0.611864 2.63984 128 128 126
0.444671 0.336683 2.39197 42 37 34
0.55877 -0.702522 2.62912 215 214 209
0.827429 -0.653274 2.84402 151 151 151
0.814858 -0.365957 2.79103 200 199 195
0.974146 -0.651445 2.69529 213 220 228
1.0753 -0.695049 2.79063 220 227 235
1.3841 -0.894771 3.82106 179 180 175
1.50626 -0.501613 2.82338 220 227 235
1.53524 -0.509603 2.78541 45 47 42
1.57263 0.136681 2.22714 217 214 209
1.60656 -0.082929 2.25305 205 201 192
1.64757 -0.0269495 2.25113 21 23 18
2.25257 -1.92911 3.00759 212 209 200
3.08789 -1.62151 3.17106 145 135 126
3.07893 -1.45569 3.13044 217 214 207
2.58964 -1.89524 2.95714 209 206 199
2.31025 -1.62272 2.5028 210 209 204
2.89699 -1.72976 2.93352 10 15 9
3.26138 -1.71538 3.06751 164 164 156
2.94893 -1.2025 2.78128 189 186 179
3.39626 -1.34655 3.13253 71 54 46
3.41453 -1.29564 3.09117 113 106 96
4.03727 -1.54944 2.96976 23 24 19
3.98453 -1.60309 2.93848 109 105 94
4.0941 -1.46728 2.81612 112 108 96
5.06876 -0.614464 2.95067 72 62 53
5.04958 -0.161841 2.87075 81 80 75
5.01407 -0.565707 2.79825 148 142 128
0.906339 0.135589 3.52268 169 163 149
1.94896 -0.039566 2.69422 138 134 125
1.97524 -0.0391057 2.6948 105 101 90
2.03142 -0.0404131 2.69623 113 109 100
2.12935 0.0351563 2.6999 110 106 94
2.12935 0.0351563 2.6999 0 0 0
2.16835 -0.0143973 2.69775 0 0 0
2.24362 0.0328319 2.70995 0 0 0
2.28895 -0.0540298 2.70344 220 221 216
2.36837 0.0207103 2.70979 227 227 225
2.9146 -1.52175 3.0056 226 227 222
3.10042 -1.60661 3.18401 227 228 223
3.10286 -1.57072 3.17046 220 221 216
3.06516 -1.76406 3.08822 220 221 216
3.14263 -1.72848 3.08439 233 232 227
3.11898 -1.77038 3.03166 152 149 144
3.24375 -1.7467 3.07065 162 163 157
3.3426 -1.58107 3.15019 161 162 154
3.33782 -1.70151 3.05813 61 61 53
3.36329 -1.72328 3.04909 63 64 56
3.39167 -1.68893 3.05204 101 101 91
3.43586 -1.66079 3.04899 102 93 84
3.70969 -1.48652 3.08097 107 103 94
3.62115 -1.67837 3.0062 106 101 95
3.71266 -1.55167 2.94816 122 118 107
3.91722 -1.47054 3.04628 18 19 13
3.91397 -1.36344 3.01317 113 109 98
4.33008 -0.112284 2.69667 86 85 80
4.88455 -0.562958 2.9806 82 81 77
5.11226 -0.575301 2.98736 44 46 43
2.86988 -1.2945 8.49355 107 106 102
1.02616 -0.796189 3.40492 48 53 49
1.05541 -0.79902 3.40499 91 91 83
2.97808 -1.54287 3.0528 102 95 85
3.08597 -1.61684 3.20813 118 110 99
3.08956 -1.8145 3.08745 0 0 0
3.16863 -1.55813 3.17658 0 0 0
3.13196 -1.80296 3.08012 0 0 0
3.23541 -1.47039 3.18921 0 0 0
3.23982 -1.71934 3.09565 209 206 199
3.24029 -1.74929 3.09393 208 205 196
3.33994 -1.52302 3.14583 184 182 183
3.33913 -1.53147 3.16173 186 184 185
3.33694 -1.75298 3.05002 87 80 72
3.33694 -1.75298 3.05002 87 80 72
3.47159 -1.41788 3.1495 17 19 16
3.43599 -1.67154 3.06679 66 69 60
3.50929 -1.26593 3.10371 86 92 82
3.53631 -1.43035 3.12787 205 206 200
3.46676 -1.72216 3.03309 72 73 65
3.56051 -1.69881 3.0202 64 59 55
3.56051 -1.69881 3.0202 115 102 94
3.58387 -1.62851 3.0367 115 102 94
3.61866 -1.62595 3.04014 25 28 21
3.64268 -1.61514 3.02897 25 28 21
3.67988 -1.62764 3.02669 211 210 206
3.78825 -1.42235 3.06425 162 158 146
3.73207 -1.59932 3.02117 21 22 17
3.81701 -1.37941 3.05685 188 182 170
3.82268 -1.4208 3.05349 136 132 123
3.79191 -1.58378 3.01156 114 111 104
3.97367 -1.37298 3.04992 114 111 104
4.04797 -1.57477 2.76758 125 126 120
4.19531 -1.49661 2.76503 111 112 106
4.26105 -1.50543 2.78089 108 109 103
4.29619 -1.49429 2.7737 116 117 111
4.38059 -1.37332 2.80585 135 130 124
4.35566 -1.47705 2.76515 110 111 105
4.34967 -1.52007 2.75355 115 103 91
4.34967 -1.52007 2.75355 141 142 136
4.37746 -1.49517 2.72674 125 121 110
4.67913 -0.564801 2.89477 132 124 113
4.71199 -0.55401 2.89288 0 0 0
4.71551 -0.5536 2.89361 0 0 0
4.71033 -0.588247 2.87594 0 0 0
4.785 -0.584977 2.85741 0 0 0
4.9093 -0.547989 2.85122 0 0 0
4.95111 -0.501661 2.84477 0 0 0
5.03493 -0.488196 2.7842 0 0 0
5.07246 -0.403053 2.78227 0 0 0
4.75434 -0.489698 2.56282 0 0 0
4.87812 -0.595055 3.00342 0 0 0
4.95511 -0.642684 2.82702 0 0 0
5.06855 -0.692532 2.92019 0 0 0
-0.220378 -0.379207 1.4973 0 0 0
0.0622644 -0.568758 2.38631 0 0 0
6.36988 -1.3933 2.64615 0 0 0
