ply
format ascii 1.0 
element vertex 532
property float32 x 
property float32 y 
property float32 z
property uchar red  
property uchar green
property uchar blue
element face 0
property list uchar int vertex_indices
end_header
-1.50937 1.0312 2.5525 200 200 190
-1.49962 1.01616 2.56417 105 100 94
-1.50544 0.849994 2.5905 197 198 192
-1.50716 0.814777 2.61058 87 88 74
-1.48659 0.903347 2.59146 180 177 170
-1.49157 0.828717 2.60212 110 106 95
-1.47109 0.98118 2.58818 188 179 172
-1.48369 0.783446 2.64948 140 142 139
-1.53525 -0.0820936 2.78955 108 109 104
-1.4324 0.969632 2.61418 129 128 126
-1.53062 -0.227135 2.81884 223 227 239
-1.4256 0.906612 2.62691 114 114 104
-1.41397 1.02793 2.61466 99 98 94
-1.45834 0.746373 2.7055 213 209 206
-1.40673 1.02104 2.61982 110 111 105
-1.51397 -0.191999 2.84082 108 113 109
-1.50599 -0.111184 2.83212 120 122 121
-1.49719 -0.344443 2.81646 220 226 238
-1.48234 0.21574 2.79116 119 121 107
-1.48234 0.21574 2.79116 119 121 107
-1.50312 -0.2254 2.83888 218 228 238
-1.48858 -0.0381851 2.81187 17 20 13
-1.43381 0.748685 2.7248 216 216 216
-1.43857 0.655726 2.74479 245 246 241
-1.39251 0.832839 2.65892 50 46 43
-1.39251 0.832839 2.65892 50 46 43
-1.37612 1.03001 2.63332 130 129 125
-1.46373 0.027251 2.82382 58 60 55
-1.37775 0.893534 2.65878 210 210 208
-1.4581 -0.0123422 2.81998 33 33 31
-1.45532 -0.0505608 2.8167 47 49 44
-1.3818 0.827857 2.68099 30 30 28
-1.44723 -0.0356615 2.81267 32 32 30
-1.37303 0.833065 2.66972 30 35 28
-1.4475 -0.0492247 2.8233 43 43 41
-1.42815 0.313991 2.80538 107 103 92
-1.43859 0.14063 2.82651 187 190 183
-1.40761 0.589385 2.77285 214 214 206
-1.44148 -0.181552 2.84161 109 113 112
-1.4001 0.744231 2.76209 216 215 211
-1.4403 -0.279215 2.84395 219 225 237
-1.43327 -0.164691 2.84627 112 112 112
-1.3526 0.82849 2.69745 32 39 31
-1.3526 0.82849 2.69745 32 39 31
-1.42512 -0.153621 2.84672 145 147 146
-1.42512 -0.153621 2.84672 145 147 146
-1.42135 0.00490872 2.84495 29 29 27
-1.42135 0.00490872 2.84495 29 29 27
-1.41992 -0.117555 2.84513 132 136 137
-1.41992 -0.117555 2.84513 132 136 137
-1.42073 -0.141894 2.84739 141 143 142
-1.33598 0.828618 2.70883 48 50 47
-1.37605 -0.0105941 2.79156 11 12 7
-1.36118 0.0206841 2.77428 9 11 6
-1.36118 0.0206841 2.77428 9 11 6
-1.40044 -0.141716 2.85968 144 145 147
-1.36438 0.592711 2.8032 225 229 214
-1.39164 -0.15589 2.8658 148 150 149
-1.29995 1.02936 2.68015 152 153 155
-1.31017 0.838319 2.70523 213 214 209
-1.38526 0.00125732 2.86335 25 25 25
-1.38679 -0.282026 2.87462 219 225 237
-1.37773 0.159053 2.85784 210 210 208
-1.38067 -0.0110909 2.86512 29 29 27
-1.42203 0.0139727 2.95238 25 27 24
-1.33377 0.752104 2.78364 211 206 202
-1.28461 0.990821 2.69673 164 165 167
-1.36201 -0.0618214 2.8663 44 46 43
-1.345 0.395204 2.83863 220 220 218
-1.27069 1.01463 2.70041 178 180 179
-1.35572 -0.00948971 2.88308 34 34 34
-1.35288 0.0143108 2.88127 22 25 18
-1.27837 0.844412 2.72311 113 111 99
-1.2754 0.838447 2.72569 131 131 123
-1.34443 -0.0426909 2.88092 44 44 42
-1.3395 0.0995534 2.88805 130 134 133
-1.3406 -0.276367 2.89721 216 224 235
-1.32967 0.319927 2.87765 157 159 158
-1.33862 -0.204363 2.89958 104 106 105
-1.32227 0.319119 2.86564 160 162 161
-1.25395 0.835815 2.73928 213 214 209
-1.33025 -0.257648 2.90709 217 223 235
-1.23455 0.841529 2.74848 124 124 122
-1.25779 0.782129 2.80098 204 205 199
-1.25779 0.782129 2.80098 204 205 199
-1.27251 0.691672 2.83393 219 218 214
-1.27275 0.740074 2.83593 162 162 154
-1.27948 0.536197 2.85536 219 220 215
-1.27083 0.656608 2.83958 220 221 216
-1.27092 0.646695 2.84244 224 225 220
-1.29254 0.152521 2.90489 199 199 199
-1.30592 -0.0826158 2.93597 98 106 109
-1.30592 -0.0826158 2.93597 98 106 109
-1.31088 -0.205424 2.95319 163 163 163
-1.21903 0.883587 2.74929 213 208 204
-1.2214 0.835142 2.77309 211 212 206
-1.19175 0.840803 2.76907 210 211 205
-1.25996 -0.0316421 3.02001 48 47 43
-1.2255 0.60193 2.94943 205 204 202
-1.22414 0.600635 2.95012 208 207 205
-1.24822 -0.195396 3.04853 206 207 202
-1.23877 -0.183993 3.05073 204 205 200
-1.13781 -0.18656 3.10688 206 203 196
-1.1272 -0.215657 3.10898 131 123 112
-1.12609 -0.181634 3.1122 209 208 204
-1.02758 -0.185736 3.16719 210 207 200
-0.991866 -0.202788 3.18508 211 211 203
-0.976676 0.0674566 3.15543 20 22 17
-0.968526 -0.201211 3.19853 208 209 203
-0.952945 -0.183338 3.20474 200 197 190
-0.952945 -0.183338 3.20474 200 197 190
-0.951392 -0.215238 3.20493 209 208 203
-0.943106 -0.243626 3.19398 205 202 195
-0.943129 -0.170366 3.20849 204 201 196
-0.919629 -0.00457153 3.23079 28 30 27
-0.873715 -0.405122 3.29415 208 209 204
-0.848486 0.146542 3.2142 165 165 165
-0.85598 -0.197817 3.26065 209 208 204
-0.82713 0.60021 3.1586 221 222 224
-0.822164 0.775615 3.14277 27 27 19
-0.855969 -0.459183 3.29279 207 204 197
-0.841349 -0.0200498 3.24323 58 60 59
-0.919878 -1.36415 3.55 13 16 7
-0.832169 0.164767 3.23005 185 185 185
-0.8247 -0.238931 3.2538 211 210 205
-0.81976 -0.0271974 3.25704 40 42 39
-0.822907 -0.165486 3.27926 199 201 198
-0.815418 -0.246178 3.25783 212 211 206
-0.81202 -0.0195485 3.27174 34 34 34
-0.809447 -0.0359491 3.26257 40 42 39
-0.811822 -0.179132 3.28636 207 208 203
-0.808429 -0.138907 3.28225 149 151 148
-0.80684 -0.196219 3.2804 211 210 206
-0.797039 0.0211929 3.25584 22 24 19
-0.787498 0.128549 3.25154 147 147 147
-0.792172 -0.177599 3.29298 207 208 203
-0.798301 -0.362177 3.32416 212 213 208
-0.789676 -0.368915 3.31341 214 213 208
-0.773269 0.12822 3.25919 145 145 145
-0.773269 0.12822 3.25919 145 145 145
-0.778015 -0.237023 3.2802 212 211 207
-0.752274 0.746765 3.17591 18 19 11
-0.776407 -0.320269 3.30461 207 212 208
-0.771342 -0.332709 3.30609 219 218 213
-0.759572 0.140803 3.25806 153 153 153
-0.784059 -1.1093 3.36872 123 124 119
-0.786015 -1.09972 3.38111 91 90 86
-0.76063 -0.277089 3.28332 202 199 194
-0.737205 0.767779 3.18721 13 18 12
-0.769199 -1.12514 3.38232 20 20 18
-0.602323 -1.24497 3.21548 1 13 9
-0.594782 0.372679 3.17726 174 176 171
-0.591194 0.371559 3.16256 174 176 171
-0.601424 -1.21947 3.2309 63 78 75
-0.595975 -1.22697 3.22552 152 140 140
-0.535567 0.491059 2.96712 99 102 93
-0.526822 0.669185 2.94468 11 16 9
-0.523674 0.757636 2.93401 38 38 26
-0.516642 0.85 2.91834 37 37 25
-0.515259 0.820665 2.9277 38 38 26
-0.509352 1.00242 2.90005 13 16 7
-0.507916 1.03424 2.89524 17 20 13
-0.503549 1.0315 2.8994 14 17 10
-0.497144 0.836002 2.936 31 32 18
-0.506158 0.351177 3.06683 178 177 172
-0.481037 0.462346 3.00103 226 228 225
-0.481037 0.462346 3.00103 226 228 225
-0.465305 0.847184 2.95279 37 38 24
-0.443789 0.952752 2.94592 50 50 38
-0.443789 0.952752 2.94592 50 50 38
-0.440774 0.399598 3.03565 188 190 187
-0.433846 0.48954 3.02357 231 232 227
-0.387525 0.77224 3.01191 19 22 13
-0.387525 0.77224 3.01191 19 22 13
-0.373033 0.553569 3.0495 220 221 216
-0.40558 -1.08897 3.31845 17 17 7
-0.408401 -1.38814 3.39081 21 22 16
-0.391595 -1.09919 3.31148 59 58 53
-0.336132 0.474442 3.08412 227 228 222
-0.369463 -1.32989 3.39363 58 60 49
-0.326517 0.54585 3.08139 219 220 215
-0.315387 1.05587 3.00099 13 16 9
-0.344997 -1.07894 3.31323 164 160 149
-0.352962 -1.35787 3.40692 52 48 37
-0.319799 0.479065 3.08923 209 208 203
-0.298937 0.556584 3.09271 220 219 214
-0.298937 0.556584 3.09271 220 219 214
-0.301847 -1.42691 3.45654 44 46 35
-0.2588 0.582294 3.12198 192 196 199
-0.257789 0.358354 3.19015 162 159 150
-0.257789 0.358354 3.19015 162 159 150
-0.274109 -1.37048 3.45801 50 46 37
-0.239629 0.888737 3.07503 18 19 13
-0.239629 0.888737 3.07503 18 19 13
-0.260429 -1.41744 3.47496 62 55 45
-0.257371 -1.32762 3.45971 41 35 23
-0.227648 0.562714 3.13735 152 153 147
-0.248173 -1.37028 3.47477 70 66 54
-0.246151 -1.30525 3.46254 63 57 43
-0.168678 0.669726 3.15676 128 129 131
-0.168025 0.580101 3.16826 171 172 167
-0.159105 0.748606 3.14749 109 117 120
-0.159948 0.582549 3.17046 160 161 156
-0.174931 -1.21862 3.46752 25 26 20
-0.145758 0.556166 3.18603 156 157 151
-0.145758 0.556166 3.18603 156 157 151
-0.139587 0.548312 3.1849 42 35 29
-0.145187 -1.46972 3.73336 72 49 41
-0.0796909 -1.52166 3.72008 126 131 135
-0.0796909 -1.52166 3.72008 126 131 135
-0.0122272 -1.50936 3.8159 88 88 80
-0.0122786 -1.26696 3.90631 26 23 14
-0.0122786 -1.26696 3.90631 26 23 14
-0.0107647 -1.28975 3.90919 68 66 54
-0.00849574 -1.22789 3.90152 105 103 91
-0.00849574 -1.22789 3.90152 105 103 91
-0.00542819 -1.27314 3.90248 101 101 91
-0.00161854 -1.20974 3.90441 70 67 60
0.00550612 -1.18726 3.89974 63 66 59
0.00568126 -1.26731 3.9155 53 52 47
0.0329489 -1.24243 3.92966 77 74 67
0.0451673 -1.29105 3.94667 71 73 62
0.0477314 -1.30811 3.94782 67 66 61
0.0504788 -1.27541 3.94476 62 65 56
0.0504463 -1.26184 3.9427 75 74 69
0.0498035 -1.51192 3.85752 100 96 85
0.0597878 -1.33476 3.95618 66 66 56
0.0649722 -1.1859 3.93762 73 69 60
0.0649722 -1.1859 3.93762 73 69 60
0.0840955 -1.54313 3.87101 104 100 91
0.147539 -1.54192 3.90624 120 116 107
0.151475 -1.59247 3.87416 118 111 101
0.174626 -1.16171 3.99507 25 24 20
0.179523 -1.56817 3.91974 114 110 101
0.184485 -1.35873 4.0204 56 55 50
0.181663 -1.59281 3.89321 118 109 100
0.181663 -1.59281 3.89321 118 109 100
0.22332 -1.02724 4.02908 169 162 152
0.28827 -1.05221 4.05268 161 157 146
0.305171 -1.52921 3.99639 82 81 77
0.313799 -0.936653 4.03875 112 108 99
0.319307 -1.32583 4.10673 139 135 124
0.319307 -1.32583 4.10673 139 135 124
0.313674 -0.997245 4.02926 130 127 118
0.313845 -1.50379 3.99948 79 75 72
0.319088 -1.0039 4.02868 124 120 111
0.330314 -1.56256 3.9945 69 70 65
0.327597 -1.62223 3.94821 76 77 72
0.341417 -1.30569 4.11236 149 142 134
0.341417 -1.30569 4.11236 149 142 134
0.341994 -1.32687 4.11603 129 125 116
0.341994 -1.32687 4.11603 129 125 116
0.336475 -1.02398 4.03412 104 94 84
0.345922 -1.25992 4.11051 134 130 121
0.345911 -1.24774 4.10793 134 135 127
0.368643 -1.31677 4.12795 123 114 105
0.3615 -1.5028 4.02855 69 55 52
0.371846 -1.28914 4.12921 141 132 123
0.366669 -0.968217 4.04619 140 141 135
0.366154 -1.62217 3.97088 69 70 65
0.383145 -1.20284 4.12287 94 96 91
0.389041 -1.38715 4.15671 99 99 91
0.389699 -1.21956 4.13112 112 113 108
0.391153 -1.26248 4.13677 95 98 91
0.391153 -1.26248 4.13677 95 98 91
0.38505 -1.50529 4.04423 100 87 81
0.395325 -1.50206 4.04994 148 141 131
0.3944 -1.58791 4.01076 70 71 66
0.3944 -1.58791 4.01076 70 71 66
0.423112 -1.50263 4.06489 125 126 118
0.433864 -1.31122 4.15627 112 112 104
0.433895 -1.03358 4.08958 108 111 104
0.435189 -0.975432 4.08838 126 125 120
0.437528 -1.05915 4.07916 113 115 110
0.440668 -1.06805 4.07355 99 101 96
0.444213 -1.50048 4.07244 103 102 97
0.460402 -1.07633 4.08542 122 123 117
0.477824 -1.5017 4.0956 108 107 102
0.510349 -1.02149 4.17938 99 98 93
0.510349 -1.02149 4.17938 99 98 93
0.517965 -1.35309 4.20759 109 111 106
0.506258 -1.5612 4.10143 93 82 76
0.523345 -1.33665 4.21936 107 106 102
0.535616 -1.58312 4.09047 48 53 49
0.554175 -1.01575 4.19508 118 117 112
0.550932 -1.4985 4.13603 108 108 100
0.549935 -1.55916 4.12517 100 100 92
0.569042 -1.52333 4.14554 108 109 104
0.586638 -1.36038 4.26291 128 129 123
0.606634 -1.2399 4.25184 106 107 101
0.612636 -1.2946 4.26422 97 98 92
0.620467 -1.28193 4.26889 114 117 108
0.623411 -1.26831 4.27048 135 135 125
0.634187 -1.22075 4.27029 102 101 97
0.629739 -1.49711 4.18369 85 85 75
0.649174 -1.12834 4.27546 105 106 100
0.65241 -1.21911 4.2752 112 113 107
0.654877 -1.23506 4.28327 105 106 100
0.651691 -1.10437 4.24836 113 114 106
0.654603 -1.15808 4.26694 123 124 118
0.666592 -1.20376 4.2858 137 138 132
0.675439 -1.31956 4.30587 100 101 95
0.689177 -1.16144 4.2907 104 103 98
0.68577 -1.06853 4.25848 104 106 101
0.698696 -1.24779 4.30871 119 120 114
0.700371 -1.58112 4.18577 108 108 100
0.71831 -1.51905 4.23248 101 101 93
0.71831 -1.51905 4.23248 101 101 93
0.730586 -1.49685 4.23968 80 77 68
0.734397 -1.49442 4.24267 93 93 81
0.761839 -1.49514 4.25823 107 97 85
0.772768 -0.688376 4.27136 123 117 105
0.771373 -1.50779 4.25429 111 103 90
0.796936 -1.322 4.37717 114 107 97
0.79607 -1.29386 4.36803 115 107 96
0.796671 -1.27532 4.36881 124 115 106
0.800115 -1.23241 4.3652 118 110 99
0.790752 -1.48616 4.30313 110 101 92
0.815561 -0.176061 4.42538 131 122 113
0.788477 -1.49425 4.26995 101 97 85
0.814965 -1.31788 4.38424 105 98 88
0.814165 -1.27572 4.37564 97 87 78
0.824344 -0.191674 4.42857 128 120 109
0.83762 -1.91656 4.47802 86 83 74
0.836353 -1.00764 4.35357 117 111 99
0.860815 -1.92659 4.47881 94 92 80
0.827535 -1.49678 4.29608 108 102 90
0.842955 -1.1455 4.3739 115 109 97
0.842955 -1.1455 4.3739 115 109 97
0.842955 -1.1455 4.3739 115 109 97
0.886055 -0.991106 4.37952 124 116 105
0.863352 0.970633 4.2625 99 99 91
0.92423 -1.91597 4.52919 78 78 68
0.92423 -1.91597 4.52919 78 78 68
0.866932 -1.61894 4.19988 104 100 88
0.923783 -1.05886 4.41635 111 104 94
0.902567 -0.171892 4.26944 100 96 87
0.942664 -1.27884 4.44149 117 113 101
0.9014 -0.227871 4.24528 85 86 81
0.903527 -1.56481 4.25104 100 98 86
0.907238 -1.5008 4.26842 111 107 96
0.946328 -1.39211 4.40654 0 0 0
0.956241 -0.670288 4.36969 0 0 0
1.00642 -1.91633 4.56797 0 0 0
0.973919 -1.09373 4.38097 0 0 0
0.969411 -1.10482 4.34267 0 0 0
0.97647 -0.607155 4.35634 0 0 0
1.02352 -1.92492 4.5649 0 0 0
0.983702 -1.18595 4.37481 0 0 0
0.973096 -0.42847 4.3205 0 0 0
0.985496 -1.06216 4.36945 0 0 0
1.04368 -1.91686 4.58777 0 0 0
1.04368 -1.91686 4.58777 0 0 0
0.992815 -0.449827 4.31311 0 0 0
0.996943 -0.231044 4.28972 0 0 0
1.00553 -0.298098 4.30707 0 0 0
1.02254 -1.04163 4.37833 0 0 0
0.967538 0.950522 4.13175 0 0 0
1.03289 -1.0629 4.39734 0 0 0
1.07206 -1.92066 4.55178 0 0 0
0.974438 0.941759 4.13539 0 0 0
1.04074 -1.04724 4.39826 0 0 0
1.00707 0.357339 4.25316 0 0 0
1.00844 0.260641 4.24857 0 0 0
1.01781 0.201495 4.27136 0 0 0
1.05032 -1.01297 4.38976 0 0 0
1.04569 -1.29689 4.35003 0 0 0
1.01745 0.424321 4.22986 0 0 0
1.01655 0.630116 4.20534 0 0 0
1.05965 -1.02657 4.36553 0 0 0
1.01933 0.737144 4.19532 0 0 0
1.01395 -1.62649 4.16076 0 0 0
1.01994 -1.61633 4.16861 0 0 0
1.02466 0.860623 4.18426 0 0 0
1.02712 0.840799 4.18891 0 0 0
1.0515 -1.50603 4.23755 0 0 0
1.08268 -1.42027 4.32966 0 0 0
1.14055 -0.968773 4.31991 0 0 0
1.11832 -1.5204 4.13834 0 0 0
1.14524 -1.4546 4.20544 0 0 0
1.16583 -1.3957 4.27392 0 0 0
1.1264 -1.53867 4.12578 0 0 0
1.16538 -1.34233 4.26815 0 0 0
1.11786 -1.59923 4.09088 0 0 0
1.16943 -1.40556 4.2395 0 0 0
1.15212 -1.51926 4.15183 0 0 0
1.16624 -1.08021 4.17417 0 0 0
1.14391 1.14562 4.03962 0 0 0
1.21353 -1.0218 4.23251 0 0 0
1.26439 -1.41827 4.33549 0 0 0
1.34379 -1.92852 4.49382 0 0 0
1.20919 0.478647 3.96476 0 0 0
1.21449 0.524385 3.95872 0 0 0
1.22222 0.515271 3.95693 0 0 0
1.30662 -1.57238 4.23005 0 0 0
1.2236 0.531295 3.95672 0 0 0
1.35562 -1.37374 4.37818 0 0 0
1.22597 0.913753 3.91513 0 0 0
1.42605 -1.93845 4.53485 0 0 0
1.35104 -1.51412 4.2694 0 0 0
1.22874 1.12084 3.8823 0 0 0
1.23957 0.897009 3.91223 0 0 0
1.24206 1.11722 3.88304 0 0 0
1.25154 0.952257 3.90637 0 0 0
1.46961 -1.92841 4.57779 0 0 0
1.42143 -1.36709 4.40783 0 0 0
1.39457 -1.50892 4.28381 0 0 0
1.42854 -1.51935 4.29937 0 0 0
1.33388 0.618514 4.01107 0 0 0
1.33388 0.618514 4.01107 0 0 0
1.372 0.436577 4.11168 0 0 0
1.4371 -1.59515 4.27618 0 0 0
1.4371 -1.59515 4.27618 0 0 0
1.46095 -1.57098 4.3164 0 0 0
1.50512 -0.974037 4.42469 0 0 0
1.43556 -1.62304 4.21214 0 0 0
1.49269 -0.924692 4.37597 0 0 0
1.48238 -1.66122 4.31814 0 0 0
1.48847 -1.63543 4.27349 0 0 0
1.43747 1.1264 3.98979 0 0 0
1.47879 0.622954 4.09772 0 0 0
1.61057 0.629534 4.17577 0 0 0
1.90999 0.15193 4.78587 0 0 0
1.70003 0.933083 4.17269 0 0 0
1.6996 1.13883 4.13908 0 0 0
2.0122 -0.0652396 4.87016 0 0 0
2.09195 -0.0362697 4.90793 0 0 0
2.13074 -0.479152 4.99619 0 0 0
2.08313 0.402662 4.87379 0 0 0
2.08313 0.402662 4.87379 0 0 0
2.10026 0.103995 4.90094 0 0 0
2.10026 0.103995 4.90094 0 0 0
2.13944 -0.363685 4.97902 0 0 0
2.13944 -0.363685 4.97902 0 0 0
2.14494 -0.253848 4.94004 0 0 0
2.13403 -0.215361 4.90955 0 0 0
2.13895 0.140138 4.90985 0 0 0
2.14318 0.0633587 4.91949 0 0 0
2.13863 0.234413 4.89147 0 0 0
2.15392 0.108384 4.92179 0 0 0
2.18163 0.0119268 4.93368 0 0 0
2.17531 -0.104906 4.91725 0 0 0
2.17632 0.0509144 4.90578 0 0 0
2.19243 -0.00989033 4.89129 0 0 0
2.19806 -0.115289 4.90101 0 0 0
2.19774 0.042106 4.86859 0 0 0
2.20676 0.104169 4.8873 0 0 0
2.27034 -0.377008 5.01837 0 0 0
2.19802 0.690903 4.85373 0 0 0
2.21251 0.143099 4.88505 0 0 0
2.19617 0.908402 4.84163 0 0 0
2.23291 -0.0877798 4.92274 0 0 0
2.23433 0.0764371 4.92249 0 0 0
2.21061 0.262529 4.86692 0 0 0
2.18609 0.930632 4.80874 0 0 0
2.20256 0.895705 4.83743 0 0 0
2.20593 0.44267 4.84228 0 0 0
2.23299 0.0381789 4.89651 0 0 0
2.20771 0.503096 4.8406 0 0 0
2.213 0.374717 4.84983 0 0 0
2.20901 0.527963 4.83054 0 0 0
2.24387 0.118894 4.90357 0 0 0
2.20725 0.798603 4.8233 0 0 0
2.22112 0.36043 4.85309 0 0 0
2.25575 0.147634 4.90386 0 0 0
2.2502 0.0531023 4.89105 0 0 0
2.2502 0.0531023 4.89105 0 0 0
2.26709 -0.125242 4.91941 0 0 0
2.26709 -0.125242 4.91941 0 0 0
2.17123 1.19681 4.69948 0 0 0
2.26163 0.0681857 4.88937 0 0 0
2.26163 0.0681857 4.88937 0 0 0
2.22875 0.890683 4.81003 0 0 0
2.28431 -0.0640562 4.92221 0 0 0
2.28431 -0.0640562 4.92221 0 0 0
2.28539 0.148338 4.92262 0 0 0
2.22924 0.855929 4.79111 0 0 0
2.20806 0.925755 4.74457 0 0 0
2.20249 0.936672 4.72251 0 0 0
2.20653 0.969969 4.73071 0 0 0
2.22179 0.964 4.75036 0 0 0
2.19941 0.953486 4.70151 0 0 0
2.23927 0.829125 4.78652 0 0 0
2.28955 0.378714 4.89263 0 0 0
2.31243 0.149608 4.93889 0 0 0
2.20119 1.18581 4.68216 0 0 0
2.33825 0.150702 4.94845 0 0 0
2.20125 1.14796 4.65686 0 0 0
2.23465 0.911535 4.7229 0 0 0
2.39737 -0.263211 5.06568 0 0 0
2.21175 1.16683 4.64505 0 0 0
2.37609 0.0878384 4.96389 0 0 0
2.40152 -0.149836 5.00713 0 0 0
2.38115 0.638213 4.93503 0 0 0
2.4063 0.0799912 4.97358 0 0 0
2.36508 0.800947 4.88174 0 0 0
2.44851 -0.120173 5.03467 0 0 0
2.4597 -0.204343 5.05469 0 0 0
2.44228 0.40286 4.98368 0 0 0
2.47397 -0.150293 5.03298 0 0 0
2.44961 0.541756 4.9658 0 0 0
2.44647 0.584444 4.95927 0 0 0
2.42427 0.801848 4.90807 0 0 0
2.45325 0.722383 4.94072 0 0 0
2.46646 1.19858 4.80254 0 0 0
2.56421 0.994482 4.88347 0 0 0
3.00201 1.01914 5.40752 0 0 0
3.02174 1.02029 5.404 0 0 0
3.02037 1.26121 5.35019 0 0 0
4.29852 -3.18545 7.61204 0 0 0
3.01973 1.2124 5.34598 0 0 0
3.01973 1.2124 5.34598 0 0 0
4.3401 -3.09677 7.63101 0 0 0
4.36023 -3.17134 7.65229 0 0 0
4.34914 -3.17559 7.60523 0 0 0
4.41808 -2.6988 7.63426 0 0 0
4.40005 -3.17711 7.58927 0 0 0
4.3691 -3.21957 7.47591 0 0 0
4.3691 -3.21957 7.47591 0 0 0
4.50216 -3.14642 7.6626 0 0 0
4.44793 -2.53462 7.37938 0 0 0
4.44793 -2.53462 7.37938 0 0 0
4.46792 -2.28937 7.34065 0 0 0
4.45195 -2.08678 7.30681 0 0 0
4.4883 -2.55127 7.35518 0 0 0
4.47116 -2.19934 7.30319 0 0 0
4.47116 -2.19934 7.30319 0 0 0
4.57675 -2.37662 7.42049 0 0 0
4.57079 -2.47679 7.34592 0 0 0
3.75357 1.11255 5.95835 0 0 0
4.57479 -1.57383 7.22324 0 0 0
4.57688 -1.5721 7.20387 0 0 0
