ply
format ascii 1.0 
element vertex 1359
property float32 x 
property float32 y 
property float32 z
property uchar red  
property uchar green
property uchar blue
element face 0
property list uchar int vertex_indices
end_header
1.55092 0.735345 7.08762 33 56 38
1.5537 0.456346 7.09915 24 54 30
1.5542 0.504306 7.09308 29 54 35
1.66421 -0.639418 7.5869 24 57 30
1.55956 0.0240704 7.09516 27 52 23
1.55431 -0.0495733 7.06829 23 53 27
1.55434 1.30048 7.06009 33 59 32
1.67424 -0.683688 7.59878 23 54 23
1.67182 -0.661066 7.5833 25 56 25
1.56136 0.81378 7.07423 29 54 24
1.56136 0.81378 7.07423 29 54 24
1.56136 0.81378 7.07423 29 54 24
1.56184 1.08252 7.04586 27 56 28
1.56184 1.08252 7.04586 27 56 28
1.56101 1.30805 7.0245 34 62 39
1.57565 0.151292 7.06965 25 52 21
1.71804 -0.864674 7.69137 17 46 15
1.584 -0.378501 7.09164 16 46 18
1.58925 -0.352824 7.08971 25 51 26
1.57495 0.721322 7.02292 25 51 24
1.58606 0.074122 7.06776 27 56 25
1.59085 -0.372299 7.08144 19 52 25
1.59877 0.38795 7.10564 26 51 30
1.57698 0.728345 7.00829 27 55 30
1.71381 -0.777332 7.60639 22 52 18
1.58334 0.637922 7.02226 15 39 17
1.60207 0.479688 7.09742 23 48 26
1.60601 0.469031 7.08777 24 52 27
1.60261 -0.300882 7.06288 22 51 21
1.73217 -0.830535 7.62755 28 51 35
1.73791 -0.876229 7.65046 22 48 23
1.59273 0.519222 7.0041 20 52 29
1.61598 -0.217546 7.05912 18 48 22
1.6238 -0.43577 7.03674 14 48 21
1.6238 -0.43577 7.03674 14 48 21
1.61241 0.0558674 6.96667 24 54 18
1.62572 -0.428205 7.02327 25 54 24
1.61774 0.130792 6.96396 28 54 19
1.63627 -0.431274 7.00322 21 52 18
1.63627 -0.431274 7.00322 21 52 18
1.63518 -0.352887 6.98634 25 56 24
1.63231 0.0841551 6.96985 26 49 20
1.63453 0.0936134 6.96245 24 50 21
1.63932 -0.387846 6.9741 12 47 15
1.6386 0.482702 6.9254 19 43 19
1.64427 0.200847 6.94123 25 54 26
1.65003 -0.384782 6.95562 26 51 21
1.65154 0.0906132 6.93949 25 50 28
1.65473 0.174586 6.92431 27 57 31
1.65855 -0.375561 6.93157 30 57 24
1.65533 0.188033 6.91756 24 49 27
1.65603 0.218173 6.91718 47 56 39
1.65766 0.0725148 6.91976 26 52 27
1.65616 0.0414917 6.91287 25 53 28
1.66385 -0.363906 6.93619 18 49 18
1.64986 0.715676 6.8778 26 52 27
1.65753 0.341041 6.90293 16 45 15
1.66292 0.191623 6.90995 26 54 32
1.66579 0.0645956 6.91491 15 44 13
1.65092 -0.101572 6.84913 0 0 0
1.66115 0.574737 6.86286 0 0 0
1.65967 -0.0990887 6.84069 0 0 0
1.68013 -0.227544 6.90924 0 0 0
1.67295 0.289278 6.87779 0 0 0
1.66085 1.19299 6.81572 0 0 0
1.66522 -0.128786 6.83201 0 0 0
1.66522 -0.128786 6.83201 0 0 0
1.667 -0.110052 6.82659 0 0 0
1.67274 -0.00304556 6.84916 0 0 0
1.67253 0.874498 6.82773 0 0 0
1.67242 0.905168 6.82437 0 0 0
1.67736 0.417526 6.84394 0 0 0
1.66881 1.19794 6.80197 0 0 0
1.67329 0.654014 6.8076 0 0 0
1.69452 -0.271572 6.89258 0 0 0
1.67526 1.01811 6.80981 0 0 0
1.70025 -0.278997 6.89473 0 0 0
1.68003 0.919258 6.80546 0 0 0
1.68023 0.636224 6.80528 0 0 0
1.69998 -0.225527 6.8768 0 0 0
1.71167 -0.290301 6.90449 0 0 0
1.71228 -0.271158 6.88955 0 0 0
1.69023 0.505 6.79909 0 0 0
1.69023 0.505 6.79909 0 0 0
1.71132 -0.243611 6.87134 0 0 0
1.70966 -0.209296 6.86535 0 0 0
1.6912 0.789147 6.78937 0 0 0
1.68765 -0.149701 6.76549 0 0 0
1.69441 -0.124911 6.76436 0 0 0
1.70547 0.0225565 6.80481 0 0 0
1.71733 -0.0555971 6.7621 0 0 0
1.73258 0.414944 6.81898 0 0 0
1.75023 -0.295707 6.85831 0 0 0
1.76721 -0.40662 6.92475 0 0 0
1.72922 0.0705862 6.76596 0 0 0
1.73218 -0.0993963 6.75818 0 0 0
1.77818 -0.409291 6.91983 0 0 0
1.73479 -0.0296728 6.72627 0 0 0
1.74384 0.838741 6.75841 0 0 0
1.74593 -0.108812 6.72546 0 0 0
1.74269 -0.0205587 6.70362 0 0 0
1.80327 -0.455178 6.92463 0 0 0
1.74174 0.648585 6.68811 0 0 0
1.7563 1.04182 6.73821 0 0 0
1.73958 0.509804 6.6553 0 0 0
1.75633 -0.0693627 6.71414 0 0 0
1.75537 -0.112255 6.70968 0 0 0
1.75831 -0.0774781 6.71462 0 0 0
1.75924 -0.0612118 6.71167 0 0 0
1.75666 -0.0954359 6.69759 0 0 0
1.75655 0.107106 6.69309 0 0 0
1.76002 -0.126505 6.70627 0 0 0
1.76411 0.00484076 6.69254 0 0 0
1.76225 -0.0192316 6.682 0 0 0
1.76807 0.0901724 6.68661 0 0 0
1.76618 0.1145 6.67785 0 0 0
1.76702 0.0679201 6.67155 0 0 0
1.77111 0.00469253 6.68486 0 0 0
1.76846 0.18587 6.66775 0 0 0
1.76983 0.135492 6.65951 0 0 0
1.76457 0.423606 6.63272 0 0 0
1.75748 0.465734 6.60248 0 0 0
1.78007 -0.120117 6.66133 0 0 0
1.77429 0.432521 6.63851 0 0 0
1.78151 0.224697 6.63366 0 0 0
1.78167 0.169888 6.63265 0 0 0
1.78617 -0.127824 6.64694 0 0 0
1.78705 0.162184 6.62649 0 0 0
1.77973 0.649932 6.59748 0 0 0
1.77524 -0.220517 6.573 0 0 0
1.77877 -0.171257 6.58289 0 0 0
1.77443 -0.198641 6.5618 0 0 0
1.77712 -0.182691 6.56707 0 0 0
1.79495 -0.127847 6.62912 0 0 0
1.79495 -0.127847 6.62912 0 0 0
1.78227 0.606297 6.57688 0 0 0
1.79652 0.0891518 6.62463 0 0 0
1.78219 -0.19432 6.56732 0 0 0
1.79182 0.569272 6.58257 0 0 0
1.80154 -0.135541 6.61658 0 0 0
1.95974 -1.03645 7.19218 0 0 0
1.80448 0.315122 6.61209 0 0 0
1.79307 -0.180281 6.56421 0 0 0
1.7973 0.545385 6.57812 0 0 0
1.80096 0.451171 6.58558 0 0 0
1.79325 0.856945 6.55441 0 0 0
1.7976 0.745256 6.55861 0 0 0
1.87912 -0.550974 6.84409 0 0 0
1.80773 0.527168 6.57327 0 0 0
1.83381 -0.258485 6.65532 0 0 0
1.85963 -0.391633 6.74336 0 0 0
1.79949 1.18541 6.52317 0 0 0
1.80553 0.88818 6.5321 0 0 0
1.89602 -0.556086 6.85769 0 0 0
1.90415 -0.580315 6.88041 0 0 0
1.81286 0.739395 6.54069 0 0 0
1.80867 0.979369 6.52501 0 0 0
1.81542 0.636921 6.5457 0 0 0
1.90748 -0.547847 6.85956 0 0 0
1.81638 0.491265 6.52187 0 0 0
1.81119 1.12918 6.49776 0 0 0
1.81691 1.22558 6.51503 0 0 0
1.81719 0.959062 6.51499 0 0 0
1.81548 0.596635 6.50247 0 0 0
1.81846 0.481702 6.50967 0 0 0
1.8216 0.605677 6.4953 0 0 0
1.83064 0.489287 6.52019 0 0 0
1.83964 0.51303 6.51181 0 0 0
1.8384 0.416248 6.49623 0 0 0
1.84975 0.483269 6.52713 0 0 0
1.8707 -0.232103 6.59668 0 0 0
1.83437 0.880013 6.46746 0 0 0
1.84646 0.411035 6.49404 0 0 0
1.83735 1.06369 6.4518 0 0 0
1.88448 -0.211258 6.61304 0 0 0
1.88784 -0.0600844 6.62144 0 0 0
1.86235 0.544339 6.53031 0 0 0
1.86277 0.675614 6.50256 0 0 0
1.89442 0.00645235 6.60707 0 0 0
1.89186 0.101103 6.59749 0 0 0
1.89228 0.124018 6.59873 0 0 0
1.86863 0.423321 6.51096 0 0 0
1.88277 0.353715 6.55778 0 0 0
1.868 0.43762 6.50083 0 0 0
1.90044 -0.00625986 6.6134 0 0 0
1.8962 0.215563 6.58852 0 0 0
1.90259 -0.0438793 6.61035 0 0 0
1.89071 0.277298 6.56587 0 0 0
1.8516 1.16381 6.42475 0 0 0
1.90602 -0.160739 6.61371 0 0 0
1.86852 0.9542 6.47981 0 0 0
1.91586 -0.102055 6.64063 0 0 0
1.90256 0.227681 6.58921 0 0 0
1.89928 0.309459 6.57281 0 0 0
1.88347 0.415705 6.51774 0 0 0
1.91312 0.00348264 6.612 0 0 0
1.86952 0.857451 6.45989 0 0 0
1.86952 0.857451 6.45989 0 0 0
1.86532 1.20221 6.44335 0 0 0
1.88798 0.629834 6.51741 0 0 0
1.88818 0.433941 6.50836 0 0 0
1.89751 0.458986 6.53933 0 0 0
1.86899 1.15018 6.43865 0 0 0
1.9067 0.323665 6.56561 0 0 0
1.90725 0.382422 6.56435 0 0 0
1.8956 0.720431 6.51528 0 0 0
1.93571 -0.0941058 6.64908 0 0 0
1.90563 0.520077 6.54562 0 0 0
1.91317 0.363113 6.5695 0 0 0
1.9195 0.247805 6.58615 0 0 0
1.89402 0.815754 6.49675 0 0 0
1.93647 -0.0606517 6.63985 0 0 0
1.90542 0.67626 6.52677 0 0 0
1.92195 0.370679 6.5746 0 0 0
1.9959 -0.443029 6.82501 0 0 0
1.89523 0.905725 6.47859 0 0 0
1.9261 0.288142 6.57894 0 0 0
1.92947 0.2961 6.58199 0 0 0
1.93051 0.306002 6.58509 0 0 0
1.93019 0.311972 6.58145 0 0 0
1.9096 0.767934 6.50815 0 0 0
1.94311 0.0949741 6.62035 0 0 0
1.94419 0.117016 6.62161 0 0 0
1.93365 0.334897 6.58355 0 0 0
1.93365 0.334897 6.58355 0 0 0
1.95826 -0.0630126 6.66345 0 0 0
1.95826 -0.0630126 6.66345 0 0 0
1.92271 0.62166 6.53766 0 0 0
1.94202 0.199815 6.60329 0 0 0
1.9121 0.862491 6.49682 0 0 0
1.91786 0.624017 6.51473 0 0 0
1.91786 0.624017 6.51473 0 0 0
1.93085 0.407564 6.55618 0 0 0
1.95331 0.0181023 6.63184 0 0 0
1.9171 0.782475 6.50879 0 0 0
1.93456 0.41807 6.56631 0 0 0
1.91237 0.95262 6.48897 0 0 0
1.9554 0.0466528 6.62085 0 0 0
1.92764 0.435602 6.52559 0 0 0
1.92764 0.435602 6.52559 0 0 0
1.96038 0.088371 6.62628 0 0 0
1.94034 0.548844 6.55386 0 0 0
1.92905 0.672189 6.51566 0 0 0
2.01528 -0.430126 6.79884 0 0 0
1.91726 1.12972 6.46585 0 0 0
1.93264 0.724525 6.51729 0 0 0
1.93363 0.803509 6.51321 0 0 0
1.96601 0.132034 6.61913 0 0 0
1.97482 -0.00936549 6.64443 0 0 0
2.02257 -0.415799 6.80492 0 0 0
1.94248 0.659261 6.53278 0 0 0
1.91552 1.16441 6.44188 0 0 0
1.93174 0.956586 6.48286 0 0 0
1.97884 -0.157338 6.63919 0 0 0
1.97884 -0.157338 6.63919 0 0 0
1.97721 -0.224817 6.63254 0 0 0
1.97784 0.0958986 6.62713 0 0 0
1.95739 0.541484 6.55319 0 0 0
1.94262 0.818881 6.50271 0 0 0
2.02553 -0.439026 6.7799 0 0 0
1.9453 0.827757 6.51063 0 0 0
1.96996 0.272333 6.59024 0 0 0
1.96963 0.320698 6.5874 0 0 0
1.99349 -0.0535399 6.66056 0 0 0
1.96735 0.535686 6.57057 0 0 0
1.96735 0.535686 6.57057 0 0 0
1.97231 0.42051 6.58425 0 0 0
1.96063 0.745833 6.53459 0 0 0
1.97153 0.282637 6.56779 0 0 0
2.03214 -0.430035 6.76802 0 0 0
2.00493 -0.0963025 6.6699 0 0 0
2.00707 0.01106 6.66319 0 0 0
2.03846 -0.429527 6.75765 0 0 0
1.99856 0.149891 6.62539 0 0 0
1.97727 0.479456 6.55154 0 0 0
1.97727 0.479456 6.55154 0 0 0
2.03764 -0.320157 6.74818 0 0 0
2.01284 -0.00639291 6.6604 0 0 0
1.9961 0.405861 6.59348 0 0 0
2.04466 -0.37981 6.75013 0 0 0
2.04504 -0.419358 6.75022 0 0 0
2.03287 -0.255463 6.7072 0 0 0
2.01592 0.083773 6.64796 0 0 0
1.97182 0.897051 6.5022 0 0 0
2.04259 -0.449536 6.72806 0 0 0
2.029 -0.0791037 6.67533 0 0 0
2.04996 -0.374067 6.73781 0 0 0
2.04996 -0.374067 6.73781 0 0 0
2.04996 -0.374067 6.73781 0 0 0
2.03113 -0.0641045 6.67444 0 0 0
2.04786 -0.459811 6.72306 0 0 0
1.97073 1.11746 6.46886 0 0 0
1.97073 1.11746 6.46886 0 0 0
2.03189 0.00213336 6.65878 0 0 0
1.99797 0.730987 6.54624 0 0 0
2.00704 0.573843 6.57444 0 0 0
2.03002 -0.175381 6.64596 0 0 0
2.03895 -0.0994411 6.67383 0 0 0
2.0013 0.723805 6.54898 0 0 0
2.03317 0.0997678 6.65054 0 0 0
2.02048 0.411962 6.60826 0 0 0
2.02729 0.195553 6.62968 0 0 0
2.05675 -0.467575 6.72345 0 0 0
2.02385 0.264652 6.61474 0 0 0
2.02519 0.309503 6.61854 0 0 0
2.01335 0.507489 6.57871 0 0 0
2.02016 0.376201 6.59821 0 0 0
2.03488 0.107172 6.64517 0 0 0
2.02346 0.392028 6.60481 0 0 0
2.03953 0.0477619 6.64908 0 0 0
2.028 0.385225 6.60999 0 0 0
2.03828 0.197025 6.6362 0 0 0
2.16985 -0.737322 7.05997 0 0 0
2.06841 -0.29395 6.72954 0 0 0
2.06366 -0.228841 6.71323 0 0 0
2.01578 0.746117 6.55482 0 0 0
2.01768 0.708979 6.5582 0 0 0
2.04459 0.135275 6.64062 0 0 0
2.04459 0.135275 6.64062 0 0 0
2.01609 0.755008 6.54669 0 0 0
2.04926 -0.197881 6.65332 0 0 0
2.05951 -0.121139 6.68449 0 0 0
2.05951 -0.121139 6.68449 0 0 0
2.0268 0.524475 6.57484 0 0 0
2.01595 0.784955 6.5379 0 0 0
2.07354 -0.22507 6.71188 0 0 0
2.03163 0.629073 6.57159 0 0 0
2.04552 0.378892 6.6116 0 0 0
2.02369 0.808189 6.53784 0 0 0
2.02819 0.779425 6.54615 0 0 0
2.06565 0.13448 6.65525 0 0 0
2.0617 0.404173 6.63219 0 0 0
2.03761 0.838731 6.54123 0 0 0
2.07149 0.22527 6.64842 0 0 0
2.07071 0.207361 6.64235 0 0 0
2.03231 0.956055 6.51915 0 0 0
2.05666 0.530842 6.59569 0 0 0
2.05755 0.600398 6.59532 0 0 0
2.10284 -0.45301 6.73594 0 0 0
2.10432 -0.445985 6.73974 0 0 0
2.06494 0.362562 6.61294 0 0 0
2.05206 0.581437 6.57088 0 0 0
2.03804 0.902415 6.52524 0 0 0
2.11339 -0.484599 6.75869 0 0 0
2.0557 0.684163 6.56836 0 0 0
2.0557 0.684163 6.56836 0 0 0
2.04702 0.837617 6.53824 0 0 0
2.07135 0.414744 6.61607 0 0 0
2.09005 0.123857 6.65474 0 0 0
2.04464 1.19284 6.50961 0 0 0
2.0465 1.24548 6.48567 0 0 0
2.0465 1.24548 6.48567 0 0 0
2.06399 0.863149 6.53542 0 0 0
2.07745 0.604957 6.57128 0 0 0
2.06323 0.955291 6.52357 0 0 0
2.08223 0.552867 6.57759 0 0 0
2.09748 0.446955 6.60851 0 0 0
2.08685 0.767954 6.56628 0 0 0
2.0939 0.575335 6.58266 0 0 0
2.08969 0.859708 6.55627 0 0 0
2.08884 0.601013 6.55291 0 0 0
2.15678 -0.47076 6.76203 0 0 0
2.09012 0.956204 6.53624 0 0 0
2.14045 0.0454167 6.67307 0 0 0
2.08894 1.17452 6.49354 0 0 0
2.09729 1.16116 6.50837 0 0 0
2.09729 1.16116 6.50837 0 0 0
2.11204 1.33385 6.5506 0 0 0
2.13305 0.476631 6.59343 0 0 0
2.1667 0.17805 6.69062 0 0 0
2.1922 -0.44661 6.76814 0 0 0
2.16852 -0.0121066 6.69404 0 0 0
2.12637 0.828302 6.55972 0 0 0
2.12637 0.828302 6.55972 0 0 0
2.20452 -0.409408 6.78321 0 0 0
2.18074 0.0363628 6.68663 0 0 0
2.12435 1.15241 6.5121 0 0 0
2.12435 1.15241 6.5121 0 0 0
2.18825 0.0511792 6.70413 0 0 0
2.1955 -0.00406095 6.69268 0 0 0
2.17841 0.836515 6.61126 0 0 0
2.17841 0.836515 6.61126 0 0 0
2.19439 0.489253 6.62483 0 0 0
2.18882 0.701055 6.60034 0 0 0
2.18882 0.701055 6.60034 0 0 0
2.2446 -0.221777 6.7678 0 0 0
2.22609 -0.140113 6.70893 0 0 0
2.22443 0.0519312 6.7026 0 0 0
2.26038 -0.379804 6.79347 0 0 0
2.17887 1.28874 6.51774 0 0 0
2.25166 0.0816678 6.72736 0 0 0
2.27818 -0.380382 6.80074 0 0 0
2.26239 -0.037801 6.71057 0 0 0
2.23318 0.862648 6.62192 0 0 0
2.23746 0.950654 6.6162 0 0 0
2.27503 -0.160763 6.72576 0 0 0
2.24254 0.695077 6.62464 0 0 0
2.26849 0.455395 6.66742 0 0 0
2.2878 0.139801 6.70979 0 0 0
2.2735 0.390489 6.66588 0 0 0
2.3616 -0.407437 6.91475 0 0 0
2.29412 0.335732 6.70867 0 0 0
2.32015 -0.0608944 6.76523 0 0 0
2.30958 -0.156912 6.73185 0 0 0
2.29049 0.455586 6.66812 0 0 0
2.3103 0.200674 6.72071 0 0 0
2.25722 1.33777 6.56502 0 0 0
2.33161 0.0230774 6.74506 0 0 0
2.3879 -0.365236 6.89544 0 0 0
2.33792 0.0712062 6.74556 0 0 0
2.32539 0.327179 6.70306 0 0 0
2.33086 0.272052 6.71626 0 0 0
2.34035 0.194102 6.73076 0 0 0
2.31304 0.60069 6.65001 0 0 0
2.30285 0.871893 6.61702 0 0 0
2.34843 0.221164 6.73066 0 0 0
2.35093 0.235903 6.73291 0 0 0
2.33438 0.539738 6.67664 0 0 0
2.37328 -0.0331289 6.77104 0 0 0
2.34832 0.414412 6.69249 0 0 0
2.33847 0.482709 6.66234 0 0 0
2.33847 0.482709 6.66234 0 0 0
2.37258 0.224743 6.73623 0 0 0
2.34257 0.778411 6.64957 0 0 0
2.36785 0.333839 6.72013 0 0 0
2.36889 0.348954 6.71788 0 0 0
2.36974 0.378678 6.71092 0 0 0
2.34382 0.825638 6.63308 0 0 0
2.35408 0.760073 6.65829 0 0 0
2.37475 0.439642 6.70898 0 0 0
2.38052 0.227653 6.72418 0 0 0
2.38052 0.227653 6.72418 0 0 0
2.35046 0.901285 6.63236 0 0 0
2.38481 0.328951 6.72341 0 0 0
2.36484 0.728627 6.66643 0 0 0
2.39689 0.112803 6.75668 0 0 0
2.35032 0.989807 6.61973 0 0 0
2.36567 0.74534 6.65751 0 0 0
2.34876 1.00448 6.6097 0 0 0
2.34876 1.00448 6.6097 0 0 0
2.36579 0.798588 6.65416 0 0 0
2.32081 1.31807 6.52657 0 0 0
2.36605 0.805294 6.64858 0 0 0
2.37669 0.637589 6.67832 0 0 0
2.34843 1.09569 6.59494 0 0 0
2.36499 0.919192 6.63495 0 0 0
2.35539 1.01181 6.60656 0 0 0
2.35199 1.14288 6.59601 0 0 0
2.38023 0.721065 6.66252 0 0 0
2.40217 0.303512 6.71549 0 0 0
2.36602 1.0542 6.60481 0 0 0
2.38254 0.827929 6.64712 0 0 0
2.3874 0.889763 6.64877 0 0 0
2.38887 0.808364 6.65156 0 0 0
2.44609 -0.039312 6.80573 0 0 0
2.39391 0.864263 6.64618 0 0 0
2.42687 0.433435 6.72523 0 0 0
2.44769 0.0780072 6.78206 0 0 0
2.45042 0.0475305 6.78359 0 0 0
2.44707 0.0923862 6.77401 0 0 0
2.3912 1.08212 6.61706 0 0 0
2.41635 0.663218 6.68582 0 0 0
2.41508 0.676708 6.68105 0 0 0
2.42146 0.671031 6.6918 0 0 0
2.37921 1.24566 6.56858 0 0 0
2.4489 0.202096 6.76014 0 0 0
2.45221 0.195396 6.76331 0 0 0
2.4316 0.594825 6.6959 0 0 0
2.44111 0.441123 6.71632 0 0 0
2.4783 -0.0771582 6.81414 0 0 0
2.4138 0.963507 6.63513 0 0 0
2.4669 0.0982616 6.78031 0 0 0
2.46608 0.072583 6.77591 0 0 0
2.45616 0.315525 6.74747 0 0 0
2.47152 -0.113545 6.78774 0 0 0
2.45538 0.344731 6.74102 0 0 0
2.43969 0.647456 6.6942 0 0 0
2.45728 0.359883 6.74133 0 0 0
2.47182 -0.120992 6.78019 0 0 0
2.45795 0.404636 6.73731 0 0 0
2.46914 0.203834 6.76763 0 0 0
2.45582 0.435679 6.73101 0 0 0
2.47013 0.186112 6.76921 0 0 0
2.46859 0.220273 6.76433 0 0 0
2.4577 0.388728 6.73344 0 0 0
2.44764 0.555554 6.70561 0 0 0
2.46855 0.160742 6.76137 0 0 0
2.46481 0.381465 6.73499 0 0 0
2.48467 0.116134 6.7812 0 0 0
2.47791 -0.144781 6.75892 0 0 0
2.46445 0.534444 6.71818 0 0 0
2.4767 0.336307 6.74191 0 0 0
2.48487 0.207752 6.75723 0 0 0
2.45678 0.785119 6.67816 0 0 0
2.46824 0.682218 6.69799 0 0 0
2.50687 -0.119536 6.79212 0 0 0
2.47799 0.598499 6.70218 0 0 0
2.48517 0.649015 6.70821 0 0 0
2.45967 1.05385 6.63782 0 0 0
2.53807 -0.0912114 6.83919 0 0 0
2.53241 -0.0204171 6.81852 0 0 0
2.47429 0.941063 6.65836 0 0 0
2.52142 -0.13298 6.78474 0 0 0
2.53553 0.0231442 6.81495 0 0 0
2.46992 1.1555 6.63719 0 0 0
2.53699 0.0149754 6.81368 0 0 0
2.53804 -0.017563 6.81185 0 0 0
2.53804 -0.017563 6.81185 0 0 0
2.53711 0.140834 6.80793 0 0 0
2.53917 0.00566758 6.80439 0 0 0
2.54252 -0.00791751 6.81191 0 0 0
2.54252 -0.00791751 6.81191 0 0 0
2.49009 0.935915 6.66571 0 0 0
2.48922 0.952133 6.66307 0 0 0
2.48922 0.952133 6.66307 0 0 0
2.54865 -0.00163011 6.8105 0 0 0
2.48752 1.09685 6.64306 0 0 0
2.54432 -0.170215 6.78692 0 0 0
2.50187 0.909147 6.66451 0 0 0
2.55471 -0.116374 6.8036 0 0 0
2.55471 -0.116374 6.8036 0 0 0
2.54386 0.302274 6.77274 0 0 0
2.55655 -0.149144 6.80415 0 0 0
2.55655 -0.149144 6.80415 0 0 0
2.49524 1.13721 6.63004 0 0 0
2.49187 1.32151 6.60236 0 0 0
2.57526 -0.118502 6.80733 0 0 0
2.57837 -0.17754 6.81454 0 0 0
2.58504 -0.165936 6.8085 0 0 0
2.58287 -0.134376 6.80161 0 0 0
2.59036 -0.154877 6.80649 0 0 0
2.57701 1.32281 6.63113 0 0 0
2.86539 0.159886 6.73825 0 0 0
2.87175 0.143978 6.72624 0 0 0
2.87771 0.194453 6.73382 0 0 0
2.88473 0.243311 6.71396 0 0 0
2.88473 0.243311 6.71396 0 0 0
3.22254 1.48355 6.73982 0 0 0
-2.37841 1.23679 5.01168 184 223 254
-2.144 1.00241 4.8977 190 227 254
-2.16076 -0.41129 5.0164 217 244 255
-2.15906 -0.422421 5.02492 216 246 255
-2.16039 0.172116 4.99622 206 237 255
-2.15248 -0.382716 5.02669 216 244 255
-2.14806 0.359591 4.98061 201 236 255
-2.14806 0.359591 4.98061 201 236 255
-2.14386 0.578995 4.96424 198 235 254
-2.15036 -0.417515 5.04878 217 245 255
-2.15036 -0.417515 5.04878 217 245 255
-2.15106 -0.351773 5.08233 215 245 255
-2.13365 -0.26879 5.05703 218 241 255
-2.13243 -0.457529 5.07528 217 247 255
-2.12901 -0.446932 5.07192 217 247 255
-2.12566 -0.439186 5.08674 218 247 255
-2.12778 -0.454403 5.09569 217 247 255
-2.12389 -0.445021 5.08947 218 247 255
-2.09019 0.604128 4.97886 201 236 255
-2.08596 0.893336 4.95766 194 230 255
-2.08451 0.686505 4.97192 197 232 254
-2.09611 -0.366542 5.05478 218 247 255
-2.08222 0.770082 4.96639 196 232 255
-2.07293 0.649757 4.97975 200 235 255
-2.0704 0.664994 4.98589 198 234 255
-2.07799 0.468107 5.01111 200 235 254
-2.07994 0.36638 5.03205 204 237 254
-2.07067 -0.38996 5.06604 218 247 255
-2.07178 0.427424 5.03392 204 235 255
-2.05886 0.182957 5.02745 210 239 255
-2.09389 -0.474775 5.12799 222 246 255
-2.05059 0.945022 4.97331 195 229 254
-2.06605 0.351577 5.03758 209 238 255
-2.06393 0.364832 5.03733 206 237 255
-2.06474 0.00845928 5.06224 213 242 255
-2.06343 0.333109 5.04276 209 238 254
-2.07117 -0.197976 5.09051 216 242 255
-2.06322 -0.0806254 5.07257 211 243 255
-2.05968 -0.167968 5.08047 214 244 255
-2.08268 -0.503798 5.14879 223 248 255
-2.06209 -0.204277 5.10386 216 244 255
-2.05679 -0.054766 5.09056 214 243 255
-2.04604 0.199555 5.05672 211 240 255
-2.05424 -0.249265 5.09957 217 247 255
-2.03793 0.228665 5.04279 207 239 254
-2.01892 1.01955 4.96412 193 230 255
-2.08343 -0.557227 5.17819 221 248 255
-2.05113 -0.176252 5.10191 217 244 255
-2.04316 -0.0322868 5.07951 210 242 253
-2.04316 -0.0322868 5.07951 210 242 253
-2.07506 -0.507721 5.16425 221 248 255
-2.08404 -0.544638 5.18306 221 248 255
-2.0433 0.105951 5.07333 211 240 254
-2.0433 0.105951 5.07333 211 240 254
-2.03153 0.543895 5.02757 202 235 254
-2.074 -0.502621 5.16755 221 248 255
-2.02882 0.53749 5.0274 203 236 255
-2.0104 0.653734 4.98899 199 236 255
-2.03715 -0.392839 5.10027 219 248 255
-2.07213 -0.534127 5.17076 220 249 255
-2.02739 0.166778 5.05669 210 239 255
-2.03938 -0.119248 5.09571 215 243 255
-2.0384 -0.0725274 5.0952 216 242 255
-2.06142 -0.53175 5.17261 220 249 255
-2.00605 0.790862 4.99898 196 234 255
-2.02858 -0.216099 5.10321 217 245 255
-2.06811 -0.541426 5.19471 222 249 255
-2.06914 -0.565442 5.20235 222 249 255
-2.01515 0.537114 5.05501 203 236 255
-2.00072 0.671437 5.02352 202 234 255
-2.00072 0.671437 5.02352 202 234 255
-1.97225 1.02406 4.9605 191 232 254
-1.99659 0.53736 5.04743 203 236 255
-1.99718 0.756365 5.03568 199 236 255
-1.9859 0.63444 5.02739 203 235 255
-1.9859 0.63444 5.02739 203 235 255
-1.99881 0.529248 5.05902 205 236 255
-1.9866 0.762535 5.02367 199 236 255
-2.00858 -0.244137 5.12736 218 247 255
-2.00311 0.109915 5.10251 212 241 255
-2.00311 0.109915 5.10251 212 241 255
-1.98446 0.628007 5.03908 200 235 255
-1.98446 0.641627 5.03829 204 235 255
-1.98275 0.7655 5.03252 199 234 254
-1.9969 -0.0719051 5.11453 214 244 255
-1.97897 0.631027 5.04801 203 236 255
-1.97605 0.552074 5.05067 205 236 255
-1.97833 0.583396 5.0535 204 235 255
-1.98182 -0.110726 5.1192 216 244 255
-1.95778 0.948667 5.0191 197 231 255
-1.95899 0.792445 5.03291 198 233 253
-1.97495 0.00260766 5.11562 216 242 255
-1.9774 -0.0945593 5.13103 217 244 255
-1.95878 0.704997 5.05024 200 235 255
-1.95878 0.704997 5.05024 200 235 255
-2.04099 -0.694296 5.28459 227 251 255
-1.97386 -0.077537 5.12867 218 245 255
-1.96017 0.528003 5.06786 206 237 255
-1.9393 0.934587 5.03051 197 233 255
-1.94158 0.817262 5.04755 203 235 255
-1.94198 0.783752 5.05341 202 234 255
-1.94198 0.783752 5.05341 202 234 255
-1.93551 0.798636 5.04232 199 236 255
-1.96624 -0.26386 5.1628 223 247 255
-2.02181 -0.690324 5.29023 230 251 255
-1.93688 0.849105 5.04431 199 236 255
-1.95093 0.212569 5.10851 211 240 254
-1.94134 0.69116 5.06458 203 235 255
-1.93519 0.754923 5.05317 198 235 254
-1.95161 0.0620832 5.128 216 242 255
-1.93785 0.661581 5.06818 203 236 255
-1.94696 0.217299 5.11207 211 240 254
-1.93553 0.541117 5.07337 202 237 255
-1.95257 -0.0282186 5.14076 219 243 255
-1.95257 -0.0282186 5.14076 219 243 255
-1.95257 -0.0282186 5.14076 219 243 255
-1.94114 0.508718 5.08895 208 237 255
-1.93564 0.569667 5.07679 204 235 253
-1.94983 -0.0779487 5.1491 218 245 255
-1.94147 0.211488 5.11757 214 240 255
-1.92965 0.374322 5.08711 207 240 255
-1.92965 0.374322 5.08711 207 240 255
-1.92294 1.0319 5.03654 196 231 253
-1.93735 0.186423 5.12162 212 241 255
-1.93735 0.186423 5.12162 212 241 255
-1.93279 0.32133 5.10803 210 239 255
-1.93279 0.32133 5.10803 210 239 255
-1.92142 0.376362 5.08573 207 240 255
-1.93364 0.172286 5.12493 212 241 255
-1.93226 -0.241974 5.15026 220 247 255
-1.93142 0.107592 5.13226 216 242 255
-1.92397 0.436943 5.1011 211 238 255
-1.92955 -0.00850877 5.14174 216 244 255
-1.89587 0.262279 5.06462 209 241 254
-1.93119 0.0203415 5.14473 217 243 255
-1.93148 -0.0411597 5.14963 217 244 255
-1.90567 0.685436 5.05827 204 235 255
-1.9328 -0.202274 5.16252 217 247 255
-1.9328 -0.202274 5.16252 217 247 255
-1.92936 -0.0706741 5.15572 217 245 255
-1.92936 -0.0706741 5.15572 217 245 255
-1.92694 -0.262117 5.17501 221 248 255
-1.88711 0.993583 5.02768 198 233 255
-1.92353 -0.281665 5.17397 221 248 255
-1.89561 0.943123 5.04879 199 234 254
-1.91231 0.301516 5.12219 211 240 254
-1.90362 0.219428 5.12244 213 241 255
-1.90362 0.219428 5.12244 213 241 255
-1.89419 0.38739 5.09629 208 240 255
-1.89718 0.506881 5.10077 209 238 254
-1.90799 -0.256559 5.17374 221 248 255
-1.87204 1.18445 5.01961 196 230 255
-1.88259 0.332656 5.09478 212 240 254
-1.89147 -0.365393 5.15584 224 249 255
-1.92013 -0.456257 5.21877 226 249 255
-1.89815 0.390671 5.12963 208 240 255
-1.89945 0.120518 5.15301 215 243 255
-1.90241 -0.134413 5.1748 220 247 255
-1.8999 -0.0674616 5.17333 218 247 255
-1.88015 0.966421 5.07985 198 235 254
-1.89063 0.0175143 5.15803 217 245 255
-1.89063 0.0175143 5.15803 217 245 255
-1.87986 -0.413343 5.16516 225 248 255
-1.89771 -0.147359 5.18968 220 247 255
-1.9056 -0.470882 5.22849 226 251 255
-1.89558 0.609056 5.15416 208 237 255
-1.87244 -0.386143 5.17945 226 249 255
-1.85629 1.04223 5.06654 197 232 254
-1.87225 0.783758 5.11848 203 235 255
-1.91467 -0.638964 5.2891 228 252 255
-1.85552 0.276624 5.12754 213 241 255
-1.88282 -0.442408 5.22836 224 249 253
-1.88992 -0.692656 5.25991 231 252 255
-1.85114 -0.249208 5.16489 223 248 255
-1.85041 0.927963 5.10861 202 234 255
-1.87006 -0.683365 5.25972 231 252 255
-1.95855 -0.905025 5.45035 232 253 255
-1.84665 0.494083 5.15165 207 239 254
-1.84873 0.559193 5.15325 209 240 255
-1.84873 0.559193 5.15325 209 240 255
-1.86026 -0.65951 5.25044 231 252 255
-1.84198 0.618393 5.14514 207 238 255
-1.84198 0.618393 5.14514 207 238 255
-1.81079 1.08293 5.08017 202 233 254
-1.9614 -0.971709 5.4991 232 253 254
-1.95596 -0.983808 5.5048 233 254 255
-1.83139 -0.160243 5.21539 223 248 255
-1.95894 -0.966573 5.51201 233 254 255
-1.81014 0.498975 5.13655 208 240 255
-1.82035 0.590511 5.15406 54 81 108
-1.84425 -0.0917946 5.24424 221 248 255
-1.77957 1.07636 5.05163 199 231 252
-1.95548 -0.99813 5.51926 233 254 255
-1.79205 1.08913 5.07896 202 233 254
-1.81801 0.637806 5.15715 207 238 255
-1.94358 -0.964711 5.4992 234 254 255
-1.83343 -0.665707 5.273 232 251 255
-1.80844 0.88067 5.13801 199 236 255
-1.80071 -0.412672 5.2099 227 251 255
-1.7983 0.493804 5.15251 210 239 255
-1.7983 0.493804 5.15251 210 239 255
-1.80807 0.622934 5.16909 207 244 255
-1.80807 0.622934 5.16909 207 244 255
-1.80807 0.622934 5.16909 207 244 255
-1.7962 0.954237 5.13978 200 235 255
-1.795 -0.356006 5.2255 227 251 255
-1.77092 1.1137 5.08738 199 234 254
-1.79756 0.210085 5.20142 216 244 255
-1.80351 -0.222431 5.24142 226 249 255
-1.77995 -0.358851 5.21942 227 251 255
-1.78042 -0.421098 5.22887 230 251 255
-1.42975 0.447876 4.48903 212 240 254
-1.78375 -0.173969 5.23273 224 249 255
-1.77822 -0.339098 5.23527 227 251 255
-1.77854 -0.197367 5.22807 224 249 255
-1.76178 1.15783 5.11336 196 232 254
-1.78689 -0.220482 5.26666 224 249 254
-1.76338 0.934891 5.1523 205 236 255
-1.76509 -0.364852 5.23921 227 251 255
-1.74476 1.1339 5.12411 198 235 254
-1.77991 -0.689003 5.30905 232 253 255
-1.794 -0.684272 5.34882 232 253 255
-1.71878 1.14716 5.09712 201 233 254
-1.7231 0.977511 5.13824 202 234 255
-1.7231 0.977511 5.13824 202 234 255
-1.75478 0.0229311 5.26281 221 248 255
-1.75374 -0.158612 5.27233 226 249 255
-1.72737 1.20394 5.1392 201 233 255
-1.88679 -1.07388 5.6055 238 254 254
-1.74953 -0.096246 5.27363 225 248 255
-1.71722 0.97259 5.14651 204 237 255
-1.88333 -1.07757 5.61616 238 254 254
-1.9032 -1.19126 5.67628 103 117 143
-1.89895 -1.25406 5.68009 241 255 255
-1.89333 -1.2155 5.66661 110 135 132
-1.72375 -0.142022 5.26152 225 248 255
-1.89576 -1.2308 5.67863 184 213 195
-1.89283 -1.23502 5.68754 240 255 253
-1.89283 -1.23502 5.68754 240 255 253
-1.88616 -1.17473 5.67229 63 70 98
-1.88616 -1.17473 5.67229 63 70 98
-1.8914 -1.27225 5.69095 241 255 255
-1.73594 -0.604213 5.33611 233 252 255
-1.89089 -1.24665 5.69717 239 255 255
-1.88341 -1.2784 5.69594 241 255 255
-1.88809 -1.30094 5.70767 241 255 255
-1.6997 0.682788 5.20962 206 239 254
-1.87639 -1.20788 5.69668 53 73 97
-1.88344 -1.41908 5.72756 243 255 255
-1.88327 -1.35628 5.72575 243 254 255
-1.69685 -0.352835 5.28488 230 251 255
-1.7116 -0.600143 5.33137 233 252 255
-1.84377 -1.07298 5.63142 239 255 255
-1.85063 -1.15723 5.65196 104 102 175
-1.88694 -1.43493 5.7436 243 255 255
-1.87809 -1.29422 5.71784 241 255 255
-1.88575 -1.45007 5.7436 243 255 255
-1.87789 -1.35673 5.72663 243 254 255
-1.87603 -1.31813 5.72103 241 255 255
-1.67195 0.915947 5.16897 207 235 255
-1.87589 -1.41901 5.73556 243 255 255
-1.87747 -1.44026 5.74217 243 255 255
-1.87747 -1.44026 5.74217 243 255 255
-1.67552 0.824085 5.18627 207 238 255
-1.87947 -1.45437 5.74781 243 255 255
-1.67715 -0.416355 5.2719 229 252 255
-1.68827 0.209871 5.26056 219 246 255
-1.87453 -1.42286 5.74712 243 255 255
-1.8688 -1.45124 5.74312 243 255 255
-1.67789 0.544267 5.22591 73 62 79
-1.69986 -0.500868 5.3436 231 252 255
-1.67353 0.455239 5.23208 215 243 255
-1.82588 -1.08861 5.64554 196 227 221
-1.66027 1.0599 5.17286 203 235 255
-1.66119 0.958942 5.18296 208 237 255
-1.65603 0.869237 5.1813 206 237 255
-1.65603 0.869237 5.1813 206 237 255
-1.65603 0.869237 5.1813 206 237 255
-1.67338 0.168783 5.26442 222 246 255
-1.65773 0.935625 5.18376 205 238 255
-1.65988 0.776495 5.19826 207 239 254
-1.65988 0.776495 5.19826 207 239 254
-1.65562 0.840892 5.1877 208 237 255
-1.65562 0.840892 5.1877 208 237 255
-1.66655 0.374566 5.24049 219 242 255
-1.66853 0.100705 5.26334 223 248 255
-1.66853 0.100705 5.26334 223 248 255
-1.65545 0.707824 5.19947 207 239 254
-1.65743 0.809099 5.19767 209 238 255
-1.65743 0.809099 5.19767 209 238 255
-1.67151 0.0782633 5.2744 223 248 255
-1.66154 0.591877 5.22253 129 127 167
-1.66073 0.715449 5.2142 207 239 254
-1.66388 0.366813 5.24653 217 243 255
-1.65583 0.655495 5.21181 208 240 255
-1.67263 -0.0101235 5.29065 226 249 255
-1.66219 0.622203 5.23041 44 44 68
-1.66219 0.622203 5.23041 44 44 68
-1.65784 0.698212 5.2171 210 239 255
-1.66986 -0.101742 5.29863 226 249 255
-1.65735 0.532183 5.23289 163 152 168
-1.66132 0.369581 5.25508 217 245 255
-1.64875 0.952567 5.19276 207 235 255
-1.65711 0.34187 5.25332 215 241 254
-1.66989 -0.190547 5.31424 227 251 255
-1.68153 -0.687083 5.37269 234 254 252
-1.65758 0.211032 5.2665 221 245 255
-1.63909 0.870242 5.19714 209 238 255
-1.63502 0.9118 5.19049 207 238 255
-1.65899 0.0086215 5.30004 228 248 255
-1.64669 0.171952 5.26407 222 246 255
-1.64241 0.383594 5.24494 215 244 255
-1.63417 0.820459 5.20591 210 237 254
-1.63453 0.72891 5.21426 211 240 255
-1.64435 0.236501 5.27098 219 246 255
-1.63641 0.637403 5.23044 155 148 164
-1.65143 -0.0979346 5.31568 226 249 255
-1.63303 0.55328 5.23711 160 151 182
-1.63898 0.212387 5.27217 220 247 255
-1.62973 0.969506 5.20589 204 237 255
-1.65218 -0.25136 5.33487 227 251 255
-1.63932 0.118999 5.28809 224 247 255
-1.65226 -0.190291 5.33619 231 250 255
-1.65226 -0.190291 5.33619 231 250 255
-1.69234 -0.645498 5.45308 233 253 254
-1.65046 -0.425939 5.35828 75 86 116
-2.05867 -1.27667 6.28386 51 63 111
-1.64524 -0.457112 5.36744 231 252 255
-1.62225 0.394334 5.26716 218 245 255
-1.61557 0.612488 5.23961 233 255 255
-1.61789 0.192971 5.27991 223 248 255
-1.60923 0.432592 5.24853 217 245 255
-1.61275 0.449268 5.25622 220 242 255
-1.61275 0.449268 5.25622 220 242 255
-1.62038 0.112615 5.31105 224 247 255
-1.61277 -0.280939 5.3509 228 252 255
-1.61277 -0.280939 5.3509 228 252 255
-1.60591 0.168854 5.31642 223 248 255
-2.01917 -1.2028 6.29273 147 156 163
-2.01917 -1.2028 6.29273 147 156 163
-1.58455 0.787245 5.23707 210 237 254
-1.58408 0.910302 5.23111 101 89 113
-1.5863 0.597303 5.26441 75 82 98
-1.5863 0.597303 5.26441 75 82 98
-1.59224 0.514363 5.28601 137 157 184
-1.575 0.442323 5.26631 220 244 255
-1.58748 0.327734 5.30435 143 141 152
-1.58144 0.177182 5.31028 226 249 255
-1.582 0.138991 5.31581 224 249 255
-1.5828 -0.0467597 5.34056 226 249 255
-1.5828 -0.0467597 5.34056 226 249 255
-1.56414 0.729213 5.25035 115 129 176
-1.56055 0.671857 5.24744 231 255 255
-2.00751 -1.2156 6.33673 124 144 169
-1.56067 0.811694 5.24084 207 241 251
-1.56032 0.803035 5.24707 211 239 253
-1.57923 -0.0934715 5.34861 227 251 255
-1.56776 0.576235 5.28662 61 67 83
-1.56704 0.454746 5.29323 221 243 255
-2.20153 -0.505002 6.73032 108 99 162
-1.57691 -0.137184 5.35453 227 251 255
-1.56015 0.375462 5.28743 222 244 255
-2.00404 -1.2205 6.35354 129 148 165
-1.55984 0.581041 5.27443 140 139 157
-1.99915 -1.20154 6.35432 133 159 176
-1.56075 0.23758 5.31138 223 248 255
-1.56946 -0.0715 5.35486 227 251 255
-1.5477 0.750675 5.2571 211 239 253
-1.56152 0.15041 5.32946 221 248 255
-1.55433 -0.346568 5.35577 231 252 255
-1.55771 0.022682 5.34066 228 248 255
-1.54023 0.79011 5.25732 210 239 253
-1.54023 0.79011 5.25732 210 239 253
-1.56098 0.261837 5.33681 254 247 229
-1.54124 0.986987 5.24828 206 237 255
-1.55825 -0.0607803 5.35405 226 249 255
-1.53844 0.832201 5.25352 255 253 244
-1.53761 0.397635 5.28496 221 245 255
-1.54055 -0.370201 5.3461 228 252 254
-1.535 0.642078 5.28068 110 116 130
-1.52727 0.768074 5.26516 211 240 254
-1.51732 0.95759 5.24487 207 239 252
-1.52479 0.584001 5.29802 88 91 108
-1.54377 -0.245911 5.39608 229 255 255
-1.52096 0.462171 5.30039 222 244 255
-1.52096 0.462171 5.30039 222 244 255
-1.5281 0.235558 5.33257 223 247 255
-1.52933 0.0850993 5.34704 222 250 254
-1.52933 0.0850993 5.34704 222 250 254
-1.5325 -0.00894879 5.36124 227 252 255
-1.58954 -0.686332 5.53218 236 254 255
-1.52343 0.394143 5.31854 222 244 255
-1.51954 0.526215 5.30223 137 165 177
-1.50914 0.883784 5.25701 244 239 235
-1.58913 -0.681027 5.53605 236 254 255
-1.51337 0.698195 5.28493 204 204 214
-1.52088 0.363124 5.32374 172 184 224
-1.52485 0.0973696 5.35028 223 248 252
-1.66991 -0.433971 5.71983 48 57 72
-1.51277 0.350612 5.32606 151 155 166
-1.49936 0.765667 5.27117 209 241 255
-1.5067 0.452203 5.31636 219 246 255
-1.51447 -0.186706 5.38186 81 88 106
-1.49526 0.839066 5.27301 255 247 236
-1.50556 0.557298 5.31858 107 111 114
-1.50941 -0.0508653 5.37598 96 105 114
-1.51024 -0.250518 5.39408 89 99 126
-1.50345 0.0701361 5.36339 105 113 124
-1.50432 -0.243291 5.39638 105 115 150
-1.5059 -0.203143 5.39769 88 94 116
-1.50504 -0.072549 5.39457 56 65 94
-1.50224 -0.163354 5.40575 122 129 158
-1.47693 0.26833 5.32658 100 90 89
-1.51771 -0.521592 5.48053 236 254 255
-1.47419 0.257339 5.33276 148 134 133
-1.47419 0.257339 5.33276 148 134 133
-1.47791 0.273208 5.34213 108 98 96
-1.46734 0.290477 5.31774 128 103 122
-1.45469 0.23317 5.3263 126 122 136
-1.46551 -0.409341 5.42165 62 69 98
-1.44349 0.275453 5.32992 74 78 90
-1.44304 1.01792 5.28195 100 133 148
-1.47459 -0.12511 5.43185 75 97 121
-1.47459 -0.12511 5.43185 75 97 121
-1.43685 0.910263 5.27858 100 96 95
-1.47574 -0.42152 5.46125 39 55 81
-1.43788 0.255907 5.35278 82 89 107
-1.44366 -0.340784 5.40851 53 65 91
-1.53794 -0.514285 5.72832 105 133 157
-1.41015 -0.340196 5.43803 46 64 88
-1.86546 -1.24348 6.58169 48 60 84
-1.79753 -0.89192 6.47343 68 70 93
-1.79458 -0.949483 6.47996 131 144 186
-1.79759 -0.973678 6.49031 243 254 255
-1.63177 1.05886 5.96214 110 101 102
-1.79869 -1.03398 6.50075 243 255 255
-1.6359 0.554576 6.01603 110 138 175
-1.62191 0.726603 5.98377 84 101 127
-1.61873 0.759765 5.99052 62 78 104
-1.61766 0.387966 6.0308 133 140 133
-1.62189 0.132971 6.05858 52 74 97
-1.6146 0.518907 6.01669 71 75 120
-1.6177 -0.0825278 6.06811 44 60 85
-1.60977 0.545616 6.02186 111 134 178
-1.60928 0.624038 6.01617 45 60 81
-1.59385 0.736228 5.99671 75 96 123
-1.60037 0.450706 6.03793 38 44 66
-1.60798 -0.0175682 6.09557 41 58 84
-1.59032 -0.17228 6.07384 49 64 93
-1.58626 -0.04717 6.06082 41 55 81
-1.58755 0.409029 6.04416 106 122 145
-1.59042 -0.035458 6.08825 40 56 82
-1.57097 -0.187805 6.073 48 60 86
-1.57729 -0.0638509 6.10039 41 57 80
-1.57729 -0.0638509 6.10039 41 57 80
-1.5903 -0.302691 6.15345 41 58 78
-1.56595 -0.229663 6.09796 50 55 84
-1.56934 -0.0596503 6.11005 38 59 80
-1.55679 -0.476487 6.18432 43 59 75
-1.54115 -0.461763 6.19643 39 52 69
-1.89662 0.461357 7.03503 38 52 78
-1.53618 0.0888054 6.15722 43 63 88
-1.502 0.613713 6.0697 32 52 76
-1.517 -0.485297 6.19757 40 57 75
-1.50801 -0.494172 6.20625 41 56 75
-1.50313 -0.473833 6.21367 46 57 85
-1.49994 -0.466124 6.21066 50 62 88
-1.48695 -0.473189 6.20751 37 55 77
-1.4693 0.913001 6.07355 48 67 100
-1.46778 0.896277 6.0744 53 70 100
-1.47736 -0.50904 6.19941 40 55 74
-1.48247 -0.466017 6.22992 107 108 129
-1.47648 -0.523467 6.22206 36 51 74
-1.47648 -0.523467 6.22206 36 51 74
-1.59958 -0.845648 6.59206 244 254 255
-1.45509 0.450689 6.16217 39 51 77
-1.45667 0.379479 6.17641 67 69 90
-1.42142 1.00721 6.06356 33 50 66
-1.42112 0.898481 6.08846 154 136 114
-1.41907 0.914109 6.08655 119 101 89
-1.41191 -0.227756 6.21286 39 51 73
-1.41191 -0.227756 6.21286 39 51 73
-1.40368 0.0606974 6.18281 35 44 75
-1.39961 0.0601905 6.17425 35 46 76
-1.41366 -0.408812 6.25521 54 72 96
-1.41353 -0.367794 6.2534 33 46 62
-1.56117 -0.977961 6.71058 44 59 54
-1.39517 -0.469658 6.23699 79 86 112
-1.39094 -0.265476 6.2517 92 83 100
-1.3672 0.226238 6.18778 31 45 56
-1.38186 -0.262422 6.26412 133 120 101
-1.35674 -0.161388 6.19966 139 125 99
-1.35075 0.641046 6.14498 51 60 89
-1.34891 -0.223546 6.20626 114 99 80
-1.54258 -1.15327 6.8285 49 61 85
-1.53519 -1.12089 6.8161 42 61 78
-1.52661 -1.09022 6.79405 44 56 78
-1.5307 -1.11691 6.81114 41 56 75
-1.53405 -1.14634 6.83104 46 58 82
-1.33781 0.31431 6.18793 63 73 100
-1.3349 0.532274 6.1647 43 54 72
-1.53269 -1.19358 6.84129 48 56 79
-1.53242 -1.28725 6.84791 89 120 151
-1.53002 -1.15095 6.83984 46 58 82
-1.33656 0.302387 6.20454 36 52 78
-1.53114 -1.30975 6.86117 63 82 125
-1.51807 -1.07277 6.80902 40 56 82
-1.51807 -1.07277 6.80902 40 56 82
-1.53405 -1.21508 6.86415 52 59 87
-1.33264 0.173487 6.21064 142 127 104
-1.33092 0.0820069 6.21554 38 49 79
-1.53396 -1.26745 6.87596 57 84 111
-1.52788 -1.23915 6.85895 67 82 111
-1.52986 -1.32076 6.8731 68 84 118
-1.52489 -1.22503 6.85309 51 62 92
-1.5141 -1.06217 6.81157 43 59 84
-1.32545 0.572623 6.17811 38 54 70
-1.32545 0.572623 6.17811 38 54 70
-1.33352 -0.0761966 6.24797 45 63 87
-1.52842 -1.34738 6.88433 89 113 141
-1.32897 -0.0685148 6.24367 49 63 92
-1.32897 -0.0685148 6.24367 49 63 92
-1.51561 -1.14445 6.85158 10 34 68
-1.51561 -1.14445 6.85158 10 34 68
-1.30694 0.58347 6.16138 40 51 73
-1.50828 -1.32273 6.87256 143 149 171
-1.50761 -1.19459 6.86684 86 98 122
-1.50393 -1.13805 6.85449 108 123 146
-1.29803 0.589906 6.18424 42 53 73
-1.48565 -1.08403 6.83849 87 102 133
-1.48565 -1.08403 6.83849 87 102 133
-1.29683 0.54956 6.19159 41 54 73
-1.29683 0.54956 6.19159 41 54 73
-1.29704 0.382765 6.2069 42 60 80
-1.28966 0.673508 6.16573 92 98 114
-1.28966 0.673508 6.16573 92 98 114
-1.29289 0.277924 6.21662 144 134 122
-1.48766 -1.15386 6.87066 105 115 127
-1.29978 0.100661 6.25119 130 114 89
-1.2881 -0.221472 6.25119 139 127 105
-1.47975 -1.12356 6.86409 123 123 123
-1.30002 -0.317961 6.31307 113 107 95
-1.2695 0.596206 6.17602 45 52 71
-1.4655 -1.12848 6.86236 161 146 123
-1.44999 -1.05758 6.83624 147 127 103
-1.28053 -0.0652539 6.28024 42 49 75
-1.4533 -1.10733 6.86495 155 143 127
-1.25634 0.646999 6.18046 83 85 106
-1.25634 0.646999 6.18046 83 85 106
-1.34108 -0.584057 6.52248 57 62 68
-1.33758 -0.555851 6.52069 115 99 99
-1.45054 -1.11156 6.89752 144 132 120
-1.25775 0.242391 6.24658 99 90 73
-1.25567 0.353217 6.23359 46 60 86
-1.24527 0.69551 6.18252 55 76 97
-1.26023 0.0109496 6.27946 42 54 78
-1.25408 0.177473 6.25119 91 90 85
-1.24478 0.53776 6.20739 50 52 75
-1.25001 0.139682 6.2565 95 89 77
-1.2367 -0.209649 6.26177 95 115 139
-1.23437 0.618353 6.20268 54 62 83
-1.24272 -0.100752 6.28159 140 137 122
-1.2516 -0.236328 6.3276 70 99 141
-1.41819 -1.07978 6.87562 140 116 88
-1.23786 -0.0364972 6.27928 64 76 100
-1.22087 0.78862 6.19328 96 107 129
-1.40832 -1.08288 6.90054 149 126 95
-1.22221 0.142197 6.26608 129 128 123
-1.19986 0.322017 6.2182 119 119 121
-1.18835 -0.215361 6.27618 91 109 149
-1.20125 -0.236142 6.32308 62 94 133
-1.19159 -0.462468 6.35985 53 68 91
-1.18897 -0.484007 6.35674 69 78 93
-1.18026 -0.432177 6.36506 48 56 77
-1.17556 -0.462016 6.3744 55 69 95
-1.32605 -1.07669 6.91285 98 81 97
-1.1488 -0.211481 6.31579 105 128 162
-1.14744 0.398676 6.28098 39 50 78
-1.14744 0.398676 6.28098 39 50 78
-1.322 -1.08519 6.9286 92 80 90
-1.31403 -1.07069 6.92969 144 139 146
-1.31067 -1.07829 6.93433 107 99 110
-1.31327 -1.11427 6.95633 163 157 157
-1.11271 0.635928 6.22211 89 100 106
-1.12638 -0.151154 6.32843 71 91 126
-1.30347 -1.07866 6.95275 153 149 137
-1.13416 0.185327 6.33607 67 99 137
-6.31902 0.893544 22.3538 84 116 154
-1.13693 0.202124 6.34619 84 116 154
-1.12904 -0.468422 6.4496 73 81 100
-1.26246 -1.07369 6.93641 152 136 136
-1.10543 -0.516679 6.40235 82 94 110
-1.1051 0.201796 6.36925 95 115 142
-1.02353 0.415886 6.09932 157 141 118
-1.26155 -1.10781 6.97024 80 75 69
-1.09692 -0.517119 6.41929 120 110 98
-1.23245 -1.07927 6.93697 93 83 94
-1.05865 -0.1471 6.36883 153 141 127
-1.21683 -1.10516 7.00188 162 150 152
-1.06337 -0.394241 6.45183 59 56 39
-1.0312 0.0529603 6.33208 121 109 95
-1.03195 0.468641 6.32939 128 118 93
-1.04335 -0.215601 6.42583 121 109 93
-1.0475 -0.41548 6.46245 128 108 84
-1.03866 -0.505149 6.44279 124 108 83
-0.182037 0.00901802 3.6272 130 110 86
-1.18789 -1.07838 7.03365 119 110 103
-1.02231 -0.213166 6.42469 119 107 95
-1.02231 -0.213166 6.42469 119 107 95
-1.02006 -0.225161 6.42793 112 103 94
-1.0046 0.403206 6.33313 82 68 57
-1.01411 -0.218309 6.43775 133 124 107
-1.01411 -0.218309 6.43775 133 124 107
-1.1681 -1.07549 7.02611 157 155 142
-1.1681 -1.07549 7.02611 157 155 142
-0.978813 0.630171 6.29596 125 118 108
-0.975525 0.667265 6.28764 137 128 111
-1.02349 -0.509506 6.54327 120 113 103
-0.974818 0.807528 6.28992 136 117 87
-0.972547 0.89261 6.27727 119 111 98
-0.981474 0.247775 6.37129 140 129 111
-1.12356 -1.02877 6.98886 163 160 155
-1.1387 -1.08491 7.05452 169 165 154
-0.9516 0.402308 6.35728 57 52 48
-0.947556 0.684686 6.32628 149 145 136
-0.947009 0.657424 6.33474 115 115 107
-0.933468 1.06803 6.25864 154 142 128
-0.948288 0.416138 6.36017 73 63 61
-0.948288 0.416138 6.36017 73 63 61
-0.948699 -0.142604 6.40707 102 88 79
-0.949126 0.232605 6.38924 128 116 100
-0.94964 0.26505 6.38903 135 124 106
-0.952607 0.00513336 6.42386 64 59 53
-1.10363 -1.0617 7.02756 158 153 150
-1.10425 -1.07126 7.03575 156 150 150
-0.932587 0.59425 6.32617 132 125 117
-0.932587 0.59425 6.32617 132 125 117
-0.932305 0.446125 6.36254 92 91 89
-1.00703 -0.60069 6.71331 99 84 61
-1.00955 -0.578938 6.7272 122 104 80
-1.00955 -0.578938 6.7272 122 104 80
-0.899963 1.03886 6.29694 130 116 103
-0.904325 0.757181 6.33465 138 131 105
-0.920241 -0.0647333 6.45839 122 111 91
-0.920241 -0.0647333 6.45839 122 111 91
-0.924346 -0.310304 6.50372 129 121 102
-0.924346 -0.310304 6.50372 129 121 102
-0.974609 -0.558155 6.71498 120 110 100
-0.885237 0.666833 6.34823 151 143 132
-0.953302 -0.557581 6.73104 126 125 107
-0.953302 -0.557581 6.73104 126 125 107
-0.876717 0.601977 6.37243 128 118 108
-0.86774 0.760839 6.33424 138 126 104
-0.862447 1.10634 6.30201 159 152 144
-0.94443 -0.573319 6.73024 139 131 118
-0.864143 0.935995 6.33027 150 138 126
-0.864143 0.935995 6.33027 150 138 126
-0.873799 0.136479 6.43583 135 123 111
-0.877886 0.00852398 6.4625 102 84 80
-0.939383 -0.56447 6.73488 139 133 117
-0.869716 0.12756 6.4353 138 125 116
-0.869716 0.12756 6.4353 138 125 116
-0.867667 0.311227 6.41603 125 115 103
-0.866293 0.432766 6.40441 54 53 48
-0.856007 0.719822 6.3517 158 149 134
-0.86487 0.34545 6.41558 125 122 107
-0.93184 -0.560363 6.74208 113 103 91
-0.844983 0.676315 6.37438 149 139 129
-0.888001 -0.40055 6.63764 102 87 82
-0.834707 0.807878 6.35642 87 83 72
-0.848601 -0.0454802 6.48552 146 143 124
-0.837727 -0.00201596 6.44837 116 92 90
-0.841537 0.16538 6.45248 146 129 121
-0.828348 -0.199655 6.45176 86 88 85
-0.825625 0.256286 6.40777 108 95 89
-0.833629 -0.236052 6.52794 51 68 88
-0.811116 0.410805 6.41718 91 79 81
-0.96853 -1.06899 7.12109 135 125 124
-0.96853 -1.06899 7.12109 135 125 124
-0.965324 -1.04563 7.11051 123 119 116
-0.824364 -0.237751 6.53079 51 78 97
-0.962045 -1.06117 7.12363 162 159 154
-0.796851 0.62317 6.37789 147 138 123
-0.956641 -1.09674 7.13751 164 151 158
-0.951887 -1.06718 7.12148 158 160 157
-0.793595 0.753678 6.39411 128 120 107
-0.810218 -0.440984 6.56852 94 83 81
-0.942043 -1.06822 7.12667 162 161 157
-0.942043 -1.06822 7.12667 162 161 157
-0.935216 -1.04915 7.11239 164 163 159
-0.779824 0.85344 6.37683 57 76 106
-0.930282 -1.01752 7.09878 161 161 159
-0.913283 -1.04868 7.12348 110 98 98
-0.905177 -1.06433 7.12884 154 155 150
-0.747882 0.520432 6.42924 148 146 131
-0.747882 0.520432 6.42924 148 146 131
-0.730941 0.647551 6.40179 149 146 141
-0.737038 0.656852 6.42941 151 150 146
-0.888724 -1.09527 7.17214 161 157 154
-0.0241626 0.131738 3.70592 83 95 111
-0.0241626 0.131738 3.70592 83 95 111
-0.730195 0.502071 6.43066 151 148 141
-0.747843 0.222107 6.52414 87 103 119
-0.723217 0.766091 6.44886 128 116 100
-0.718649 0.0816568 6.48907 142 139 124
-0.863904 -1.07907 7.17898 107 103 100
-0.709424 -0.190162 6.51206 57 74 102
-0.719116 -0.459916 6.5992 91 77 76
-0.707879 -0.475406 6.57359 133 131 118
-0.823583 -1.00807 7.09269 156 155 150
-0.714172 -0.498077 6.62665 129 123 111
-0.690359 0.518067 6.4691 151 153 148
-0.830364 -1.09256 7.18868 160 151 144
-0.823643 -1.0583 7.20155 149 150 144
-0.677925 -0.403995 6.62249 92 73 75
-0.664815 -0.191662 6.55643 60 75 108
-0.669098 -0.454835 6.60873 55 51 42
-0.669098 -0.454835 6.60873 55 51 42
-0.636052 0.865071 6.45045 55 81 106
-0.641939 0.107261 6.54789 135 124 120
-0.777074 -1.09718 7.2194 134 145 137
0.0349436 -0.256574 3.77167 84 69 76
-0.772273 -1.08943 7.22474 124 130 130
-0.637114 -0.256713 6.6116 106 117 137
-0.620351 0.639639 6.46984 149 144 138
-0.620364 -0.119524 6.56545 72 83 101
-0.754861 -1.09089 7.23477 107 107 109
-0.624142 -0.43745 6.64621 87 71 71
-0.611033 -0.203582 6.59025 62 86 114
-0.612079 -0.268369 6.63656 102 117 136
-0.609955 -0.233259 6.63115 56 71 102
-0.583074 -0.0173024 6.57256 95 79 80
-0.632595 -0.628348 6.86588 69 77 100
-0.565323 0.361298 6.54085 97 93 84
-0.561062 0.0586903 6.57733 90 73 79
-0.564275 -0.281942 6.64966 83 102 117
-0.657469 -1.28964 7.15103 167 158 143
-0.650448 -0.815592 7.09987 124 118 104
-0.649298 -1.12514 7.13162 142 126 111
-0.646688 -0.856615 7.09765 115 105 96
-0.648592 -1.25243 7.14673 135 108 79
-0.648561 -1.2911 7.15364 133 110 78
-0.647568 -1.28338 7.15142 141 115 82
-0.631975 -0.854393 7.10455 132 129 114
-0.51389 -0.16066 6.51788 93 101 122
-0.635357 -1.30099 7.16665 113 87 70
-0.524455 0.226416 6.54927 63 77 106
-0.58205 -0.5325 6.88418 114 109 90
-0.507905 0.872027 6.42955 85 107 130
-0.626061 -1.28636 7.15453 107 85 72
-0.523578 0.0472061 6.57987 97 85 89
-0.499189 1.15477 6.37735 124 124 116
-0.506759 0.694522 6.45579 138 142 141
-0.620385 -0.923372 7.1133 63 67 53
-0.61975 -1.03532 7.12927 149 135 109
-0.61975 -1.03532 7.12927 149 135 109
-0.620864 -1.11921 7.14407 144 128 103
-0.481711 -0.159059 6.46655 75 81 97
-0.611959 -1.17297 7.15416 119 99 88
-0.611576 -1.30301 7.17855 109 85 75
-0.600086 -1.05679 7.13246 161 146 127
-0.599554 -0.935048 7.12731 138 139 125
-0.534337 -0.355983 6.7775 123 119 110
-0.598825 -1.01746 7.13486 157 146 126
-0.465874 -0.165211 6.46641 81 90 105
-0.591641 -0.830735 7.11034 83 80 73
-0.465831 -0.126717 6.46903 60 67 83
-0.474288 -0.109819 6.51763 69 69 77
-0.590383 -0.905961 7.12549 131 118 110
-0.590652 -0.862777 7.12375 115 109 97
-0.458712 0.66971 6.39466 129 129 131
-0.578843 -0.909852 7.14029 114 112 99
-0.534388 -0.510535 6.89803 128 118 108
-0.580663 -0.95831 7.15785 67 70 61
-0.433335 1.20448 6.27678 137 137 137
-0.577301 -1.07052 7.18035 163 153 143
-0.449802 -0.0595398 6.49468 132 132 122
-0.435479 0.468815 6.39317 123 136 144
-0.440133 0.578654 6.41301 114 127 135
-0.411242 1.1171 6.31761 87 91 103
-0.568818 -1.0077 7.27071 122 122 112
-0.4145 -0.1693 6.48336 77 82 86
-0.562607 -1.10001 7.31281 117 121 124
-0.533426 -1.01201 7.17004 112 116 119
-0.369187 -0.162555 6.49489 104 100 91
-0.370257 -0.0238617 6.5258 103 99 88
-0.426403 -0.781341 6.97201 91 97 93
-0.342326 -0.150565 6.51712 140 134 122
-0.33178 0.331722 6.47513 105 100 96
-0.33178 0.331722 6.47513 105 100 96
-0.31848 0.484849 6.39463 131 130 128
-0.331009 -0.164993 6.52567 124 111 94
-0.329641 -0.213495 6.53209 135 126 111
-0.294437 0.495183 6.37696 119 114 110
-0.313979 -0.157888 6.54169 123 117 103
-0.294987 0.527003 6.41935 140 131 116
-0.315274 0.275093 6.55765 116 105 87
-0.287718 0.538372 6.40385 142 140 128
-0.302414 -0.261256 6.61984 111 106 100
-0.28405 0.552871 6.44589 126 125 123
-0.298884 -0.283921 6.63997 129 119 107
-0.293533 -0.25563 6.61898 130 116 107
-0.390131 -1.09439 7.23197 157 145 131
-0.417929 -1.27801 7.42574 99 80 76
-0.284147 -0.270755 6.61092 121 109 95
-0.422288 -1.5109 7.48204 124 110 101
-0.2785 -0.218978 6.58407 122 111 105
-0.261589 0.62222 6.41702 112 105 97
-0.382302 -1.07628 7.23749 138 121 114
-0.419424 -1.54626 7.48869 105 99 83
-0.378055 -1.08257 7.24114 129 110 103
-0.406358 -1.27901 7.43111 90 75 68
-0.403683 -1.2773 7.42098 91 77 68
-0.267653 -0.246912 6.61635 122 119 102
-0.40012 -1.5384 7.47631 42 57 64
-0.394139 -1.51242 7.46356 44 51 67
-0.352907 -1.05561 7.22975 159 153 141
-0.255345 -0.239672 6.61724 119 112 93
-0.381876 -1.49126 7.47415 96 93 114
-0.343204 -1.05615 7.24443 158 153 147
-0.343659 -1.06534 7.25905 155 151 142
