ply
format ascii 1.0 
element vertex 975
property float32 x 
property float32 y 
property float32 z
property uchar red  
property uchar green
property uchar blue
element face 0
property list uchar int vertex_indices
end_header
-0.567563 0.654597 3.02118 200 200 190
-0.550485 0.638178 3.03214 105 100 94
-0.542322 0.474964 3.06357 197 198 192
-0.535614 0.438079 3.073 87 88 74
-0.520729 0.524437 3.05012 180 177 170
-0.520648 0.451313 3.0571 110 106 95
-0.504797 0.600874 3.0592 188 179 172
-0.490435 0.403032 3.11426 140 142 139
-0.47178 -0.435444 3.27658 108 109 104
-0.447531 0.583319 3.06995 129 128 126
-0.455923 -0.562799 3.23408 223 227 239
-0.432906 0.520501 3.07677 114 114 104
-0.426421 0.638777 3.0714 99 98 94
-0.43579 0.360891 3.17755 213 209 206
-0.415484 0.631043 3.07488 110 111 105
-0.428073 -0.53347 3.26236 108 113 109
-0.42379 -0.458386 3.25805 120 122 121
-0.416119 -0.665229 3.20334 220 226 238
-0.418791 -0.151126 3.23545 119 121 107
-0.418791 -0.151126 3.23545 119 121 107
-0.415716 -0.562659 3.25124 218 228 238
-0.413157 -0.388074 3.23308 17 20 13
-0.397293 0.36042 3.21258 216 216 216
-0.394089 0.269079 3.2123 245 246 241
-0.378804 0.444492 3.10138 50 46 43
-0.378804 0.444492 3.10138 50 46 43
-0.373383 0.637125 3.08654 130 129 125
1.04802 -1.28733 12.6881 58 60 55
-0.362618 0.501995 3.10097 210 210 208
-0.371499 -0.369901 3.28115 33 33 31
-0.372401 -0.398625 3.22555 47 49 44
-0.356965 0.43718 3.12457 30 30 28
1.13388 -1.41695 12.4182 32 32 30
-0.35138 0.44271 3.10845 30 35 28
-0.360656 -0.398042 3.23185 43 43 41
-0.348661 -0.0628367 3.27761 107 103 92
-0.348643 -0.226816 3.26184 187 190 183
-0.342897 0.201741 3.25262 214 214 206
-0.344255 -0.519927 3.23735 109 113 112
-0.342644 0.350737 3.2327 216 215 211
-0.33561 -0.617196 3.28015 219 225 237
-0.329244 -0.512069 3.28855 112 112 112
-0.3158 0.434636 3.13608 32 39 31
-0.3158 0.434636 3.13608 32 39 31
-0.323787 -0.494718 3.24186 145 147 146
1.09205 -1.74046 12.751 145 147 146
-0.322233 -0.350848 3.25819 29 29 27
-0.322233 -0.350848 3.25819 29 29 27
1.1613 -1.63336 12.5785 132 136 137
-0.318965 -0.461758 3.24242 132 136 137
-0.314802 -0.491134 3.28667 141 143 142
-0.29161 0.432765 3.14506 48 50 47
-0.472839 -0.571753 5.10583 11 12 7
-0.28355 -0.324639 3.14297 9 11 6
-0.28355 -0.324639 3.14297 9 11 6
-0.290396 -0.48466 3.25172 144 145 147
-0.279902 0.20022 3.26987 225 229 214
-1.85198 -3.31727 23.211 148 150 149
-0.264349 0.625794 3.11832 152 153 155
-0.264006 0.440217 3.12589 213 214 209
-0.269819 -0.359605 3.30427 25 25 25
-0.267171 -0.611348 3.24884 219 225 237
-0.268585 -0.210361 3.27889 210 210 208
-1.85848 -2.62176 23.247 29 29 27
-0.277595 -0.357738 3.40637 25 27 24
-0.255977 0.353004 3.23737 211 206 202
-0.239054 0.586106 3.13026 164 165 167
-0.241154 -0.416747 3.29262 44 46 43
-0.241706 0.0107328 3.27041 220 220 218
-0.221617 0.607701 3.13311 178 180 179
-0.231171 -0.366793 3.28315 34 34 34
-0.228958 -0.344858 3.28243 22 25 18
-0.220046 0.442858 3.13781 113 111 99
-0.214586 0.437178 3.14691 131 131 123
-0.219064 -0.396003 3.27171 44 44 42
-0.211649 -0.267881 3.29738 130 134 133
-0.2012 -0.614453 3.30456 216 224 235
-0.465873 -0.142716 7.37246 157 159 158
-0.203326 -0.5432 3.27421 104 106 105
-0.201896 -0.0641581 3.30237 160 162 161
-0.184189 0.432268 3.15698 213 214 209
-0.18538 -0.598942 3.31712 217 223 235
-0.15967 0.435255 3.15212 124 124 122
-0.161545 0.375645 3.23386 204 205 199
-0.161389 0.376167 3.2353 204 205 199
-0.163267 0.288001 3.27387 219 218 214
-0.162976 0.333759 3.283 162 162 154
-0.160891 0.139662 3.28563 219 220 215
-0.158665 0.254245 3.27647 220 221 216
-0.157462 0.244612 3.27912 224 225 220
-0.151892 -0.220674 3.30883 199 199 199
-0.152166 -0.438057 3.32572 98 106 109
-0.152166 -0.438057 3.32572 98 106 109
-0.149603 -0.55066 3.33535 163 163 163
-0.140492 0.474679 3.16326 213 208 204
-0.134039 0.426116 3.17965 211 212 206
-0.100917 0.430836 3.17441 210 211 205
-0.0607127 -0.405885 3.45638 48 47 43
-0.0590055 0.190236 3.40034 205 204 202
-0.0571564 0.188907 3.40057 208 207 205
-0.0338999 -0.557667 3.4752 206 207 202
-0.022263 -0.547481 3.47731 204 205 200
0.11015 -0.550065 3.49724 206 203 196
0.123016 -0.575976 3.49548 131 123 112
0.120726 -0.542398 3.47761 209 208 204
0.252593 -0.5506 3.52592 210 207 200
0.296459 -0.565332 3.52784 211 211 203
0.299633 -0.3214 3.50704 20 22 17
0.324349 -0.563012 3.52696 208 209 203
0.346083 -0.549074 3.54188 200 197 190
0.346083 -0.549074 3.54188 200 197 190
0.344712 -0.575133 3.52702 209 208 203
0.348074 -0.597667 3.5066 205 202 195
0.357164 -0.539143 3.53943 204 201 196
0.391494 -0.392955 3.57318 28 30 27
0.463843 -0.748606 3.59948 208 209 204
0.459164 -0.255439 3.54288 165 165 165
0.467624 -0.562959 3.56623 209 208 204
0.463169 0.15673 3.51805 221 222 224
0.464013 0.318208 3.51736 27 27 19
0.477218 -0.790992 3.57392 207 204 197
0.477097 -0.405165 3.5584 58 60 59
0.512152 -1.595 3.81165 13 16 7
0.481168 -0.240712 3.55197 185 185 185
0.494822 -0.595085 3.53907 211 210 205
0.503854 -0.41216 3.56305 40 42 39
0.509325 -0.535303 3.57961 199 201 198
0.505821 -0.601336 3.54 212 211 206
0.519151 -0.407263 3.58236 34 34 34
0.517345 -0.420206 3.56781 40 42 39
0.523159 -0.547495 3.58202 207 208 203
0.524949 -0.512273 3.57867 149 151 148
0.525472 -0.561617 3.57157 211 210 206
0.52648 -0.368245 3.557 22 24 19
0.533896 -0.273382 3.55339 147 147 147
0.545788 -0.546025 3.58317 207 208 203
0.550299 -0.70885 3.60311 212 213 208
0.553962 -0.712372 3.58566 214 213 208
0.555095 -0.275335 3.56928 145 145 145
0.555095 -0.275335 3.56928 145 145 145
0.553186 -0.59443 3.55523 212 211 207
0.550061 0.285832 3.52851 18 19 11
0.56412 -0.668828 3.57553 207 212 208
0.569529 -0.679257 3.57394 219 218 213
0.568408 -0.263806 3.56365 153 153 153
0.570489 -1.3346 3.56746 123 124 119
0.574135 -1.32927 3.58429 91 90 86
0.571076 -0.628 3.54818 202 199 194
0.571054 0.303341 3.54017 13 18 12
0.590514 -1.34786 3.57709 20 20 18
0.67607 -1.39349 3.31489 1 13 9
0.748343 -0.0534489 3.66247 174 176 171
0.697211 -0.0493367 3.41223 174 176 171
0.684012 -1.37601 3.33515 63 78 75
0.686684 -1.38031 3.32654 152 140 140
0.667866 0.0748949 3.1718 99 102 93
0.670094 0.231708 3.15923 11 16 9
0.659491 0.309875 3.12543 38 38 26
0.672125 0.392418 3.14187 37 37 25
0.677013 0.36568 3.14989 38 38 26
0.674304 0.528565 3.13221 13 16 7
0.674247 0.557193 3.12905 17 20 13
0.680119 0.554039 3.13185 14 17 10
0.688793 0.377324 3.13031 31 32 18
0.737168 -0.0563608 3.26818 178 177 172
0.735031 0.0460466 3.19347 226 228 225
0.735031 0.0460466 3.19347 226 228 225
0.737339 0.38464 3.16745 37 38 24
0.757646 0.477173 3.16313 50 50 38
0.748764 0.476675 3.14127 50 50 38
0.773862 -0.00888178 3.18296 188 190 187
0.790854 0.0665848 3.20883 231 232 227
0.836734 0.310809 3.20783 19 22 13
0.836734 0.310809 3.20783 19 22 13
0.861706 0.11804 3.22752 220 221 216
0.906313 -1.26582 3.39323 17 17 7
0.926478 -1.51038 3.44667 21 22 16
0.915908 -1.27128 3.38048 59 58 53
0.896525 0.0488057 3.21955 227 228 222
0.964651 -1.46114 3.44475 58 60 49
0.919468 0.107505 3.25061 219 220 215
0.907864 0.556219 3.20001 13 16 9
0.959716 -1.25092 3.37166 164 160 149
0.984401 -1.48286 3.45231 52 48 37
0.915295 0.0521246 3.22401 209 208 203
0.950504 0.115101 3.25651 220 219 214
0.950504 0.115101 3.25651 220 219 214
1.04922 -1.53752 3.4867 44 46 35
1.00154 0.133433 3.28124 192 196 199
1.02592 -0.0633729 3.33898 162 159 150
1.02592 -0.0633729 3.33898 162 159 150
1.07631 -1.49113 3.48613 50 46 37
1.00742 0.400375 3.24914 18 19 13
1.00742 0.400375 3.24914 18 19 13
1.09417 -1.52806 3.49653 62 55 45
1.09323 -1.4565 3.48747 41 35 23
1.03659 0.11474 3.28811 152 153 147
1.10643 -1.49048 3.4975 70 66 54
1.10509 -1.43845 3.48965 63 57 43
1.10243 0.202586 3.30267 128 129 131
1.10539 0.12544 3.3077 171 172 167
1.10966 0.270421 3.29662 109 117 120
1.10359 0.12943 3.28714 160 161 156
1.1729 -1.36455 3.48356 25 26 20
1.13273 0.103102 3.31935 156 157 151
1.13273 0.103102 3.31935 156 157 151
1.1377 0.0965182 3.31577 42 35 29
1.30293 -1.5945 3.74494 72 49 41
1.35175 -1.623 3.70498 126 131 135
1.359 -1.63012 3.71971 126 131 135
1.45569 -1.62379 3.80177 88 88 80
1.49686 -1.44668 3.91275 26 23 14
1.49082 -1.44131 3.8963 26 23 14
1.49924 -1.46654 3.91477 68 66 54
1.4939 -1.41166 3.89485 105 103 91
1.49945 -1.41611 3.91006 105 103 91
1.50373 -1.45225 3.91147 101 101 91
1.50797 -1.40314 3.91439 70 67 60
1.51229 -1.38313 3.90792 63 66 59
1.51533 -1.44568 3.91578 53 52 47
1.54655 -1.42785 3.92754 77 74 67
1.5603 -1.46324 3.93376 71 73 62
1.5624 -1.47658 3.9328 67 66 61
1.56633 -1.4532 3.93502 62 65 56
1.566 -1.44254 3.93421 75 74 69
1.51966 -1.61979 3.81679 100 96 85
1.57478 -1.49613 3.93499 66 66 56
1.57896 -1.38177 3.93127 73 69 60
1.57578 -1.37882 3.92512 73 69 60
1.55271 -1.64074 3.81786 104 100 91
1.62006 -1.63678 3.83666 120 116 107
1.60793 -1.6692 3.79639 118 111 101
1.69504 -1.3588 3.96011 25 24 20
1.65432 -1.65666 3.84511 114 110 101
1.69572 -1.50116 3.94287 56 55 50
1.65129 -1.67975 3.83048 118 109 100
1.65129 -1.67975 3.83048 118 109 100
1.75121 -1.25352 3.98729 169 162 152
1.81634 -1.2707 3.99531 161 157 146
1.78964 -1.62298 3.89182 82 81 77
1.829 -1.17512 3.97068 112 108 99
1.85213 -1.48202 4.01728 139 135 124
1.85213 -1.48202 4.01728 139 135 124
1.82934 -1.22296 3.96705 130 127 118
1.79607 -1.60091 3.8897 79 75 72
1.83318 -1.22743 3.96408 124 120 111
1.80441 -1.6414 3.87357 69 70 65
1.78076 -1.67921 3.82062 76 77 72
1.85843 -1.45264 3.98899 149 142 134
1.8731 -1.46508 4.01818 149 142 134
1.87417 -1.48144 4.01992 129 125 116
1.87417 -1.48144 4.01992 129 125 116
1.84298 -1.2392 3.95289 104 94 84
1.8779 -1.42984 4.019 134 130 121
1.86316 -1.40956 3.98883 134 135 127
1.88654 -1.46084 3.99729 123 114 105
1.84589 -1.59803 3.90535 69 55 52
1.90501 -1.45137 4.02773 141 132 123
1.87129 -1.19427 3.95388 140 141 135
1.82094 -1.67746 3.83315 69 70 65
1.90656 -1.37884 4.01082 94 96 91
1.90611 -1.50821 4.00206 99 99 91
1.90501 -1.38401 3.99591 112 113 108
1.92461 -1.43014 4.03196 95 98 91
1.92461 -1.43014 4.03196 95 98 91
1.86835 -1.59735 3.91006 100 87 81
1.8796 -1.59488 3.91425 148 141 131
1.86249 -1.65577 3.87171 70 71 66
1.86121 -1.65431 3.86951 70 71 66
1.90716 -1.59356 3.92057 125 126 118
1.95407 -1.45718 4.01735 112 112 104
1.94888 -1.2466 3.98928 108 111 104
1.94586 -1.20039 3.98279 126 125 120
1.94633 -1.26422 3.97489 113 115 110
1.94351 -1.26969 3.96301 99 101 96
1.92958 -1.59222 3.92658 103 102 97
1.96626 -1.27572 3.97283 122 123 117
1.96538 -1.59219 3.94041 108 107 102
2.0374 -1.23638 4.04523 99 98 93
2.0465 -1.24152 4.06004 99 98 93
2.04911 -1.49267 4.05744 109 111 106
1.98955 -1.63464 3.93824 93 82 76
2.0588 -1.48138 4.06935 107 106 102
2.00496 -1.64423 3.91123 48 53 49
2.06927 -1.22458 4.03049 118 117 112
2.03695 -1.58492 3.95901 108 108 100
2.03112 -1.62961 3.94455 100 100 92
2.05286 -1.60173 3.95987 108 109 104
2.11039 -1.48768 4.07006 128 129 123
2.12089 -1.39124 4.05062 106 107 101
2.1353 -1.43806 4.07153 97 98 92
2.15627 -1.43627 4.09471 114 117 108
2.13339 -1.40788 4.05458 135 135 125
2.15574 -1.38056 4.07456 102 101 97
2.1149 -1.57837 3.97985 85 85 75
2.18791 -1.31992 4.10574 105 106 100
2.17318 -1.37958 4.07649 112 113 107
2.17715 -1.39156 4.08188 105 106 100
2.16816 -1.29253 4.06092 113 114 106
2.18725 -1.34043 4.09275 123 124 118
2.18673 -1.36678 4.08079 137 138 132
2.1944 -1.45217 4.08576 100 101 95
2.20934 -1.33562 4.08492 104 103 98
2.21164 -1.26957 4.08195 104 106 101
2.2164 -1.39783 4.08765 119 120 114
2.17003 -1.63546 3.96064 108 108 100
2.20506 -1.59432 4.00757 101 101 93
2.20506 -1.59432 4.00757 101 101 93
2.2106 -1.57183 4.00305 80 77 68
2.21297 -1.57025 4.00096 93 93 81
2.23818 -1.5685 4.00613 107 97 85
2.3003 -0.978756 4.09974 123 117 105
2.25449 -1.58287 4.01525 111 103 90
2.30003 -1.4378 4.09581 114 107 97
2.32796 -1.43833 4.13944 115 107 96
2.31107 -1.41404 4.11384 124 115 106
2.33278 -1.39246 4.14055 118 110 99
2.27557 -1.56068 4.03967 110 101 92
2.41994 -0.603326 4.28806 131 122 113
2.27393 -1.57293 4.02669 101 97 85
2.34722 -1.45583 4.14771 105 98 88
2.32606 -1.41319 4.11432 97 87 78
2.42636 -0.615153 4.28591 128 120 109
2.37199 -1.89678 4.18314 86 83 74
2.34962 -1.2147 4.11256 117 111 99
2.38889 -1.90083 4.17617 94 92 80
2.30029 -1.56602 4.02201 108 102 90
2.35444 -1.31627 4.11707 115 109 97
2.37218 -1.32522 4.14324 115 109 97
2.37218 -1.32522 4.14324 115 109 97
2.39728 -1.20107 4.12446 124 116 105
2.44782 0.3177 4.20541 99 99 91
2.45521 -1.89103 4.2075 78 78 68
2.45521 -1.89103 4.2075 78 78 68
2.29968 -1.64513 3.92564 104 100 88
2.43236 -1.24966 4.13839 111 104 94
2.42132 -0.579145 4.09945 100 96 87
2.46576 -1.42075 4.16886 117 113 101
2.40804 -0.619254 4.07077 85 86 81
2.35477 -1.61334 3.9826 100 98 86
2.35461 -1.56157 3.981 111 107 96
2.44931 -1.49826 4.12405 0 0 0
2.47677 -0.963084 4.14273 0 0 0
2.52953 -1.88506 4.22078 0 0 0
2.46257 -1.27188 4.09876 0 0 0
2.44335 -1.27582 4.0609 0 0 0
2.4892 -0.913045 4.12799 0 0 0
2.54046 -1.88859 4.21243 0 0 0
2.45942 -1.3344 4.07754 0 0 0
2.47336 -0.774982 4.09657 0 0 0
2.46857 -1.24633 4.08725 0 0 0
2.56371 -1.88286 4.22876 0 0 0
2.56371 -1.88286 4.22876 0 0 0
2.48868 -0.790562 4.08821 0 0 0
2.49603 -0.62207 4.08513 0 0 0
2.5059 -0.674147 4.09441 0 0 0
2.50559 -1.23172 4.09454 0 0 0
2.47019 0.310396 4.03136 0 0 0
2.50974 -1.2441 4.09491 0 0 0
2.57007 -1.87731 4.18547 0 0 0
2.47612 0.302842 4.03175 0 0 0
2.51847 -1.23323 4.09744 0 0 0
2.51765 -0.16767 4.0921 0 0 0
2.51194 -0.241916 4.07912 0 0 0
2.52496 -0.289609 4.09429 0 0 0
2.53678 -1.21067 4.10698 0 0 0
2.4782 -1.39947 4.01131 0 0 0
2.51979 -0.113361 4.07137 0 0 0
2.51923 0.0494247 4.06297 0 0 0
2.5336 -1.21704 4.07963 0 0 0
2.52304 0.134324 4.06115 0 0 0
2.40235 -1.63856 3.86104 0 0 0
2.4021 -1.62273 3.85633 0 0 0
2.52902 0.232599 4.05861 0 0 0
2.53133 0.216421 4.06039 0 0 0
2.45648 -1.54894 3.92239 0 0 0
2.51776 -1.49497 4.0083 0 0 0
2.57779 -1.16321 4.01724 0 0 0
2.47895 -1.55111 3.82538 0 0 0
2.51591 -1.4994 3.8723 0 0 0
2.559 -1.46312 3.9359 0 0 0
2.48357 -1.56408 3.81572 0 0 0
2.55903 -1.42445 3.9344 0 0 0
2.46431 -1.60555 3.78418 0 0 0
2.5567 -1.47436 3.91304 0 0 0
2.4984 -1.53874 3.81592 0 0 0
2.53731 -1.22615 3.8644 0 0 0
2.57328 0.467147 3.89739 0 0 0
2.59597 -1.18651 3.91143 0 0 0
2.65166 -1.47643 3.96684 0 0 0
2.74036 -1.84192 4.05611 0 0 0
2.56078 -0.0452015 3.7582 0 0 0
2.56461 -0.0096647 3.75417 0 0 0
2.56935 -0.0164838 3.74997 0 0 0
2.68293 -1.60231 3.91415 0 0 0
2.61189 -6.19328e-05 3.80209 0 0 0
2.7345 -1.44103 3.98668 0 0 0
2.57415 0.294271 3.73451 0 0 0
2.81227 -1.84371 4.0723 0 0 0
2.69308 -1.53682 3.88783 0 0 0
2.57365 0.458589 3.71613 0 0 0
2.58231 0.281214 3.72692 0 0 0
2.62298 0.465373 3.76225 0 0 0
2.59199 0.324319 3.72237 0 0 0
2.85817 -1.83636 4.10098 0 0 0
2.79208 -1.43349 3.998 0 0 0
2.76578 -1.55039 3.9418 0 0 0
2.75179 -1.52851 3.88752 0 0 0
2.67638 0.0565339 3.77958 0 0 0
2.67638 0.0565339 3.77958 0 0 0
2.73297 -0.0910768 3.85348 0 0 0
2.75633 -1.58763 3.87229 0 0 0
2.75633 -1.58763 3.87229 0 0 0
2.77829 -1.5632 3.89193 0 0 0
2.87563 -1.15035 4.01891 0 0 0
2.38802 -1.39714 3.3346 0 0 0
2.85205 -1.11123 3.98086 0 0 0
2.7894 -1.6238 3.88212 0 0 0
2.78006 -1.60112 3.8431 0 0 0
2.7673 0.445262 3.76493 0 0 0
2.89273 0.0552266 3.92234 0 0 0
2.93527 0.0473039 3.86395 0 0 0
3.32954 -0.358384 4.30925 0 0 0
3.01056 0.273689 3.85616 0 0 0
3.00819 0.431855 3.83782 0 0 0
3.41491 -0.519363 4.34285 0 0 0
3.47958 -0.499718 4.35493 0 0 0
3.4624 -0.807184 4.33837 0 0 0
3.4836 -0.183139 4.35386 0 0 0
3.4836 -0.183139 4.35386 0 0 0
3.48848 -0.399078 4.35401 0 0 0
3.48848 -0.399078 4.35401 0 0 0
3.51702 -0.73509 4.38342 0 0 0
3.46104 -0.721088 4.31801 0 0 0
3.51264 -0.65425 4.3543 0 0 0
3.4669 -0.620965 4.29895 0 0 0
3.51788 -0.373314 4.35326 0 0 0
3.48313 -0.429142 4.31243 0 0 0
3.49082 -0.302685 4.31476 0 0 0
3.50096 -0.39356 4.32556 0 0 0
3.51541 -0.460771 4.32006 0 0 0
3.53111 -0.546313 4.33456 0 0 0
3.51347 -0.433126 4.30924 0 0 0
3.51723 -0.474219 4.29017 0 0 0
3.51635 -0.548777 4.28806 0 0 0
3.52119 -0.436098 4.27824 0 0 0
3.52987 -0.393234 4.28892 0 0 0
3.61087 -0.741984 4.38015 0 0 0
3.56336 0.0264148 4.32037 0 0 0
3.55644 -0.367421 4.31158 0 0 0
3.53758 0.185001 4.28914 0 0 0
3.5426 -0.529066 4.29466 0 0 0
3.57892 -0.41737 4.33382 0 0 0
3.53812 -0.280171 4.28481 0 0 0
3.54026 0.204436 4.28507 0 0 0
3.57169 0.17585 4.31793 0 0 0
3.55218 -0.150615 4.29315 0 0 0
3.54508 -0.439903 4.28475 0 0 0
3.54064 -0.106534 4.27834 0 0 0
3.55564 -0.199713 4.29358 0 0 0
3.54351 -0.0878423 4.27521 0 0 0
3.55942 -0.383953 4.29404 0 0 0
3.55258 0.106426 4.28464 0 0 0
3.56067 -0.210077 4.29282 0 0 0
3.58953 -0.364974 4.3158 0 0 0
3.57742 -0.430588 4.30088 0 0 0
3.57742 -0.430588 4.30088 0 0 0
3.58926 -0.557872 4.31113 0 0 0
3.56411 -0.55198 4.28416 0 0 0
3.52442 0.411334 4.22723 0 0 0
3.56695 -0.418206 4.27789 0 0 0
3.56695 -0.418206 4.27789 0 0 0
3.57837 0.174251 4.28561 0 0 0
3.57906 -0.512155 4.28556 0 0 0
3.57823 -0.514001 4.28437 0 0 0
3.59042 -0.3636 4.29822 0 0 0
3.57019 0.150803 4.26628 0 0 0
3.54481 0.205872 4.23545 0 0 0
3.53361 0.215828 4.21728 0 0 0
3.54115 0.239215 4.226 0 0 0
3.11229 0.201552 3.70857 0 0 0
3.52625 0.230032 4.20149 0 0 0
3.57288 0.132307 4.25705 0 0 0
3.61781 -0.19997 4.30983 0 0 0
3.61043 -0.36344 4.3027 0 0 0
3.534 0.401212 4.19937 0 0 0
3.63133 -0.363277 4.30591 0 0 0
3.52232 0.375672 4.17324 0 0 0
3.56758 0.199689 4.22315 0 0 0
3.71002 -0.662088 4.3927 0 0 0
3.54254 0.395228 4.17887 0 0 0
3.65631 -0.407724 4.30509 0 0 0
3.6625 -0.572831 4.30904 0 0 0
3.70129 -0.0192739 4.33644 0 0 0
3.67979 -0.413025 4.30724 0 0 0
3.68212 0.101518 4.30432 0 0 0
3.69882 -0.553705 4.31893 0 0 0
3.74762 -0.61817 4.37016 0 0 0
3.71335 -0.18866 4.31667 0 0 0
3.75233 -0.578524 4.35137 0 0 0
3.74818 -0.0902555 4.33817 0 0 0
3.72469 -0.0589623 4.31321 0 0 0
3.72692 0.0991943 4.31048 0 0 0
3.73217 0.0395224 4.306 0 0 0
3.73867 0.391412 4.23086 0 0 0
3.81446 0.236203 4.26279 0 0 0
4.23416 0.199859 4.58238 0 0 0
4.24252 0.200555 4.57227 0 0 0
4.24064 0.371694 4.54457 0 0 0
5.29037 -2.52944 5.66801 0 0 0
4.23475 0.33815 4.53682 0 0 0
4.23475 0.33815 4.53682 0 0 0
5.31637 -2.47337 5.6721 0 0 0
5.32684 -2.51499 5.6771 0 0 0
5.30905 -2.51536 5.64608 0 0 0
5.3715 -2.23422 5.67239 0 0 0
5.32561 -2.50756 5.61789 0 0 0
5.28124 -2.52833 5.54465 0 0 0
5.28124 -2.52833 5.54465 0 0 0
5.39044 -2.48163 5.64136 0 0 0
5.32288 -2.11601 5.48613 0 0 0
5.32288 -2.11601 5.48613 0 0 0
5.3319 -1.96796 5.46329 0 0 0
5.32644 -1.84908 5.45427 0 0 0
5.33342 -2.11932 5.45625 0 0 0
5.32851 -1.91266 5.44053 0 0 0
5.32851 -1.91266 5.44053 0 0 0
5.39593 -2.01281 5.48461 0 0 0
5.36929 -2.06596 5.42838 0 0 0
4.79508 0.203916 4.81164 0 0 0
5.38243 -1.53079 5.38308 0 0 0
5.37854 -1.52823 5.36881 0 0 0
-0.561188 0.636123 3.06165 100 93 83
-0.699233 0.82771 4.21792 188 179 172
-0.503965 -0.621214 3.37013 220 226 238
-0.493627 -0.44285 3.36184 88 86 74
-0.437421 0.476904 3.09566 130 130 128
-0.437421 0.476904 3.09566 130 130 128
-0.472479 -0.384011 3.37216 108 112 115
-0.425678 0.415472 3.12487 200 195 192
-0.419418 0.639235 3.08336 118 119 113
-0.416534 0.631359 3.08224 110 111 105
-0.415555 0.417585 3.12796 205 204 199
-0.431636 -0.208606 3.33865 125 122 115
-0.431938 -0.689232 3.35895 220 226 238
-0.547111 -0.813233 4.28342 222 226 238
-0.42513 -0.202287 3.33827 122 122 112
-0.414478 -0.0134833 3.30748 212 212 210
-0.39865 0.268572 3.25135 245 246 241
-0.392944 -0.460771 3.33465 118 120 119
-0.384094 0.177134 3.27006 220 216 213
-0.390052 -0.346454 3.34334 87 87 85
-0.373454 0.183628 3.2697 216 213 208
-0.373454 0.183628 3.2697 216 213 208
-0.567871 -0.566512 5.11581 24 24 22
-0.356369 0.135916 3.28018 225 216 211
-0.551922 -0.598738 5.33733 30 32 29
-0.344575 -0.213799 3.34694 157 152 148
-0.344146 -0.520641 3.3493 112 112 112
-0.34147 -0.424107 3.32705 44 45 39
-0.327089 -0.275274 3.35348 120 124 127
-0.320512 -0.628782 3.34983 218 224 236
-0.292291 0.62951 3.09831 145 143 146
-0.312581 -0.457667 3.34631 122 126 127
-0.327325 -0.825117 3.51391 215 221 233
-0.304263 -0.274294 3.35489 127 133 133
-0.287163 -0.310754 3.36254 12 17 11
-0.262406 0.438738 3.11911 213 214 209
-0.282342 -0.275649 3.35833 131 133 132
-0.273424 -0.353008 3.35467 25 27 24
-0.26337 0.353458 3.24597 108 105 96
-0.240662 0.426462 3.14682 128 119 112
-0.229425 -0.286428 3.33975 130 131 135
-0.236236 -0.396519 3.36638 44 46 45
-5.20075e+08 -2.05628e+08 1.88311e+09 33 34 29
-0.217004 -0.128041 3.33272 15 18 11
-0.204996 0.426132 3.15033 178 173 170
-0.214514 -0.247523 3.36642 176 176 176
-0.201909 -0.0660182 3.28873 157 159 158
-0.205368 -0.0651785 3.31948 160 162 161
-0.186946 0.348775 3.26176 210 209 205
-0.188386 0.00901167 3.31197 221 221 219
-0.177556 0.48142 3.13043 215 214 209
-0.286536 0.705792 5.11038 223 224 219
-0.176824 -0.191294 3.39874 221 221 219
-0.162415 0.360166 3.24867 214 213 208
-0.0403208 -0.563727 3.51694 206 207 202
-0.0101031 -0.760906 4.82681 207 208 203
-0.00657829 -0.587544 3.51444 205 204 199
-0.000346733 -0.529084 6.74434 142 146 147
0.0740797 -0.559586 3.52358 202 198 189
0.0917515 -0.589591 3.51674 197 190 180
0.095494 -0.557647 3.53175 201 201 193
0.145803 -0.758952 4.52372 119 119 111
0.132062 -0.588215 3.51733 155 157 156
0.163394 -0.547783 3.53368 118 112 100
0.173304 -0.606573 3.50301 212 211 207
0.321082 -0.705113 4.51852 210 207 200
0.280182 -0.602175 3.51437 210 207 200
0.300797 -0.544833 3.54904 209 209 199
0.382661 -0.715804 4.37706 207 204 197
0.309316 -0.579668 3.54126 207 204 197
0.435179 -0.234506 3.53795 194 194 194
0.44395 -0.229331 3.53836 200 200 198
0.447067 -0.195763 3.5165 218 218 216
0.462645 -0.536122 3.57649 152 151 149
0.650726 -0.342332 4.88512 178 178 178
0.470612 -0.248037 3.54015 178 178 178
0.481999 -0.178446 3.53139 226 226 224
0.502546 -0.395454 3.5713 27 29 24
0.580672 -0.478985 3.95009 40 42 37
0.53516 -0.737147 3.59896 210 209 205
0.532377 -0.594809 3.54857 211 210 206
0.657863 -0.335178 4.35647 147 147 147
0.54167 -0.686364 3.58273 213 212 208
0.541083 -0.595024 3.55044 213 209 206
0.548049 -0.607778 3.55041 208 207 203
0.62083 -0.590237 3.52975 212 211 207
1.11709 -1.57739 3.5755 30 23 15
1.26662 -1.55955 3.80825 27 27 19
1.36093 -1.51726 3.88648 26 25 21
1.35546 -1.50963 3.86291 26 25 21
1.36128 -1.373 3.87007 63 62 57
1.32686 -1.59934 3.77119 231 223 220
1.36866 -1.51956 3.88483 20 24 23
1.32013 -1.63548 3.71414 35 31 30
1.394 -1.46678 3.89687 145 140 134
1.39056 -1.44515 3.88659 66 58 55
1.39125 -1.48224 3.88631 87 82 78
1.4113 -1.4919 3.89667 56 59 52
1.34954 -1.65252 3.71938 109 115 115
1.34954 -1.65252 3.71938 109 115 115
1.41277 -1.40292 3.88789 81 78 71
1.4472 -1.42464 3.90114 56 63 56
1.4827 -1.49058 3.91404 27 29 26
1.44414 -1.62702 3.805 90 91 83
1.48663 -1.39332 3.90298 68 68 58
1.48846 -1.42628 3.90726 74 74 64
1.50455 -1.46929 3.91294 87 82 76
1.50556 -1.48666 3.89697 87 84 77
1.46919 -1.62923 3.80579 93 90 83
1.51359 -1.39658 3.91285 62 65 58
1.52786 -1.46253 3.92088 56 56 54
1.17133 -1.04154 3.00571 68 69 63
1.54161 -1.3981 3.91754 58 51 45
1.54401 -1.42799 3.92212 73 70 65
1.54974 -1.4922 3.92904 72 68 57
1.54929 -1.43688 3.90802 73 72 68
1.56574 -1.39557 3.92327 71 72 66
1.56676 -1.41181 3.92546 70 73 64
1.54477 -1.13901 3.86956 203 202 197
1.57354 -1.4748 3.93308 64 65 57
1.54229 -1.64744 3.8266 99 97 85
1.58545 -1.46142 3.93132 91 86 80
1.61002 -1.63422 3.84318 120 113 103
1.61002 -1.63422 3.84318 120 113 103
1.61688 -1.64629 3.84452 122 115 107
1.61369 -1.67564 3.81019 118 111 101
1.6377 -1.6117 3.85245 120 111 102
1.70747 -1.48302 3.96393 19 19 11
1.6716 -1.61442 3.86521 120 116 107
1.69808 -1.612 3.87377 114 110 99
1.75032 -1.2524 3.98378 169 162 152
1.70348 -1.65288 3.85721 115 111 102
1.25572 -0.893117 2.80691 165 158 148
1.75128 -1.61228 3.87565 103 98 94
1.76477 -1.60294 3.88465 81 82 76
1.81643 -1.40353 3.98579 160 153 143
1.80821 -1.19046 3.96289 145 137 126
1.80821 -1.19046 3.96289 145 137 126
1.82247 -1.40755 3.98492 159 150 141
1.84156 -1.37345 3.98613 154 149 143
1.81373 -1.27366 3.92316 146 141 135
1.85185 -1.42932 3.99385 148 148 140
1.85185 -1.42932 3.99385 148 148 140
1.83945 -1.23687 3.94131 104 94 84
1.84609 -1.60102 3.91049 47 39 36
1.83785 -1.66074 3.87221 75 77 72
1.83785 -1.66074 3.87221 75 77 72
1.88451 -1.15528 3.96444 140 143 136
1.90406 -1.43933 3.99576 126 122 113
1.90763 -1.4441 4.00551 126 122 113
1.88733 -1.19366 3.96062 114 115 107
1.90728 -1.42129 3.996 103 104 98
1.87167 -1.60124 3.90547 28 30 25
1.91582 -1.33342 3.99729 114 115 109
1.92799 -1.39703 4.00984 119 116 109
1.92799 -1.39703 4.00984 119 116 109
1.93281 -1.16728 3.9784 122 121 116
1.93281 -1.16728 3.9784 122 121 116
1.89956 -1.661 3.89732 64 65 60
1.89956 -1.661 3.89732 64 65 60
1.9298 -1.59457 3.93176 120 119 114
1.91878 -1.65189 3.8875 58 60 57
1.91878 -1.65189 3.8875 58 60 57
1.96302 -1.60745 3.93432 148 149 141
1.96302 -1.60745 3.93432 148 149 141
2.0223 -1.46996 4.0347 107 108 102
2.0223 -1.46996 4.0347 107 108 102
2.01692 -1.41986 4.02003 113 115 110
2.00459 -1.58593 3.94236 102 103 95
2.00553 -1.6005 3.93681 87 88 80
2.07031 -1.22322 4.02758 118 117 112
2.05518 -1.58471 3.96227 96 97 91
2.05362 -1.64741 3.93727 45 49 48
2.1324 -1.34095 4.05602 102 103 97
2.14896 -1.40616 4.05411 124 121 112
2.15307 -1.4121 4.06373 124 121 112
2.15541 -1.44385 4.06538 113 114 108
2.1617 -1.44398 4.06948 121 122 116
2.18481 -1.35168 4.06606 110 107 100
2.19149 -1.45478 4.07437 105 108 101
2.19193 -1.36587 4.07116 113 115 110
2.1928 -1.34633 4.07093 132 129 122
2.19636 -1.41438 4.06752 129 130 124
2.2926 -1.17337 4.1154 115 105 95
2.29344 -1.40526 4.09774 119 109 99
2.35391 -0.0448743 4.20611 133 109 85
2.29167 -1.12335 4.07809 128 122 110
2.3011 -1.39254 4.09431 118 109 100
2.31048 -1.39693 4.10121 119 111 100
2.29024 -1.01441 4.06146 128 122 110
2.31117 -1.3475 4.09806 107 100 90
2.31117 -1.3475 4.09806 107 100 90
2.34085 -1.19361 4.10363 108 99 90
2.39479 -0.638961 4.04362 101 94 86
2.42743 -0.640819 4.06543 0 0 0
2.46234 -0.920492 4.11299 0 0 0
2.37689 -1.63481 3.93337 0 0 0
2.50912 -0.547161 4.09919 0 0 0
2.50443 -1.23107 4.09173 0 0 0
2.50943 -0.414956 4.08379 0 0 0
2.58173 -1.46764 3.94466 0 0 0
2.58324 -1.44922 3.94295 0 0 0
2.60837 -1.42781 3.95109 0 0 0
2.60987 -1.45339 3.95209 0 0 0
2.71266 -1.17022 3.98744 0 0 0
2.70012 -1.62677 3.91071 0 0 0
2.6748 -1.60478 3.86339 0 0 0
2.69426 -1.58628 3.88543 0 0 0
2.82674 -1.52445 4.03008 0 0 0
2.80442 -1.43523 3.99716 0 0 0
2.72081 -1.59908 3.87173 0 0 0
2.72081 -1.59908 3.87173 0 0 0
2.85407 -1.41451 4.00515 0 0 0
2.83147 -1.54912 3.96741 0 0 0
2.79975 -1.53984 3.91634 0 0 0
2.88096 -1.42751 4.01337 0 0 0
2.8711 -1.54437 3.97588 0 0 0
2.96398 -0.526816 4.02616 0 0 0
3.16718 -0.530833 4.25342 0 0 0
3.16601 -0.541483 4.24485 0 0 0
3.18701 -0.317244 4.25197 0 0 0
2.8873 -0.481097 3.842 0 0 0
3.3333 -0.323558 4.39238 0 0 0
3.22631 -0.593943 4.24438 0 0 0
3.29858 -0.548194 4.28102 0 0 0
3.39653 -0.276041 4.39604 0 0 0
3.30418 -0.559497 4.26792 0 0 0
3.4109 -0.245097 4.3984 0 0 0
3.33295 -0.532929 4.28657 0 0 0
3.33637 -0.348424 4.28064 0 0 0
3.42924 -0.170363 4.39576 0 0 0
3.43943 -0.0594165 4.38492 0 0 0
3.4506 0.177385 4.37743 0 0 0
3.40329 -0.528513 4.30661 0 0 0
3.39939 -0.537789 4.29837 0 0 0
2.83517 -0.385177 3.56457 0 0 0
3.41681 -0.463154 4.29179 0 0 0
2.83739 -0.497165 3.55677 0 0 0
3.42186 -0.598764 4.28946 0 0 0
3.44475 -0.735325 4.31439 0 0 0
3.43644 -0.547594 4.30068 0 0 0
3.44802 -0.496908 4.30833 0 0 0
3.43697 -0.325879 4.28824 0 0 0
3.45126 -0.418264 4.3037 0 0 0
3.46034 0.0456113 4.28033 0 0 0
3.48285 -0.279821 4.30598 0 0 0
3.45504 0.260624 4.25741 0 0 0
3.49332 -0.0793964 4.29501 0 0 0
3.50626 -0.280448 4.31061 0 0 0
3.51389 -0.320409 4.30873 0 0 0
3.51555 -0.30511 4.2994 0 0 0
3.52335 -0.208973 4.30385 0 0 0
3.50966 -0.510923 4.28212 0 0 0
3.51435 0.182935 4.28484 0 0 0
3.51207 0.231773 4.27903 0 0 0
3.48868 -0.591049 4.25023 0 0 0
3.52441 0.206568 4.28588 0 0 0
3.52685 -0.504147 4.28501 0 0 0
3.52686 -0.511766 4.28495 0 0 0
3.52914 0.214387 4.28367 0 0 0
3.52461 -0.326233 4.27627 0 0 0
3.5525 -0.729862 4.30935 0 0 0
3.52358 -0.575239 4.273 0 0 0
3.52923 -0.425978 4.27798 0 0 0
3.53679 -0.547878 4.28765 0 0 0
3.53147 -0.207592 4.27745 0 0 0
3.54266 0.187505 4.28367 0 0 0
3.54619 0.0463188 4.28593 0 0 0
3.54241 -0.458929 4.28098 0 0 0
3.55057 -0.405581 4.29046 0 0 0
3.53704 -0.127658 4.27381 0 0 0
3.54651 -0.432505 4.27572 0 0 0
3.55237 0.16028 4.2778 0 0 0
3.55823 -0.112604 4.27375 0 0 0
3.57411 -0.200557 4.28426 0 0 0
3.57918 -0.314083 4.28575 0 0 0
3.55236 0.192123 4.25148 0 0 0
3.56929 -0.456024 4.27153 0 0 0
3.57675 -0.0333331 4.27487 0 0 0
3.5931 -0.465891 4.27786 0 0 0
3.59431 -0.492576 4.27637 0 0 0
3.59431 -0.492576 4.27637 0 0 0
3.59301 0.171848 4.26948 0 0 0
3.60383 -0.455778 4.28035 0 0 0
3.59473 -0.0848664 4.26928 0 0 0
3.61192 -0.493009 4.2817 0 0 0
3.5409 0.316963 4.19687 0 0 0
3.54483 0.38501 4.19218 0 0 0
3.67283 -0.680737 4.33224 0 0 0
3.66507 -0.648096 4.32074 0 0 0
3.65069 -0.315798 4.29516 0 0 0
3.65719 -0.380088 4.30175 0 0 0
3.65027 -0.15478 4.29049 0 0 0
3.67566 -0.544274 4.30436 0 0 0
3.69339 -0.330107 4.31698 0 0 0
3.69952 -0.278203 4.31837 0 0 0
3.61802 0.241823 4.22074 0 0 0
3.61802 0.241823 4.22074 0 0 0
3.22351 -0.276953 3.75779 0 0 0
3.7028 -0.323829 4.31687 0 0 0
3.69752 -0.561999 4.30605 0 0 0
3.7073 -0.434226 4.31359 0 0 0
3.71244 -0.167717 4.31632 0 0 0
3.70821 -0.206129 4.30966 0 0 0
3.70579 -0.582399 4.29197 0 0 0
3.70579 -0.582399 4.29197 0 0 0
3.72086 0.0489214 4.30841 0 0 0
3.71896 -0.0594884 4.30422 0 0 0
3.74007 -0.0289314 4.2906 0 0 0
3.69803 0.237275 4.24081 0 0 0
3.78903 0.271369 4.24902 0 0 0
-0.503671 0.601549 3.06025 128 128 126
-0.489842 0.439758 3.10109 42 37 34
-0.442087 0.48586 3.08468 215 214 209
-0.434358 0.593379 3.07759 151 151 151
-0.398339 -0.0124833 3.26416 200 199 195
-0.479247 -0.527341 2.75008 213 220 228
-0.399563 -0.620381 3.27286 220 227 235
-0.351773 -0.365698 3.29252 179 180 175
-0.343104 -0.526305 3.29607 220 227 235
-0.178393 0.437744 3.14493 45 47 42
-0.145078 -0.624589 3.31954 217 214 209
0.00187379 -0.54926 3.48115 205 201 192
0.00560866 -0.270051 3.45292 21 23 18
0.136937 -0.570669 3.40806 212 209 200
0.186588 -0.602968 3.47855 145 135 126
0.254131 -0.550859 3.52611 217 214 207
0.489115 -0.411574 3.56008 209 206 199
0.523184 -0.431038 3.56821 210 209 204
0.73268 0.234411 3.15296 10 15 9
0.750702 -0.0109995 3.17575 164 164 156
0.785814 0.048061 3.17994 189 186 179
0.971277 -1.67154 3.41851 71 54 46
1.48722 -1.49946 3.89449 113 106 96
1.53328 -1.36473 3.93711 23 24 19
1.22308 -1.7056 3.49552 109 105 94
1.19281 -1.68127 3.39313 112 108 96
1.46973 -1.68354 3.76788 72 62 53
1.67382 -1.62913 3.85777 81 80 75
1.08242 -0.942924 2.93211 148 142 128
1.7778 -1.26739 3.98026 169 163 149
1.81457 -1.22707 3.96305 138 134 125
2.38338 -1.55917 3.98648 105 101 90
2.35299 -1.62052 3.95058 113 109 100
2.52061 -1.50971 3.87697 110 106 94
3.43126 -0.600009 4.30758 0 0 0
3.54024 -0.0779915 4.32557 0 0 0
3.55992 -0.579326 4.28414 0 0 0
-0.0470675 0.206445 3.53125 220 221 216
0.806925 0.0502649 3.29528 227 227 225
0.825888 0.0509118 3.30112 226 227 222
0.866599 0.0496734 3.31393 227 228 223
0.937551 0.126662 3.33608 220 221 216
0.937551 0.126662 3.33608 220 221 216
0.967624 0.0768379 3.3439 233 232 227
1.02207 0.125264 3.36318 152 149 144
1.05666 0.0370427 3.37464 162 163 157
1.11737 0.113977 3.39208 161 162 154
1.18561 -1.17997 3.11058 61 61 53
1.49419 -1.47721 3.8982 63 64 56
1.4973 -1.44825 3.89615 101 101 91
1.50434 -1.64636 3.81826 102 93 84
1.56788 -1.62276 3.83969 107 103 94
1.33686 -1.42699 3.23035 106 101 95
1.65643 -1.65661 3.85899 122 118 107
1.70438 -1.48812 3.94943 18 19 13
1.74093 -1.62746 3.88012 113 109 98
1.76543 -1.65355 3.87951 86 85 80
1.78932 -1.62323 3.89235 82 81 77
1.47897 -1.2959 3.15924 44 46 43
2.03862 -1.46225 4.03035 107 106 102
2.01221 -1.64988 3.92545 48 53 49
1.72785 -1.26185 3.19118 91 91 83
2.24229 -1.48129 4.07601 102 95 85
1.72629 -1.02984 3.06408 118 110 99
2.87886 -0.0270537 3.92622 0 0 0
3.29615 -0.549436 4.38613 0 0 0
2.79316 -0.449073 3.52833 0 0 0
3.53694 -0.722308 4.3195 0 0 0
1.31016 -1.25356 12.4555 209 206 199
-0.316997 -0.316296 2.92593 208 205 196
0.10469 -0.546994 3.45337 184 182 183
0.121222 -0.550452 3.45953 186 184 185
1.52639 -1.57986 4.20277 87 80 72
1.4905 -1.47407 3.89073 87 80 72
1.53959 -1.69205 3.80634 17 19 16
1.5612 -1.4378 3.90669 66 69 60
1.57642 -1.68919 3.81563 86 92 82
1.61631 -1.35132 3.92546 205 206 200
1.65509 -1.61763 3.86201 72 73 65
1.65558 -1.64799 3.86114 64 59 55
1.70866 -1.43052 3.94222 115 102 94
1.70866 -1.43052 3.94222 115 102 94
1.75218 -1.67444 3.86072 25 28 21
1.75218 -1.67444 3.86072 25 28 21
1.82337 -1.33441 3.97875 211 210 206
1.82676 -1.60342 3.90714 162 158 146
1.87964 -1.18988 3.95441 21 22 17
1.8865 -1.35889 3.98542 188 182 170
1.86668 -1.66606 3.89225 136 132 123
1.95154 -1.65897 3.91527 114 111 104
1.95154 -1.65897 3.91527 114 111 104
1.96312 -1.59101 3.94268 125 126 120
1.99281 -1.58856 3.95105 111 112 106
2.01757 -1.58706 3.95718 108 109 103
2.05167 -1.6021 3.96288 116 117 111
2.11844 -1.40554 4.0456 135 130 124
2.10028 -1.58127 3.97726 110 111 105
2.14812 -1.36523 4.04975 115 103 91
2.1517 -1.41275 4.05316 141 142 136
2.15789 -1.5757 3.99167 125 121 110
2.30632 -1.36857 4.08908 132 124 113
2.52217 -1.65364 3.87416 0 0 0
2.67237 -1.57987 3.93206 0 0 0
2.74092 -1.58452 3.95169 0 0 0
2.77963 -1.57953 3.95964 0 0 0
2.83529 -1.4679 4.04059 0 0 0
2.84303 -1.57314 3.9775 0 0 0
2.84609 -1.61816 3.95971 0 0 0
2.84609 -1.61816 3.95971 0 0 0
2.87729 -1.61478 3.96756 0 0 0
3.12227 -0.548756 4.23347 0 0 0
3.1593 -0.538344 4.24653 0 0 0
3.1593 -0.538344 4.24653 0 0 0
3.1672 -0.580481 4.23077 0 0 0
3.26104 -0.583686 4.24769 0 0 0
3.40363 -0.548368 4.29715 0 0 0
3.45552 -0.496815 4.30701 0 0 0
3.59631 -0.49001 4.2878 0 0 0
3.64537 -0.386641 4.30154 0 0 0
3.6567 -0.398187 4.30231 0 0 0
-17.1754 -10.9721 6.11678 130 146 146
-16.9937 -11.1511 6.19646 164 177 186
-17.357 -11.283 6.40237 37 38 30
-16.5613 -11.2975 6.21518 164 174 184
-16.6779 -11.2957 6.24792 163 173 183
-16.2771 -11.2285 6.18204 166 174 185
-16.6456 -11.29 6.29244 165 173 184
-16.6278 -11.2802 6.28963 165 173 184
-16.3068 -11.4869 6.36738 163 171 182
-15.8823 -11.3636 6.29244 162 172 182
-15.8497 -11.3889 6.30934 161 171 181
-17.1821 -11.3354 6.84876 21 26 19
