ply
format ascii 1.0 
element vertex 978
property float32 x 
property float32 y 
property float32 z
property uchar red  
property uchar green
property uchar blue
element face 0
property list uchar int vertex_indices
end_header
-0.953264 1.86044 1.87882 200 200 190
-0.941335 1.85262 1.89163 105 100 94
-0.950827 1.69773 1.92359 197 198 192
-0.956797 1.69319 1.96664 87 88 74
-0.928988 1.7622 1.9317 180 177 170
-0.93793 1.69871 1.95272 110 106 95
-0.90167 1.80747 1.89411 188 179 172
-0.92616 1.68521 2.01126 140 142 139
-1.04398 0.910078 2.38102 108 109 104
-0.858433 1.8318 1.94116 129 128 126
-1.03393 0.738935 2.37627 223 227 239
-0.851968 1.77962 1.96125 114 114 104
-0.833713 1.88399 1.93241 99 98 94
-0.891237 1.68275 2.07744 213 209 206
-0.824854 1.87987 1.9377 110 111 105
-1.00705 0.789036 2.39784 108 113 109
-1.01136 0.915226 2.48858 120 122 121
-0.996986 0.60329 2.38548 220 226 238
-0.943202 1.20166 2.26069 119 121 107
-0.943202 1.20166 2.26069 119 121 107
-0.994833 0.749778 2.39841 218 228 238
-0.965435 0.94177 2.32819 17 20 13
-0.857338 1.68786 2.0914 216 216 216
-0.86725 1.61679 2.13273 245 246 241
-0.808396 1.70336 1.97521 50 46 43
-0.808396 1.70336 1.97521 50 46 43
-0.782814 1.86299 1.91649 130 129 125
-2.72264 10.1233 23.954 58 60 55
-0.791582 1.78123 1.99096 210 210 208
-0.929267 0.9905 2.37305 33 33 31
-3.14777 10.1823 25.8179 47 49 44
-0.796739 1.73399 2.02497 30 30 28
-2.71061 9.86329 24.6625 32 32 30
-0.783942 1.70767 1.98377 30 35 28
-0.910556 0.932947 2.33725 43 43 41
-0.868611 1.31746 2.27494 107 103 92
-0.897495 1.16468 2.36487 187 190 183
-0.828823 1.56532 2.17494 214 214 206
-0.908809 0.796606 2.38271 109 113 112
-0.812948 1.71025 2.1352 216 215 211
-0.993331 0.760154 2.62693 219 225 237
-0.902932 0.835035 2.43237 112 112 112
-0.759443 1.74126 2.03898 32 39 31
-0.759443 1.74126 2.03898 32 39 31
-0.88465 0.829309 2.3818 145 147 146
-2.39707 8.74841 25.089 145 147 146
-0.87031 1.00209 2.3528 29 29 27
-0.8868 1.06245 2.50335 29 29 27
-2.71019 9.83903 26.3741 132 136 137
-0.87572 0.867986 2.3726 132 136 137
-0.884002 0.858559 2.42381 141 143 142
-0.737935 1.74656 2.04937 48 50 47
-0.643878 0.750707 1.78947 11 12 7
-0.800183 0.974645 2.2451 9 11 6
-1.44206 9.17346 21.8174 9 11 6
-0.849539 0.847867 2.39276 144 145 147
-0.770031 1.57864 2.1978 225 229 214
-2.55396e+06 2.77225e+06 7.86902e+06 148 150 149
-0.69067 1.91151 1.98665 152 153 155
-0.704669 1.72045 2.00422 213 214 209
-1.73005e+06 2.0962e+06 5.17406e+06 25 25 25
-0.83775 0.697992 2.43495 219 225 237
-0.802884 1.17145 2.3368 210 210 208
-1.55399e+09 1.88805e+09 4.49248e+09 29 29 27
-1.9699 9.97311 23.8993 25 27 24
-0.728192 1.72271 2.14791 211 206 202
-0.671752 1.8843 2.00724 164 165 167
-0.797119 0.950542 2.41324 44 46 43
-0.7513 1.40286 2.26887 220 220 218
-0.653895 1.9069 2.00631 178 180 179
-0.779865 1.0029 2.39394 34 34 34
-0.775132 1.02755 2.38703 22 25 18
-0.66463 1.73271 2.01715 113 111 99
-0.65883 1.96092 2.30661 131 131 123
-0.76715 0.964587 2.39435 44 44 42
-0.752152 1.12235 2.37941 130 134 133
-0.83801 0.784464 2.67849 216 224 235
2.35081 -4.34818 -7.50021 157 159 158
-2.80406 10.494 30.4359 104 106 105
-0.722472 1.34046 2.31578 160 162 161
-0.635046 1.76165 2.06968 213 214 209
-0.760406 0.754216 2.50913 217 223 235
-0.609778 1.7381 2.03567 124 124 122
-0.630109 1.73124 2.12637 204 205 199
-0.631858 1.75241 2.15079 204 205 199
-0.649118 1.7946 2.35193 219 218 214
-0.646546 1.83499 2.33327 162 162 154
-0.659949 1.54897 2.25668 219 220 215
-0.646648 1.65749 2.21781 220 221 216
-0.646715 1.64961 2.2228 224 225 220
-0.686044 1.18466 2.38396 199 199 199
-0.710156 0.948956 2.4698 98 106 109
-0.710156 0.948956 2.4698 98 106 109
-0.720321 0.821635 2.51719 163 163 163
-0.59019 1.80865 2.06932 213 208 204
-0.590226 1.74776 2.06517 211 212 206
-0.556077 1.77723 2.09308 210 211 205
-0.63426 1.06791 2.61513 48 47 43
-0.573799 1.67151 2.35689 205 204 202
-0.572012 1.67048 2.35772 208 207 205
-0.620676 0.902142 2.70138 206 207 202
-0.606596 0.916148 2.70126 204 205 200
-0.454047 0.919158 2.70571 206 203 196
-0.443285 0.899812 2.75241 131 123 112
-0.4406 0.925372 2.70572 209 208 204
-0.295829 0.967363 2.83535 210 207 200
-0.240374 0.937886 2.79874 211 211 203
-0.22611 1.21705 2.68412 20 22 17
-0.207919 0.941668 2.8048 208 209 203
-0.182776 0.97303 2.82982 200 197 190
-0.182776 0.97303 2.82982 200 197 190
-0.183421 0.928049 2.81381 209 208 203
-0.175967 0.8885 2.80161 205 202 195
-0.176837 1.03255 2.96102 204 201 196
-0.131116 1.17967 2.79845 28 30 27
-0.0480428 0.760957 3.0156 208 209 204
-0.0430283 1.32763 2.72439 165 165 165
-0.0375578 0.976062 2.87657 209 208 204
-0.0320413 1.75893 2.55077 221 222 224
-0.0302442 1.9206 2.49682 27 27 19
-0.0290312 0.684677 2.9886 207 204 197
-0.0245179 1.16445 2.80592 58 60 59
-0.0314139 -0.418847 3.76084 13 16 7
-0.0187709 1.34967 2.72898 185 185 185
0.000115556 0.920308 2.86557 211 210 205
0.00729054 1.1608 2.81822 40 42 39
0.0119574 1.0194 2.88428 199 201 198
0.0137542 0.913625 2.8713 212 211 206
0.0225254 1.17875 2.8387 34 34 34
0.0228409 1.15446 2.82805 40 42 39
0.0280995 1.00849 2.89809 207 208 203
0.031645 1.05146 2.88527 149 151 148
0.0337431 0.986123 2.89882 211 210 206
0.0352936 1.21034 2.79544 22 24 19
0.043776 1.31779 2.75174 147 147 147
0.0571996 1.01484 2.9098 207 208 203
0.0570151 0.808026 2.97771 212 213 208
0.0692289 0.803163 2.99242 214 213 208
0.0676702 1.32922 2.77734 145 145 145
0.0676702 1.32922 2.77734 145 145 145
0.0709251 0.934654 2.89536 212 211 207
0.0634103 1.90551 2.53102 18 19 11
0.0823014 0.85193 2.95384 207 212 208
0.0897309 0.837911 2.95833 219 218 213
0.0846818 1.34075 2.77001 153 153 153
0.112782 -0.115991 3.35979 123 124 119
0.104383 -0.095697 3.3001 91 90 86
0.107234 0.91662 2.9915 202 199 194
0.0848593 1.93198 2.53891 13 18 12
0.139706 -0.13249 3.37924 20 20 18
0.299093 -0.342678 3.00766 1 13 9
0.464733 2.74319 4.66316 174 176 171
0.255177 1.50042 2.55113 174 176 171
0.306394 -0.304215 3.02703 63 78 75
0.311767 -0.315635 3.01859 152 140 140
0.249012 1.48756 2.26908 99 102 93
0.248122 1.64127 2.21172 11 16 9
0.228928 1.68285 2.13576 38 38 26
0.247604 1.78986 2.15164 37 37 25
0.252675 1.76901 2.16661 38 38 26
0.247163 1.91427 2.10771 13 16 7
0.246673 1.93921 2.09765 17 20 13
0.252739 1.93895 2.10204 14 17 10
0.258064 1.75379 2.12553 31 32 18
0.503274 1.73188 3.01714 178 177 172
0.323149 1.47512 2.30644 226 228 225
0.323149 1.47512 2.30644 226 228 225
0.315108 1.80312 2.18364 37 38 24
0.333778 1.89115 2.15642 50 50 38
0.31699 1.85958 2.11436 50 50 38
0.361488 1.40127 2.29688 188 190 187
0.383906 1.51031 2.32158 231 232 227
0.422755 1.76319 2.25202 19 22 13
0.422755 1.76319 2.25202 19 22 13
0.525137 1.76616 2.59898 220 221 216
0.611503 -0.0996474 3.09925 17 17 7
0.662665 -0.479625 3.31442 21 22 16
0.627608 -0.115279 3.08761 59 58 53
0.494793 1.49335 2.32918 227 228 222
0.715872 -0.396675 3.29366 58 60 49
0.524433 1.58888 2.36482 219 220 215
0.487509 2.00183 2.18326 13 16 9
1.0257 -0.0762888 3.91077 164 160 149
0.748468 -0.430885 3.32269 52 48 37
0.516684 1.50143 2.336 209 208 203
0.559265 1.60325 2.37224 220 219 214
0.559265 1.60325 2.37224 220 219 214
0.855101 -0.51166 3.42451 44 46 35
0.614668 1.6419 2.39694 192 196 199
0.655936 1.46874 2.52735 162 159 150
0.655936 1.46874 2.52735 162 159 150
0.891013 -0.430689 3.40304 50 46 37
0.602763 1.89196 2.28305 18 19 13
0.602763 1.89196 2.28305 18 19 13
0.924773 -0.491444 3.44665 62 55 45
0.912106 -0.369817 3.38864 41 35 23
0.656639 1.62968 2.4144 152 153 147
0.938024 -0.424527 3.42821 70 66 54
0.927725 -0.33758 3.38421 63 57 43
0.724284 1.73623 2.40835 128 129 131
0.735068 1.65941 2.43952 171 172 167
0.726372 1.80207 2.38079 109 117 120
0.723869 1.63667 2.39716 160 161 156
1.02221 -0.215467 3.3497 25 26 20
0.768992 1.64572 2.46267 156 157 151
1.12785 2.09511 3.21061 156 157 151
0.775787 1.63679 2.46168 42 35 29
1.27605 -0.487915 3.95628 72 49 41
1.3708 -0.567653 3.93047 126 131 135
1.39319 -0.572806 3.98013 126 131 135
1.57371 -0.521043 4.16947 88 88 80
1.60066 -0.112845 4.24433 26 23 14
1.65292 -0.122325 4.38051 26 23 14
1.59142 -0.148869 4.22271 68 66 54
1.66646 -0.0723162 4.40943 105 103 91
1.59382 -0.0570553 4.2108 105 103 91
1.61466 -0.124208 4.24878 101 101 91
1.58704 -0.0308617 4.17214 70 67 60
1.60466 0.00278644 4.18058 63 66 59
1.6339 -0.109157 4.25559 53 52 47
1.66589 -0.0684071 4.23232 77 74 67
1.72476 -0.131705 4.32367 71 73 62
1.73347 -0.158003 4.33476 67 66 61
1.71135 -0.111485 4.27588 62 65 56
1.70719 -0.0918378 4.26541 75 74 69
1.67764 -0.506444 4.19017 100 96 85
1.76455 -0.194754 4.363 66 66 56
1.70997 0.0196084 4.21367 73 69 60
1.71867 0.0220887 4.23121 73 69 60
1.7474 -0.549617 4.22473 104 100 91
1.87596 -0.534269 4.28564 120 116 107
1.86232 -0.623176 4.23529 118 111 101
1.91841 0.0820305 4.29463 25 24 20
1.96474 -0.5728 4.36006 114 110 101
2.04278 -0.208482 4.53606 56 55 50
2.02799 -0.65333 4.48964 118 109 100
2.02799 -0.65333 4.48964 118 109 100
1.99325 0.294652 4.2923 169 162 152
2.11403 0.270182 4.33283 161 157 146
2.26686 -0.494249 4.55711 82 81 77
2.00784 0.401634 4.03308 112 108 99
2.28524 -0.11621 4.59025 139 135 124
2.28524 -0.11621 4.59025 139 135 124
2.11447 0.33655 4.24587 130 127 118
2.22229 -0.437099 4.45109 79 75 72
2.03481 0.309979 4.09121 124 120 111
2.32365 -0.548687 4.58143 69 70 65
2.20901 -0.641154 4.36867 76 77 72
2.32016 -0.0782987 4.58846 149 142 134
2.31977 -0.0820768 4.58651 149 142 134
2.33047 -0.113496 4.60677 129 125 116
2.33047 -0.113496 4.60677 129 125 116
2.09164 0.287177 4.13168 104 94 84
2.31192 -0.0121066 4.55563 134 130 121
2.31637 0.00471071 4.5684 134 135 127
2.36977 -0.089297 4.59074 123 114 105
2.38478 -0.433225 4.60898 69 55 52
2.37896 -0.0485351 4.6073 141 132 123
2.23517 0.381188 4.32479 140 141 135
2.29115 -0.632781 4.41006 69 70 65
2.35166 0.0818618 4.5199 94 96 91
2.43298 -0.178557 4.66253 99 99 91
2.37678 0.0596576 4.55089 112 113 108
2.40852 -0.00369681 4.60419 95 98 91
2.40852 -0.00369681 4.60419 95 98 91
2.36866 -0.420077 4.51929 100 87 81
2.39089 -0.412784 4.53015 148 141 131
2.42357 -0.57713 4.58316 70 71 66
2.42953 -0.578396 4.58213 70 71 66
2.44716 -0.40709 4.5534 125 126 118
2.34634 -0.0711431 4.3633 112 112 104
2.35611 0.314143 4.35941 108 111 104
2.32145 0.392354 4.29583 126 125 120
2.35722 0.271679 4.34749 113 115 110
2.34811 0.253845 4.32217 99 101 96
2.48611 -0.402308 4.56246 103 102 97
2.4018 0.249762 4.36389 122 123 117
2.56354 -0.394937 4.60809 108 107 102
2.53243 0.376277 4.49153 99 98 93
2.55713 0.378459 4.52982 99 98 93
2.64724 -0.103304 4.69093 109 111 106
2.63531 -0.480626 4.65144 93 82 76
2.72481 -0.0808844 4.80221 107 106 102
2.68825 -0.524604 4.6518 48 53 49
2.59875 0.3837 4.48385 118 117 112
2.70642 -0.362927 4.6609 108 108 100
2.7189 -0.468635 4.68022 100 100 92
2.73813 -0.396339 4.66421 108 109 104
2.84956 -0.0939887 4.85397 128 129 123
2.76996 0.0893081 4.65513 106 107 101
2.86633 0.00898261 4.80805 97 98 92
2.91285 0.029426 4.85925 114 117 108
2.79789 0.0618205 4.67611 135 135 125
2.69709 0.111639 4.46368 102 101 97
2.83735 -0.333449 4.6814 85 85 75
2.90702 0.269694 4.77187 105 106 100
2.90476 0.130262 4.76625 112 113 107
2.92386 0.110375 4.79419 105 106 100
2.82796 0.287581 4.63166 113 114 106
2.91594 0.220032 4.76791 123 124 118
2.92544 0.158941 4.76701 137 138 132
3.0062 -0.00955888 4.88278 100 101 95
2.95028 0.223469 4.74805 104 103 98
2.91771 0.349428 4.68316 104 106 101
3.0122 0.102568 4.83084 119 120 114
3.03878 -0.484632 4.80494 108 108 100
2.99313 -0.348791 4.73001 101 101 93
2.99313 -0.348791 4.73001 101 101 93
3.02592 -0.30916 4.73125 80 77 68
3.09688 -0.315894 4.83578 93 93 81
3.15239 -0.309372 4.85714 107 97 85
2.91791 0.890867 4.46924 123 117 105
3.21509 -0.341593 4.92111 111 103 90
3.12989 0.0291935 4.78141 114 107 97
3.31057 0.059526 5.05511 115 107 96
3.23715 0.0900043 4.95163 124 115 106
3.28652 0.155337 5.00635 118 110 99
3.15356 -0.266241 4.83106 110 101 92
2.96901 1.66149 4.51279 131 122 113
3.24979 -0.30823 4.93517 101 97 85
3.04754 0.0141125 4.66695 105 98 88
3.26862 0.0922948 4.95789 97 87 78
2.99062 1.64444 4.52639 128 120 109
3.35878 -0.8932 5.13502 86 83 74
3.00811 0.450777 4.48899 117 111 99
3.89219 -1.00909 5.81114 94 92 80
3.2933 -0.295006 4.91925 108 102 90
3.25103 0.289386 4.85786 115 109 97
3.32376 0.294377 4.95611 115 109 97
3.32376 0.294377 4.95611 115 109 97
3.25116 0.51688 4.7561 124 116 105
2.52383 2.73393 3.68209 99 99 91
4.08057 -0.97205 5.93443 78 78 68
4.08057 -0.97205 5.93443 78 78 68
3.32559 -0.53565 4.81152 104 100 88
3.19365 0.408305 4.59005 111 104 94
2.90567 1.52945 4.15893 100 96 87
3.62815 0.120852 5.18327 117 113 101
2.89737 1.44476 4.13875 85 86 81
3.34569 -0.414358 4.78698 100 98 86
3.38649 -0.31318 4.84059 111 107 96
3.44194 -0.0831625 4.91121 0 0 0
3.27695 0.970254 4.61632 0 0 0
3.73877 -0.859942 5.30407 0 0 0
3.4311 0.365435 4.80644 0 0 0
3.40578 0.330123 4.76551 0 0 0
3.26261 1.04404 4.54493 0 0 0
3.80804 -0.881305 5.34555 0 0 0
3.46201 0.22209 4.82587 0 0 0
3.06718 1.21922 4.27123 0 0 0
3.41697 0.405931 4.75447 0 0 0
4.38955 -0.950622 6.0728 0 0 0
4.38955 -0.950622 6.0728 0 0 0
3.12645 1.19982 4.30989 0 0 0
3.06693 1.46515 4.19993 0 0 0
3.09669 1.39094 4.23359 0 0 0
3.48545 0.440925 4.76815 0 0 0
2.62828 2.67199 3.57665 0 0 0
3.50551 0.41787 4.78586 0 0 0
4.37151 -0.964493 5.94848 0 0 0
2.54075 2.56641 3.45602 0 0 0
3.51548 0.44091 4.78184 0 0 0
2.84455 2.08986 3.86065 0 0 0
2.89545 2.00486 3.92307 0 0 0
2.9246 1.93834 3.95718 0 0 0
3.5247 0.486699 4.76519 0 0 0
3.53221 0.0481707 4.77255 0 0 0
2.81318 2.13752 3.78903 0 0 0
2.7297 2.32322 3.66766 0 0 0
3.56902 0.463057 4.7856 0 0 0
2.6941 2.41796 3.61069 0 0 0
3.49448 -0.560916 4.67724 0 0 0
4.32071 -0.62018 5.65934 0 0 0
2.65724 2.52465 3.54749 0 0 0
2.66926 2.50972 3.56131 0 0 0
4.16319 -0.368284 5.47226 0 0 0
4.01607 -0.168761 5.28853 0 0 0
3.86408 0.557922 4.94975 0 0 0
3.56722 -0.397414 4.53287 0 0 0
3.67232 -0.261164 4.64717 0 0 0
3.77064 -0.141006 4.76734 0 0 0
3.58535 -0.432121 4.53033 0 0 0
3.73551 -0.0607658 4.72056 0 0 0
4.09563 -0.608164 5.17922 0 0 0
3.71323 -0.175866 4.66946 0 0 0
3.63893 -0.382051 4.56013 0 0 0
3.49156 0.281022 4.35957 0 0 0
2.58825 2.63416 3.20846 0 0 0
3.60379 0.392752 4.43876 0 0 0
3.72899 -0.139653 4.56813 0 0 0
4.70975 -0.973076 5.6724 0 0 0
2.76656 1.95443 3.2961 0 0 0
3.582 2.55816 4.22511 0 0 0
2.76329 1.98201 3.26938 0 0 0
3.85048 -0.421075 4.55237 0 0 0
2.77265 2.012 3.27796 0 0 0
4.189 -0.0585149 4.9497 0 0 0
3.46257 2.97978 4.00952 0 0 0
4.92913 -0.976995 5.77525 0 0 0
3.88439 -0.315365 4.53335 0 0 0
2.55383 2.46861 2.98069 0 0 0
2.64228 2.29601 3.0823 0 0 0
3.33253 3.18828 3.87131 0 0 0
2.63582 2.33827 3.05576 0 0 0
5.07729 -0.944652 5.88086 0 0 0
4.32731 -0.0339191 4.99907 0 0 0
3.95938 -0.298698 4.54141 0 0 0
4.25734 -0.320962 4.83618 0 0 0
2.99819 2.17539 3.39576 0 0 0
2.99819 2.17539 3.39576 0 0 0
3.08992 2.00488 3.50146 0 0 0
4.03167 -0.432984 4.54446 0 0 0
4.0157 -0.438966 4.5246 0 0 0
4.36094 -0.39689 4.90208 0 0 0
4.24385 0.561254 4.75648 0 0 0
3.22857 -0.405533 3.61462 0 0 0
4.1292 0.602088 4.62061 0 0 0
4.44682 -0.543497 4.95842 0 0 0
4.37172 -0.515862 4.83399 0 0 0
2.84396 2.52537 3.08257 0 0 0
3.24996 2.23623 3.50712 0 0 0
3.34039 2.20785 3.4772 0 0 0
4.62406 2.20825 4.71489 0 0 0
3.32395 2.46594 3.34617 0 0 0
3.22564 2.61467 3.23134 0 0 0
5.00902 2.02667 4.99961 0 0 0
5.14634 2.08444 5.03787 0 0 0
5.30687 1.51214 5.21209 0 0 0
4.79905 2.52978 4.68975 0 0 0
4.79905 2.52978 4.68975 0 0 0
5.0504 2.23535 4.92722 0 0 0
5.0504 2.23535 4.92722 0 0 0
5.57355 1.74922 5.42843 0 0 0
4.69872 1.48917 4.57802 0 0 0
5.42497 1.84999 5.24912 0 0 0
5.03977 1.77048 4.88692 0 0 0
5.08479 2.27761 4.90965 0 0 0
4.53511 1.92354 4.37767 0 0 0
4.73319 2.24237 4.57279 0 0 0
4.86239 2.13322 4.69519 0 0 0
4.96857 2.03712 4.76645 0 0 0
5.33006 2.01665 5.09583 0 0 0
5.19118 2.18208 4.96679 0 0 0
4.96693 1.98786 4.72188 0 0 0
5.41881 2.01781 5.14535 0 0 0
4.92287 2.03072 4.65802 0 0 0
4.89856 2.10242 4.63534 0 0 0
5.82376 1.75328 5.48956 0 0 0
4.72595 2.77352 4.45188 0 0 0
5.12775 2.24605 4.83009 0 0 0
4.3298 2.80567 4.08798 0 0 0
5.09126 1.9177 4.80429 0 0 0
5.34602 2.24716 5.02562 0 0 0
4.78653 2.25138 4.5116 0 0 0
4.31419 2.82212 4.06475 0 0 0
4.59602 2.94647 4.31434 0 0 0
4.86406 2.51872 4.56459 0 0 0
4.98169 2.03607 4.68398 0 0 0
4.606 2.46385 4.33022 0 0 0
5.16886 2.57905 4.83666 0 0 0
4.5913 2.48402 4.30843 0 0 0
5.34752 2.29976 5.01242 0 0 0
4.42409 2.71763 4.15005 0 0 0
4.94801 2.44362 4.62955 0 0 0
5.39211 2.34759 5.02214 0 0 0
5.24351 2.14802 4.88961 0 0 0
5.24351 2.14802 4.88961 0 0 0
5.65142 2.0482 5.25689 0 0 0
4.73521 1.72372 4.41209 0 0 0
4.08915 2.97515 3.81113 0 0 0
4.99772 2.06365 4.65542 0 0 0
4.99772 2.06365 4.65542 0 0 0
4.58923 2.90925 4.25965 0 0 0
2.73944 1.03175 2.53804 0 0 0
4.73371 1.78086 4.3847 0 0 0
4.99664 2.16366 4.64447 0 0 0
4.58343 2.85904 4.24284 0 0 0
4.46585 2.88066 4.13337 0 0 0
4.42724 2.87028 4.09195 0 0 0
4.42484 2.90688 4.08946 0 0 0
3.18547 2.07959 2.93887 0 0 0
4.38952 2.86553 4.04905 0 0 0
4.4249 2.72436 4.0906 0 0 0
5.07044 2.48888 4.67646 0 0 0
5.04132 2.17222 4.66064 0 0 0
4.25807 3.04758 3.91504 0 0 0
2.69075 1.15225 2.46401 0 0 0
4.24575 2.99122 3.88993 0 0 0
4.34058 2.7648 3.9816 0 0 0
5.97301 1.92324 5.46873 0 0 0
4.11529 2.91976 3.75958 0 0 0
5.19381 2.12244 4.73243 0 0 0
5.42434 1.88853 4.93764 0 0 0
5.06633 2.77015 4.5803 0 0 0
5.25303 2.12198 4.7527 0 0 0
4.87522 2.87228 4.39565 0 0 0
5.48745 1.93363 4.94998 0 0 0
5.97697 1.97636 5.37357 0 0 0
5.55684 2.67941 4.98154 0 0 0
6.13792 2.10076 5.47478 0 0 0
5.24751 2.69554 4.67553 0 0 0
4.93451 2.59416 4.4082 0 0 0
4.97229 2.88808 4.42642 0 0 0
5.38965 3.01394 4.79014 0 0 0
4.6544 3.12167 4.03706 0 0 0
4.96572 3.00824 4.24363 0 0 0
6.18492 3.49898 5.08907 0 0 0
6.19772 3.49131 5.07441 0 0 0
5.92475 3.63252 4.81889 0 0 0
6.83908e+06 -876664 5.55467e+06 0 0 0
5.95269 3.58753 4.83973 0 0 0
5.95269 3.58753 4.83973 0 0 0
6.58547e+06 -746601 5.32131e+06 0 0 0
4.7376e+06 -582244 3.82449e+06 0 0 0
6.711e+06 -845500 5.40284e+06 0 0 0
5.52684e+06 -299594 4.40959e+06 0 0 0
6.49456e+06 -817704 5.17843e+06 0 0 0
1.07793e+07 -1.48966e+06 8.5437e+06 0 0 0
10.6135 -1.58736 8.54875 0 0 0
6.47192e+06 -750933 5.11369e+06 0 0 0
1.2009e+07 -500981 9.31329e+06 0 0 0
10.1331 -0.494127 7.95133 0 0 0
1.10399e+07 -81253.9 8.50359e+06 0 0 0
1.55331e+07 321257 1.19555e+07 0 0 0
1.55414e+07 -699119 1.19487e+07 0 0 0
2.1351e+07 85179.6 1.63779e+07 0 0 0
2.1351e+07 85179.6 1.63779e+07 0 0 0
1.13008e+07 -185389 8.6233e+06 0 0 0
1.41528e+07 -481054 1.07327e+07 0 0 0
7.90279 4.07757 5.95195 0 0 0
3.20504e+07 2.90999e+06 2.40014e+07 0 0 0
3.12089e+07 2.81547e+06 2.33189e+07 0 0 0
-0.920657 1.79014 1.83772 100 93 83
-0.421779 0.849555 0.891308 188 179 172
-1.2269 0.795604 2.72328 220 226 238
-1.11849 0.968571 2.52116 88 86 74
-0.835805 1.68881 1.91625 130 130 128
-0.835805 1.68881 1.91625 130 130 128
-1.08576 1.04014 2.50723 108 112 115
-0.837921 1.65333 1.95782 200 195 192
-0.801255 1.82099 1.87082 118 119 113
-0.798762 1.81335 1.87106 110 111 105
-0.828526 1.657 1.95996 205 204 199
-0.991802 1.2016 2.38396 125 122 115
-1.09414 0.678554 2.63044 220 226 238
0.766823 -0.526826 -1.85064 222 226 238
-0.983795 1.20827 2.38173 122 122 112
-0.930341 1.37435 2.27073 212 212 210
-0.856651 1.59681 2.11285 245 246 241
-0.9959 0.932504 2.49501 118 120 119
-0.86001 1.52832 2.1634 220 216 213
-0.972602 1.06164 2.45059 87 87 85
-0.848828 1.53504 2.1623 216 213 208
-0.848828 1.53504 2.1623 216 213 208
-0.565144 0.613689 1.45539 24 24 22
-0.840497 1.49838 2.18923 225 216 211
-0.614048 0.683555 1.63074 30 32 29
-0.90269 1.20617 2.40373 157 152 148
-0.952364 0.872074 2.53493 112 112 112
-0.923929 0.96606 2.46112 44 45 39
-0.893784 1.14519 2.43436 120 124 127
-0.942631 0.745312 2.58318 218 224 236
-0.691723 1.83538 1.89921 145 143 146
-0.903913 0.941949 2.50284 122 126 127
-1.06878 0.608693 2.95929 215 221 233
-0.868938 1.14784 2.43677 127 133 133
-0.857096 1.11364 2.46018 12 17 11
-0.684119 1.68654 1.96474 213 214 209
-0.845649 1.1489 2.44167 131 133 132
-0.845647 1.06345 2.46893 25 27 24
-0.716668 1.68076 2.09666 108 105 96
-0.669874 1.69274 1.9934 128 119 112
-0.830086 1.18269 2.54944 130 131 135
2.70944e+09 -1.89128e+09 -5.34307e+09 44 46 45
-2.07865e+09 2.55578e+09 6.16902e+09 33 34 29
-0.746239 1.28629 2.35406 15 18 11
-0.637313 1.69827 2.00083 178 173 170
-0.768581 1.18515 2.44144 176 176 176
-0.740703 1.36632 2.35911 157 159 158
-0.722654 1.34114 2.31614 160 162 161
-0.646941 1.69281 2.1206 210 209 205
-0.694521 1.41 2.28241 221 221 219
-0.603705 1.73846 1.97318 215 214 209
0.555827 -1.56319 -1.8337 223 224 219
-0.729808 1.2671 2.46126 221 221 219
-0.619304 1.6968 2.10685 214 213 208
-0.656052 0.937834 2.80246 206 207 202
-3.12542 4.84087 14.2192 207 208 203
-0.616531 0.907799 2.81124 205 204 199
-2.01908 4.45062 9.31882 142 146 147
-0.516572 0.948498 2.81062 202 198 189
-0.495651 0.907805 2.81597 197 190 180
-0.492553 0.957021 2.82295 201 201 193
-1.44351 2.79641 8.66037 119 119 111
-0.445789 0.910372 2.81662 155 157 156
-0.408329 0.971003 2.82138 118 112 100
-0.392147 0.878597 2.80436 212 211 207
-0.720641 2.32008 6.76022 210 207 200
-0.262425 0.893688 2.82278 210 207 200
-0.242234 0.987958 2.84728 209 209 199
-0.44188 1.79601 5.43867 207 204 197
-0.231571 0.940662 2.85425 207 204 197
-0.0691061 1.34032 2.69207 194 194 194
-0.058998 1.34738 2.6925 200 200 198
-0.0518763 1.37059 2.65388 218 218 216
-0.0460584 1.02146 2.89057 152 151 149
-0.044605 2.06353 4.19291 178 178 178
-0.028023 1.32923 2.70477 178 178 178
-0.0133845 1.40125 2.66792 226 226 224
0.00467652 1.18663 2.81824 27 29 24
0.0804288 2.96894 7.35872 40 42 37
0.0421583 0.785658 3.03733 210 209 205
0.0460377 0.932475 2.88381 211 210 206
0.137178 3.87408 8.06672 147 147 147
0.0526359 0.841956 2.98912 213 212 208
0.0567111 0.933759 2.88732 213 209 206
0.0657127 0.917738 2.89301 208 207 203
0.16018 0.927876 2.85935 212 211 207
1.04541 -0.579406 3.90953 30 23 15
1.22705 -0.389483 4.10711 27 27 19
1.38993 -0.265024 4.26487 26 25 21
1.42478 -0.282176 4.39405 26 25 21
1.34243 -0.00249007 4.08744 63 62 57
1.33789 -0.487524 4.07012 231 223 220
1.40402 -0.270536 4.26469 20 24 23
1.32896 -0.586626 3.97429 35 31 30
1.43307 -0.161405 4.24465 145 140 134
1.41798 -0.126343 4.1983 66 58 55
1.43164 -0.197352 4.23518 87 82 78
1.47191 -0.210034 4.27217 56 59 52
1.38614 -0.619006 4.00766 109 115 115
1.38614 -0.619006 4.00766 109 115 115
1.44251 -0.0463259 4.16363 81 78 71
1.51175 -0.0787409 4.22009 56 63 56
1.60226 -0.197628 4.3271 27 29 26
1.5606 -0.52875 4.19951 90 91 83
1.56969 -0.0188472 4.20107 68 68 58
1.58648 -0.0780459 4.24584 74 74 64
1.63224 -0.156886 4.30479 87 82 76
1.68785 -0.214643 4.44694 87 84 77
1.6067 -0.533511 4.20933 93 90 83
1.62041 -0.0186048 4.23306 62 65 58
1.67306 -0.139069 4.32125 56 56 54
1.81155 0.0622352 4.67755 68 69 63
1.67126 -0.0183834 4.25075 58 51 45
1.68789 -0.0719884 4.29032 73 70 65
1.72638 -0.192084 4.37571 72 68 57
1.7629 -0.114742 4.46895 73 72 68
1.71423 -0.00989513 4.26629 71 72 66
1.72308 -0.0391251 4.28775 70 73 64
1.57282 0.406366 3.91119 203 202 197
1.76336 -0.155606 4.37246 64 65 57
1.75209 -0.562442 4.29393 99 97 85
1.77949 -0.130682 4.35901 91 86 80
1.87587 -0.528336 4.3356 120 113 103
1.87587 -0.528336 4.3356 120 113 103
1.89458 -0.553005 4.3533 122 115 107
1.8923 -0.631815 4.30217 118 111 101
2.03087 -0.511223 4.62274 120 111 102
2.02218 -0.153241 4.48561 19 19 11
2.0365 -0.495669 4.5075 120 116 107
2.0842 -0.484053 4.52192 114 110 99
1.99381 0.295604 4.29402 169 162 152
2.10355 -0.577709 4.50131 115 111 102
1.74449 0.228294 3.65995 165 158 148
2.14115 -0.469031 4.42637 103 98 94
2.21983 -0.461338 4.57824 81 82 76
2.19106 0.0169071 4.47529 160 153 143
2.06173 0.391595 4.20259 145 137 126
2.06173 0.391595 4.20259 145 137 126
2.20414 0.00857511 4.47905 159 150 141
2.22199 0.0751207 4.45008 154 149 143
2.09986 0.216779 4.20007 146 141 135
2.27465 -0.0278502 4.53215 148 148 140
2.27465 -0.0278502 4.53215 148 148 140
2.1883 0.300599 4.34039 104 94 84
2.35479 -0.433664 4.58103 47 39 36
2.33418 -0.576301 4.49724 75 77 72
2.33418 -0.576301 4.49724 75 77 72
2.17903 0.455777 4.18894 140 143 136
2.39844 -0.0478501 4.60248 126 122 113
2.39416 -0.0492318 4.59206 126 122 113
2.2024 0.3866 4.21929 114 115 107
2.39429 -0.0113992 4.58355 103 104 98
2.37814 -0.432269 4.5199 28 30 25
2.37686 0.156145 4.53131 114 115 109
2.40652 0.0464642 4.5537 119 116 109
2.40652 0.0464642 4.5537 119 116 109
2.33223 0.453014 4.36734 122 121 116
2.33223 0.453014 4.36734 122 121 116
2.48176 -0.568278 4.61684 64 65 60
2.48225 -0.569451 4.62443 64 65 60
2.50853 -0.404254 4.61383 120 119 114
2.49477 -0.551823 4.54918 58 60 57
2.49477 -0.551823 4.54918 58 60 57
2.57473 -0.431236 4.62534 148 149 141
2.57473 -0.431236 4.62534 148 149 141
2.6469 -0.0818734 4.7261 107 108 102
2.6469 -0.0818734 4.7261 107 108 102
2.59859 0.00917734 4.63387 113 115 110
2.6475 -0.381617 4.63317 102 103 95
2.65651 -0.415966 4.63682 87 88 80
2.60081 0.384679 4.49193 118 117 112
2.73756 -0.35811 4.6584 96 97 91
2.76052 -0.505712 4.65719 45 49 48
2.78425 0.190252 4.65476 102 103 97
2.82995 0.0650621 4.66968 124 121 112
2.88131 0.0558645 4.76724 124 121 112
2.9099 -0.00733085 4.81004 113 114 108
2.925 -0.0047258 4.82259 121 122 116
2.90098 0.17768 4.70879 110 107 100
2.99728 -0.0233791 4.85906 105 108 101
2.92851 0.153666 4.74081 113 115 110
2.91565 0.191836 4.71703 132 129 122
2.92437 0.0561817 4.70332 129 130 124
3.0037 0.553486 4.64391 115 105 95
3.18035 0.0954923 4.88774 119 109 99
2.46453 2.23849 3.78453 133 109 85
2.9519 0.614182 4.51177 128 122 110
3.18445 0.118943 4.86703 118 109 100
3.21104 0.115179 4.89207 119 111 100
2.88178 0.788458 4.3873 128 122 110
3.16944 0.211827 4.82154 107 100 90
3.16944 0.211827 4.82154 107 100 90
3.1101 0.509898 4.65979 108 99 90
2.80797 1.35854 4.00359 101 94 86
2.87293 1.37739 4.05279 0 0 0
3.14213 0.995203 4.41724 0 0 0
3.46212 -0.505054 4.80821 0 0 0
2.96551 1.5446 4.04999 0 0 0
3.4633 0.437605 4.73115 0 0 0
2.88108 1.70915 3.91537 0 0 0
3.75787 -0.138835 4.70941 0 0 0
3.74156 -0.101423 4.68277 0 0 0
3.78046 -0.051499 4.68594 0 0 0
3.80963 -0.104049 4.72022 0 0 0
3.78375 0.480463 4.51638 0 0 0
3.89154 -0.46819 4.50443 0 0 0
4.05381 -0.494453 4.73176 0 0 0
3.9005 -0.422312 4.49943 0 0 0
4.44241 -0.206494 5.1032 0 0 0
4.25878 -0.034462 4.89001 0 0 0
3.95853 -0.460259 4.48887 0 0 0
4.15981 -0.478216 4.76589 0 0 0
4.35491 0.0155066 4.9044 0 0 0
4.08846 -0.269955 4.54017 0 0 0
4.30862 -0.31709 4.83212 0 0 0
4.439 -0.00600253 4.95386 0 0 0
4.15882 -0.253444 4.55085 0 0 0
3.73804 1.56822 4.04431 0 0 0
4.23807 1.79169 4.52069 0 0 0
4.24203 1.76862 4.51585 0 0 0
4.07506 2.08262 4.31178 0 0 0
3.04627 1.27444 3.21346 0 0 0
4.42927 2.23147 4.61477 0 0 0
4.41604 1.70131 4.59285 0 0 0
4.30317 1.71624 4.3875 0 0 0
4.50438 2.30649 4.59074 0 0 0
4.33038 1.68976 4.38238 0 0 0
2.40274 1.25087 2.37208 0 0 0
4.36183 1.74652 4.40045 0 0 0
4.40339 2.09356 4.44142 0 0 0
4.46057 2.44395 4.49292 0 0 0
4.36484 2.56609 4.36728 0 0 0
3.09767 1.96188 2.77128 0 0 0
4.46665 1.76947 4.41577 0 0 0
4.47232 1.75119 4.42112 0 0 0
3.00438 1.26072 2.95719 0 0 0
4.69531 1.96479 4.6159 0 0 0
3.06517 1.11642 3.00616 0 0 0
4.8594 1.76808 4.76559 0 0 0
5.09356 1.58462 4.98983 0 0 0
4.83431 1.85513 4.73111 0 0 0
4.80568 1.93756 4.69415 0 0 0
4.58103 2.14769 4.46627 0 0 0
4.7207 2.04299 4.59981 0 0 0
4.26553 2.59533 4.11596 0 0 0
4.63453 2.23353 4.46892 0 0 0
4.06405 2.80304 3.90363 0 0 0
4.44692 2.47123 4.2593 0 0 0
4.68535 2.24225 4.4875 0 0 0
4.74346 2.19041 4.52898 0 0 0
4.5065 2.07848 4.26747 0 0 0
4.64125 2.33021 4.41106 0 0 0
4.93493 1.90294 4.68361 0 0 0
4.24207 2.75924 4.02255 0 0 0
4.19364 2.80434 3.97326 0 0 0
4.96506 1.75199 4.70382 0 0 0
4.23886 2.78654 4.00674 0 0 0
4.96656 1.919 4.68995 0 0 0
4.97565 1.90804 4.69844 0 0 0
4.24002 2.79405 3.99896 0 0 0
4.75365 2.15407 4.48119 0 0 0
5.3279 1.60537 5.0218 0 0 0
5.03712 1.80331 4.7458 0 0 0
4.87547 2.02222 4.59102 0 0 0
4.69289 1.72812 4.40812 0 0 0
5.03809 2.54533 4.80388 0 0 0
4.28811 2.7694 4.02588 0 0 0
4.42315 2.61879 4.15024 0 0 0
4.94243 1.98145 4.6371 0 0 0
4.90319 2.06577 4.59975 0 0 0
4.56912 2.40402 4.28602 0 0 0
4.91758 2.01421 4.60063 0 0 0
4.32775 2.73772 4.0432 0 0 0
4.59584 2.42708 4.28035 0 0 0
4.72194 2.33229 4.38711 0 0 0
4.85639 2.18964 4.50627 0 0 0
4.29088 2.74894 3.9796 0 0 0
4.98462 1.97912 4.62146 0 0 0
4.55281 2.52533 4.21526 0 0 0
5.05703 1.97836 4.66041 0 0 0
5.09102 1.93928 4.68788 0 0 0
2.16044 0.821162 1.98384 0 0 0
4.38718 2.75164 4.03384 0 0 0
5.0699 1.99724 4.6589 0 0 0
4.63557 2.46345 4.25946 0 0 0
2.19114 0.829333 2.00325 0 0 0
4.14779 2.82873 3.80327 0 0 0
4.09838 2.89354 3.74811 0 0 0
5.55958 1.72715 5.06736 0 0 0
5.48035 1.76321 4.99113 0 0 0
5.01008 2.21025 4.55183 0 0 0
4.77952 2.00519 4.33412 0 0 0
4.82723 2.41065 4.3807 0 0 0
5.35226 1.90587 4.83564 0 0 0
5.12914 2.22098 4.62355 0 0 0
5.08039 2.29142 4.57222 0 0 0
4.35384 2.78966 3.91684 0 0 0
4.35384 2.78966 3.91684 0 0 0
3.42679 1.49615 3.07959 0 0 0
4.80627 2.05995 4.29266 0 0 0
5.42583 1.88527 4.86978 0 0 0
4.88498 1.90037 4.35397 0 0 0
5.44125 2.70105 4.94291 0 0 0
5.01006 2.37703 4.48555 0 0 0
5.46283 1.84288 4.87095 0 0 0
5.46283 1.84288 4.87095 0 0 0
4.75792 2.68102 4.241 0 0 0
4.86743 2.55303 4.33644 0 0 0
4.86533 2.57841 4.28879 0 0 0
4.50742 2.82024 3.97274 0 0 0
4.64313 2.88407 3.98496 0 0 0
-0.902652 1.8025 1.88626 128 128 126
-0.91532 1.68608 1.96126 42 37 34
-0.86238 1.72046 1.93808 215 214 209
-0.843208 1.80991 1.90697 151 151 151
-0.912627 1.35884 2.24681 200 199 195
-0.975052 0.643816 2.28256 213 220 228
-1.00907 0.733876 2.57767 220 227 235
-0.912373 1.0037 2.39099 179 180 175
-0.923528 0.823267 2.44955 220 227 235
-0.627937 1.73017 2.02065 45 47 42
-0.71927 0.727501 2.53015 217 214 209
-0.579733 0.91771 2.71563 205 201 192
-0.130917 5.01897 11.035 21 23 18
-0.408873 0.855111 2.64742 212 209 200
-0.365027 0.859638 2.7554 145 135 126
-0.291564 0.964932 2.8389 217 214 207
-0.0100874 1.15729 2.81404 209 206 199
0.0311707 1.15237 2.85275 210 209 204
0.288248 1.62625 2.1504 10 15 9
0.320202 1.37839 2.25327 164 164 156
0.353957 1.45549 2.24027 189 186 179
0.864092 -0.931936 3.76993 71 54 46
1.68312 -0.24786 4.44404 113 106 96
1.64067 0.0552925 4.22619 23 24 19
1.2941 -0.967901 3.93419 109 105 94
1.10291 -0.813182 3.38212 112 108 96
1.61785 -0.656818 4.16184 72 62 53
2.06903 -0.530972 4.51531 81 80 75
1.46936 0.206491 3.38484 148 142 128
1.9214 0.233401 4.03994 169 163 149
2.01529 0.305113 4.07384 138 134 125
3.45241 -0.301879 4.86819 105 101 90
3.42011 -0.458489 4.84612 113 109 100
4.36007 -0.254693 5.61217 110 106 94
4.9641 1.81207 4.89395 0 0 0
4.62446 2.55621 4.41452 0 0 0
4.74359 1.68578 4.44254 0 0 0
-0.619836 1.8774 2.61266 220 221 216
0.410176 1.61231 2.51818 227 227 225
0.432632 1.6194 2.52829 226 227 222
0.481272 1.63229 2.55105 227 228 223
0.561285 1.74046 2.56393 220 221 216
0.561285 1.74046 2.56393 220 221 216
0.601627 1.69528 2.595 233 232 227
0.671699 1.81911 2.64909 152 149 144
0.714902 1.68427 2.66116 162 163 157
0.788987 1.84253 2.69519 161 162 154
1.92538 -0.224077 5.14726 61 61 53
1.67395 -0.200956 4.43512 63 64 56
1.68372 -0.150694 4.45304 101 101 91
1.74776 -0.597531 4.43728 102 93 84
1.85928 -0.542079 4.47002 107 103 94
2.16156 -0.771532 5.08919 106 101 95
2.03006 -0.59129 4.52588 122 118 107
2.05615 -0.182047 4.54673 18 19 13
2.17587 -0.516328 4.54602 113 109 98
2.22993 -0.56847 4.56428 86 85 80
2.26252 -0.49738 4.56363 82 81 77
2.26978 -0.432497 4.46043 44 46 43
2.65472 -0.0628466 4.67943 107 106 102
2.68249 -0.52056 4.64135 48 53 49
2.48791 -0.285302 3.99686 91 91 83
3.03671 -0.0507241 4.77175 102 95 85
2.2979 0.109739 3.50041 118 110 99
3.31004 2.16971 3.59903 0 0 0
4.33545 1.81018 4.57337 0 0 0
2.98919 1.16303 2.9591 0 0 0
4.81674 1.4833 4.57697 0 0 0
1.08038e+09 -7.12581e+09 -1.58052e+10 209 206 199
-0.866268 2.12982 5.09033 208 205 196
-0.53043 0.975913 2.89871 184 182 183
-4.34838 4.16104 13.6799 186 184 185
2.64085 -0.362154 9.38045 87 80 72
1.64337 -0.193713 4.4503 87 80 72
1.80677 -0.692364 4.48984 17 19 16
1.76142 -0.131583 4.49408 66 69 60
1.87656 -0.703088 4.50537 86 92 82
1.82906 0.0656301 4.41394 205 206 200
1.99794 -0.504395 4.52174 72 73 65
2.01127 -0.568313 4.54501 64 59 55
2.03108 -0.0798942 4.5194 115 102 94
2.02809 -0.0728801 4.50697 115 102 94
2.20369 -0.621068 4.56462 25 28 21
2.20369 -0.621068 4.56462 25 28 21
2.19927 0.140051 4.49231 211 210 206
2.31761 -0.443698 4.59855 162 158 146
2.23408 0.389977 4.34585 21 22 17
2.32463 0.10013 4.52319 188 182 170
2.41883 -0.578022 4.60831 136 132 123
2.57787 -0.544144 4.63778 114 111 104
2.57787 -0.544144 4.63778 114 111 104
2.56834 -0.385824 4.62446 125 126 120
2.62325 -0.373522 4.63431 111 112 106
2.67015 -0.365616 4.65077 108 109 103
2.74315 -0.389908 4.66827 116 117 111
2.77717 0.0591495 4.65284 135 130 124
2.82487 -0.335626 4.67339 110 111 105
2.81038 0.13991 4.62602 115 103 91
2.84238 0.0535155 4.66833 141 142 136
2.93112 -0.311953 4.68924 125 121 110
3.10491 0.171557 4.68491 132 124 113
3.62294 -0.537919 4.51425 0 0 0
3.85873 -0.336926 4.53778 0 0 0
3.96384 -0.33888 4.51828 0 0 0
4.02681 -0.325562 4.50911 0 0 0
4.09783 -0.0264707 4.61249 0 0 0
4.14481 -0.289346 4.53694 0 0 0
4.17509 -0.389087 4.53452 0 0 0
4.17509 -0.389087 4.53452 0 0 0
4.25366 -0.356226 4.58381 0 0 0
4.0281 1.66363 4.29786 0 0 0
4.08447 1.69083 4.31069 0 0 0
4.08716 1.69573 4.32062 0 0 0
4.11783 1.61184 4.30611 0 0 0
4.27532 1.62475 4.33437 0 0 0
4.49916 1.72599 4.39235 0 0 0
4.54968 1.80962 4.36827 0 0 0
4.74663 1.78226 4.30128 0 0 0
4.75776 1.92021 4.22412 0 0 0
4.78228 1.92375 4.26788 0 0 0
-1.50799e+07 -7.78482e+06 7.22615e+06 130 146 146
1.01119e+07 5.41262e+06 -5.01163e+06 164 177 186
-2.94119e+06 -1.54665e+06 1.48443e+06 37 38 30
6.49643e+06 3.65418e+06 -3.35113e+06 164 174 184
7.73474e+06 4.30736e+06 -3.98239e+06 163 173 183
7.54833e+06 4.29532e+06 -3.93113e+06 166 174 185
-15.9129 -11.5957 10.9994 165 173 184
7.28452e+06 4.04972e+06 -3.78364e+06 165 173 184
-3.44253e+07 -2.00175e+07 1.8751e+07 163 171 182
-2.21585e+07 -1.30994e+07 1.21854e+07 162 172 182
4.21704e+06 2.51357e+06 -2.33345e+06 161 171 181
-2.62004e+07 -1.36048e+07 1.44028e+07 21 26 19
12.7259 0.451909 9.1722 0 0 0
12.7259 0.451909 9.1722 0 0 0
13.4635 0.391366 9.57598 0 0 0
