ply
format ascii 1.0 
element vertex 978
property float32 x 
property float32 y 
property float32 z
property uchar red  
property uchar green
property uchar blue
element face 0
property list uchar int vertex_indices
end_header
-0.595273 1.21973 2.71844 200 200 190
-0.575112 1.20909 2.7332 105 100 94
-0.567444 1.06098 2.75146 197 198 192
-0.560474 1.04245 2.79422 87 88 74
-0.540652 1.11328 2.76209 180 177 170
-0.541521 1.04946 2.77455 110 106 95
-0.520927 1.16941 2.73345 188 179 172
-0.506469 1.02465 2.84878 140 142 139
-0.490264 0.290051 3.1467 108 109 104
-0.451072 1.17426 2.78576 129 128 126
-0.4754 0.153164 3.05905 223 227 239
-0.433801 1.11994 2.79806 114 114 104
-0.424782 1.22515 2.7853 99 98 94
-0.440508 1.00742 2.93244 213 209 206
-0.411503 1.21955 2.79035 110 111 105
-0.440123 0.18816 3.0956 108 113 109
-0.414353 0.279808 3.31394 120 122 121
-0.424939 0.0476283 3.02667 220 226 238
-0.42453 0.546675 3.03751 119 121 107
-0.42453 0.546675 3.03751 119 121 107
-0.424357 0.157401 3.08326 218 228 238
-0.419325 0.320606 3.04895 17 20 13
-0.393474 1.00999 2.95457 216 216 216
-0.389666 0.934236 2.98351 245 246 241
-0.370327 1.04656 2.80018 50 46 43
-0.370327 1.04656 2.80018 50 46 43
-0.362985 1.21006 2.76211 130 129 125
1.64811 2.19628 17.4635 58 60 55
-0.347745 1.11227 2.83138 210 210 208
-0.361904 0.353476 3.13795 33 33 31
1.59026 1.76668 17.213 47 49 44
-0.341356 1.06108 2.8645 30 30 28
1.72243 1.83369 16.9396 32 32 30
-0.337025 1.04727 2.80888 30 35 28
-0.352506 0.310984 3.05011 43 43 41
-0.334417 0.642468 3.09025 107 103 92
-0.334207 0.493772 3.14373 187 190 183
-0.326459 0.879083 3.02472 214 214 206
-0.332435 0.195434 3.06534 109 113 112
-0.32467 1.01741 3.00663 216 215 211
-0.358758 0.126389 3.39857 219 225 237
-0.307506 0.218269 3.164 112 112 112
-0.290362 1.06312 2.88046 32 39 31
-0.290362 1.06312 2.88046 32 39 31
-0.306099 0.22083 3.07059 145 147 146
1.84319 1.42353 17.0453 145 147 146
-0.303269 0.363079 3.08324 29 29 27
-0.271399 0.39104 3.3436 29 29 27
1.92488 1.50773 16.7248 132 136 137
-0.299728 0.252673 3.06952 132 136 137
-0.289139 0.237909 3.15704 141 143 142
-0.260304 1.0647 2.8926 48 50 47
-0.37589 0.476152 4.19526 11 12 7
-0.254054 0.358584 2.93397 9 11 6
1.89576 1.95757 16.9361 9 11 6
-0.263258 0.233008 3.0843 144 145 147
-0.247402 0.883043 3.04763 225 229 214
-2.6363 2.82608 35.9707 148 150 149
-0.225709 1.23225 2.84933 152 153 155
-0.230919 1.05059 2.82967 213 214 209
-2.68815 3.994 36.8739 25 25 25
-0.234083 0.110039 3.08919 219 225 237
-0.233815 0.503391 3.10387 210 210 208
-3.97913e+08 5.90123e+08 5.00342e+09 29 29 27
1.77666 2.03311 17.8002 25 27 24
-0.215566 1.0222 3.01573 211 206 202
-0.194458 1.20067 2.86727 164 165 167
-0.196294 0.310812 3.15134 44 46 43
-0.198589 0.711515 3.08001 220 220 218
-0.17273 1.22161 2.87019 178 180 179
-0.186427 0.35465 3.12079 34 34 34
-0.183509 0.375578 3.1185 22 25 18
-0.177642 1.05674 2.84357 113 111 99
-0.0835477 1.20922 3.28111 131 131 123
-0.171109 0.323628 3.10795 44 44 42
-0.160776 0.453664 3.13413 130 134 133
-0.165997 0.135366 3.43456 216 224 235
0.546158 -2.31652 -11.1422 157 159 158
2.16419 1.29545 17.3979 104 106 105
-0.147903 0.648257 3.122 160 162 161
-0.126294 1.06967 2.91143 213 214 209
-0.121392 0.140221 3.20758 217 223 235
-0.104417 1.05443 2.86079 124 124 122
-0.101768 1.02925 2.97555 204 205 199
-0.0962164 1.04426 3.01508 204 205 199
-0.0520364 1.04315 3.29483 219 218 214
-0.0565357 1.08478 3.28027 162 162 154
-0.0949163 0.838889 3.09485 219 220 215
-0.092074 0.943909 3.07584 220 221 216
-0.0905008 0.935735 3.07993 224 225 220
-0.0834792 0.502524 3.14864 199 199 199
-0.0838037 0.296973 3.18512 98 106 109
-0.0838037 0.296973 3.18512 98 106 109
-0.080427 0.189681 3.20554 163 163 163
-0.0714866 1.11136 2.91832 213 208 204
-0.0716792 1.05558 2.89706 211 212 206
-0.0216735 1.07526 2.93631 210 211 205
0.0439113 0.364521 3.38412 48 47 43
0.0395825 0.924898 3.24735 205 204 202
0.0419886 0.923726 3.24782 208 207 205
0.0838217 0.219515 3.43333 206 207 202
0.0992455 0.230128 3.43445 204 205 200
0.273035 0.231198 3.44353 206 203 196
0.291669 0.205934 3.45781 131 123 112
0.282396 0.23366 3.41122 209 208 204
0.472922 0.240382 3.5368 210 207 200
0.52642 0.225684 3.5073 211 211 203
0.521858 0.461979 3.44341 20 22 17
0.559858 0.226024 3.49042 208 209 203
0.591907 0.244153 3.5153 200 197 190
0.591907 0.244153 3.5153 200 197 190
0.587474 0.213896 3.49223 209 208 203
0.590079 0.18613 3.46505 205 202 195
0.623731 0.260791 3.60923 204 201 196
0.653397 0.409416 3.54603 28 30 27
0.765479 0.0563049 3.62829 208 209 204
0.738929 0.538656 3.49495 165 165 165
0.760546 0.23775 3.56258 209 208 204
0.734627 0.937082 3.4295 221 222 224
0.733115 1.09383 3.41674 27 27 19
0.776232 0.0063373 3.58125 207 204 197
0.762397 0.391379 3.51467 58 60 59
0.873633 -0.799797 4.00992 13 16 7
0.76009 0.551088 3.48145 185 185 185
0.792214 0.197122 3.51663 211 210 205
0.798724 0.38564 3.52152 40 42 39
0.816252 0.268046 3.57361 199 201 198
0.807369 0.191061 3.51888 212 211 206
0.827799 0.398103 3.56513 34 34 34
0.823569 0.381056 3.54516 40 42 39
0.838103 0.257587 3.58242 207 208 203
0.833545 0.290124 3.55866 149 151 148
0.83505 0.238825 3.5547 211 210 206
0.825743 0.427342 3.5057 22 24 19
0.830787 0.519429 3.4865 147 147 147
0.871279 0.259843 3.59108 207 208 203
0.873725 0.0970877 3.60492 212 213 208
0.888851 0.0911965 3.61567 214 213 208
0.87223 0.52702 3.5375 145 145 145
0.87223 0.52702 3.5375 145 145 145
0.873688 0.201966 3.54192 212 211 207
0.849236 1.06725 3.43737 18 19 11
0.892979 0.13146 3.57737 207 212 208
0.900324 0.120452 3.57606 219 218 213
0.889157 0.536958 3.52894 153 153 153
0.951674 -0.569088 3.71553 123 124 119
0.921174 -0.549663 3.64284 91 90 86
0.934503 0.173001 3.63698 202 199 194
0.878489 1.08865 3.4531 13 18 12
0.978509 -0.581016 3.72482 20 20 18
1.0198 -0.657988 3.26638 1 13 9
1.61014 1.09724 5.15429 174 176 171
1.034 0.704112 3.30623 174 176 171
1.03339 -0.637267 3.29356 63 78 75
1.0357 -0.642943 3.282 152 140 140
0.956728 0.749957 2.9785 99 102 93
0.954666 0.893446 2.95283 11 16 9
0.910527 0.941133 2.86258 38 38 26
0.951614 1.03763 2.92109 37 37 25
0.959495 1.01549 2.93299 38 38 26
0.950338 1.16034 2.90079 13 16 7
0.949263 1.18563 2.89512 17 20 13
0.957091 1.18372 2.89887 14 17 10
0.948547 1.00551 2.86806 31 32 18
1.38365 0.783374 3.82013 178 177 172
1.04688 0.729684 3.01012 226 228 225
1.04688 0.729684 3.01012 226 228 225
1.03848 1.03953 2.95574 37 38 24
1.06168 1.12431 2.94517 50 50 38
1.02627 1.10197 2.88134 50 50 38
1.06502 0.662965 2.95027 188 190 187
1.12083 0.754178 3.03026 231 232 227
1.17388 0.984764 3.01474 19 22 13
1.17388 0.984764 3.01474 19 22 13
1.324 0.874697 3.30078 220 221 216
1.34259 -0.516936 3.37481 17 17 7
1.38855 -0.762393 3.47014 21 22 16
1.35325 -0.524655 3.35759 59 58 53
1.22482 0.727859 2.99446 227 228 222
1.43924 -0.711591 3.46497 58 60 49
1.29358 0.806836 3.08561 219 220 215
1.2574 1.21209 2.99109 13 16 9
1.85158 -0.591984 4.06162 164 160 149
1.46884 -0.73336 3.47825 52 48 37
1.25015 0.732381 3.00093 209 208 203
1.33476 0.816123 3.09363 220 219 214
1.33476 0.816123 3.09363 220 219 214
1.56829 -0.786583 3.53469 44 46 35
1.40547 0.841768 3.12634 192 196 199
1.45521 0.670313 3.21738 162 159 150
1.45521 0.670313 3.21738 162 159 150
1.60416 -0.738106 3.53114 50 46 37
1.39882 1.08438 3.06687 18 19 13
1.39882 1.08438 3.06687 18 19 13
1.63283 -0.775699 3.54988 62 55 45
1.62672 -0.701689 3.53093 41 35 23
1.45315 0.826309 3.13756 152 153 147
1.64875 -0.736088 3.54871 70 66 54
1.64305 -0.682521 3.53307 63 57 43
1.53937 0.915444 3.15257 128 129 131
1.54688 0.843231 3.16455 171 172 167
1.54529 0.978223 3.14021 109 117 120
1.50088 0.8249 3.08027 160 161 156
1.73284 -0.606508 3.52064 25 26 20
1.58601 0.825658 3.18228 156 157 151
2.10164 1.01129 4.0129 156 157 151
1.59198 0.818235 3.1781 42 35 29
1.99861 -0.815607 3.93892 72 49 41
2.05835 -0.852352 3.88107 126 131 135
2.09021 -0.861634 3.93 126 131 135
2.25895 -0.845391 4.06529 88 88 80
2.34405 -0.63159 4.22364 26 23 14
2.37654 -0.642032 4.28171 26 23 14
2.33369 -0.651212 4.20543 68 66 54
2.38502 -0.610192 4.28848 105 103 91
2.3432 -0.597582 4.21316 105 103 91
2.35397 -0.638022 4.22212 101 101 91
2.34285 -0.580873 4.19866 70 67 60
2.35709 -0.560901 4.20307 63 66 59
2.37187 -0.630002 4.22831 53 52 47
2.40591 -0.606373 4.22409 77 74 67
2.44653 -0.64714 4.26184 71 73 62
2.45068 -0.662367 4.26254 67 66 61
2.43939 -0.633533 4.23972 62 65 56
2.43798 -0.621765 4.23726 75 74 69
2.33829 -0.835679 4.06301 100 96 85
2.47191 -0.684212 4.26981 66 66 56
2.45245 -0.554665 4.22661 73 69 60
2.45531 -0.553295 4.23066 73 69 60
2.38827 -0.859028 4.06796 104 100 91
2.49369 -0.852735 4.10016 120 116 107
2.46314 -0.893757 4.03837 118 111 101
2.63391 -0.524664 4.27573 25 24 20
2.56735 -0.877704 4.14267 114 110 101
2.68264 -0.696311 4.3327 56 55 50
2.61958 -0.928904 4.22215 118 109 100
2.61958 -0.928904 4.22215 118 109 100
2.72056 -0.402092 4.31058 169 162 152
2.82267 -0.420366 4.32881 161 157 146
2.82032 -0.845695 4.26944 82 81 77
2.74408 -0.312276 4.15275 112 108 99
2.90071 -0.654382 4.38988 139 135 124
2.90071 -0.654382 4.38988 139 135 124
2.82682 -0.372694 4.27724 130 127 118
2.78659 -0.809182 4.20783 79 75 72
2.7564 -0.372209 4.17218 124 120 111
2.85581 -0.874186 4.26779 69 70 65
2.72661 -0.903289 4.08405 76 77 72
2.91309 -0.627391 4.36324 149 142 134
2.93137 -0.635172 4.39021 149 142 134
2.93495 -0.653426 4.395 129 125 116
2.93495 -0.653426 4.395 129 125 116
2.79833 -0.389691 4.18972 104 94 84
2.93635 -0.595206 4.38787 134 130 121
2.91448 -0.577769 4.3558 134 135 127
2.94807 -0.633001 4.35554 123 114 105
2.85198 -0.801874 4.21565 69 55 52
2.98257 -0.618253 4.4059 141 132 123
2.88519 -0.346117 4.26206 140 141 135
2.79072 -0.900097 4.1054 69 70 65
2.97569 -0.53929 4.37421 94 96 91
2.99011 -0.684515 4.38393 99 99 91
2.96957 -0.54667 4.35318 112 113 108
3.01237 -0.593599 4.41134 95 98 91
3.01237 -0.593599 4.41134 95 98 91
2.90144 -0.802697 4.24191 100 87 81
2.91959 -0.799367 4.2486 148 141 131
2.92654 -0.887484 4.25312 70 71 66
2.9314 -0.88812 4.25147 70 71 66
2.96289 -0.797097 4.25917 125 126 118
2.95567 -0.610598 4.24898 112 112 104
3.01574 -0.395067 4.32029 108 111 104
2.99301 -0.343554 4.28949 126 125 120
3.00691 -0.417481 4.29824 113 115 110
2.98995 -0.424514 4.26909 99 101 96
2.98525 -0.792945 4.25276 103 102 97
3.03648 -0.43077 4.29662 122 123 117
3.04482 -0.791199 4.27682 108 107 102
3.16369 -0.37206 4.4045 99 98 93
3.19402 -0.375798 4.44172 99 98 93
3.1525 -0.645614 4.38513 109 111 106
3.1023 -0.841797 4.3016 93 82 76
3.23665 -0.64636 4.4852 107 106 102
3.09474 -0.854152 4.2353 48 53 49
3.17462 -0.35792 4.33088 118 117 112
3.16967 -0.780876 4.32027 108 108 100
3.14794 -0.83336 4.28981 100 100 92
3.18959 -0.797714 4.31525 108 109 104
3.32482 -0.654826 4.49964 128 129 123
3.27607 -0.537676 4.39011 106 107 101
3.35451 -0.597322 4.49163 97 98 92
3.39342 -0.591012 4.52666 114 117 108
3.29352 -0.553871 4.39827 135 135 125
3.25887 -0.51592 4.32319 102 101 97
3.27228 -0.765211 4.32793 85 85 75
3.4369 -0.45627 4.53308 105 106 100
3.40391 -0.529325 4.48808 112 113 107
3.41486 -0.542178 4.50022 105 106 100
3.37338 -0.432724 4.44249 113 114 106
3.43106 -0.482058 4.51303 123 124 118
3.42436 -0.513938 4.49309 137 138 132
3.45307 -0.611429 4.5199 100 101 95
3.45477 -0.477541 4.49348 104 103 98
3.45623 -0.403692 4.487 104 106 101
3.47767 -0.548471 4.51171 119 120 114
3.36446 -0.838717 4.32152 108 108 100
3.48206 -0.798318 4.45188 101 101 93
3.48206 -0.798318 4.45188 101 101 93
3.41442 -0.75293 4.34914 80 77 68
3.4537 -0.760464 4.39484 93 93 81
3.49398 -0.757823 4.40377 107 97 85
3.57292 -0.0723065 4.4863 123 117 105
3.56902 -0.785333 4.47457 111 103 90
3.53828 -0.579324 4.43321 114 107 97
3.67937 -0.586448 4.60975 115 107 96
3.63735 -0.562955 4.5619 124 115 106
3.68296 -0.533437 4.60632 118 110 99
3.51881 -0.737261 4.41285 110 101 92
3.82172 0.40127 4.77227 131 122 113
3.5492 -0.758755 4.42913 101 97 85
3.51169 -0.583003 4.40248 105 98 88
3.65999 -0.56192 4.56258 97 87 78
3.83124 0.387262 4.76981 128 120 109
3.57123 -1.06201 4.4765 86 83 74
3.55757 -0.328163 4.38412 117 111 99
3.8403 -1.12309 4.73382 94 92 80
3.59551 -0.752963 4.43161 108 102 90
3.68649 -0.449818 4.54666 115 109 97
3.73821 -0.455824 4.60404 115 109 97
3.73821 -0.455824 4.60404 115 109 97
3.73353 -0.316917 4.53496 124 116 105
3.72859 1.37931 4.52045 99 99 91
3.96162 -1.10877 4.79126 78 78 68
3.96162 -1.10877 4.79126 78 78 68
3.54202 -0.85518 4.26782 104 100 88
3.68953 -0.361192 4.4243 111 104 94
3.71662 0.370904 4.44316 100 96 87
3.90588 -0.561541 4.66316 117 113 101
3.6852 0.318447 4.39919 85 86 81
3.6176 -0.803374 4.32136 100 98 86
3.65284 -0.753792 4.36018 111 107 96
3.77722 -0.649565 4.50088 0 0 0
3.86114 -0.044392 4.56258 0 0 0
3.83068 -1.04752 4.54958 0 0 0
3.82904 -0.402592 4.50515 0 0 0
3.82709 -0.42023 4.50108 0 0 0
3.86643 0.00818845 4.53146 0 0 0
3.87036 -1.05771 4.56348 0 0 0
3.84532 -0.483123 4.50972 0 0 0
3.7559 0.152708 4.40335 0 0 0
3.82652 -0.375732 4.47992 0 0 0
4.14437 -1.09763 4.83223 0 0 0
4.14437 -1.09763 4.83223 0 0 0
3.79938 0.135186 4.42039 0 0 0
3.82385 0.319625 4.4253 0 0 0
3.8201 0.266421 4.41586 0 0 0
3.88331 -0.357782 4.48978 0 0 0
3.71751 1.31822 4.28776 0 0 0
3.89235 -0.371807 4.49336 0 0 0
4.12665 -1.09558 4.75303 0 0 0
3.67919 1.29085 4.237 0 0 0
3.90474 -0.358968 4.49544 0 0 0
3.81562 0.815884 4.38662 0 0 0
3.7936 0.732725 4.35893 0 0 0
3.83933 0.685121 4.40388 0 0 0
3.95052 -0.334162 4.52566 0 0 0
3.8261 -0.563842 4.38192 0 0 0
3.80233 0.866764 4.34655 0 0 0
3.7814 1.03695 4.315 0 0 0
3.93657 -0.345474 4.48514 0 0 0
3.77805 1.12607 4.3031 0 0 0
3.67101 -0.85897 4.17378 0 0 0
4.2383 -0.948693 4.75886 0 0 0
3.77617 1.22854 4.28861 0 0 0
3.78189 1.21224 4.29316 0 0 0
4.19347 -0.822654 4.71817 0 0 0
4.14858 -0.714784 4.66422 0 0 0
4.20499 -0.312352 4.6301 0 0 0
3.74938 -0.764767 4.10047 0 0 0
3.82162 -0.699896 4.1694 0 0 0
3.91746 -0.649453 4.27114 0 0 0
3.75315 -0.780764 4.08721 0 0 0
3.91274 -0.606224 4.26438 0 0 0
3.71465 -0.831666 4.04301 0 0 0
3.90026 -0.665346 4.23235 0 0 0
3.76901 -0.752038 4.08172 0 0 0
3.82206 -0.398065 4.12795 0 0 0
3.73281 1.40511 4.01008 0 0 0
3.93048 -0.345276 4.20138 0 0 0
3.94517 -0.645319 4.19719 0 0 0
4.30513 -1.06866 4.52365 0 0 0
3.68977 0.828843 3.84545 0 0 0
4.50355 1.05269 4.6709 0 0 0
3.69507 0.855498 3.83049 0 0 0
4.0085 -0.796446 4.1498 0 0 0
3.66931 0.866792 3.80529 0 0 0
4.2076 -0.61689 4.35728 0 0 0
4.50829 1.42619 4.63488 0 0 0
4.42626 -1.06948 4.55381 0 0 0
4.0333 -0.73217 4.13566 0 0 0
3.64267 1.32296 3.73733 0 0 0
3.6752 1.14942 3.76903 0 0 0
4.52296 1.62678 4.62313 0 0 0
3.68263 1.19111 3.75864 0 0 0
4.51508 -1.05805 4.60431 0 0 0
4.30021 -0.606648 4.37662 0 0 0
4.11355 -0.729186 4.16531 0 0 0
4.18301 -0.731203 4.20232 0 0 0
3.85334 0.940848 3.86974 0 0 0
3.85334 0.940848 3.86974 0 0 0
3.98716 0.814371 3.99815 0 0 0
4.12766 -0.792385 4.12219 0 0 0
4.19929 -0.801854 4.19496 0 0 0
4.22885 -0.769702 4.2139 0 0 0
4.40612 -0.283502 4.38072 0 0 0
3.28175 -0.652395 3.26014 0 0 0
4.34249 -0.247816 4.31212 0 0 0
4.24615 -0.839433 4.20462 0 0 0
4.20622 -0.819153 4.13804 0 0 0
3.9356 1.32968 3.8127 0 0 0
3.99976 0.940778 3.87637 0 0 0
4.26536 0.962118 4.00266 0 0 0
5.19217 0.684813 4.79324 0 0 0
4.3427 1.19235 3.96891 0 0 0
4.3119 1.34612 3.92561 0 0 0
5.37192 0.515015 4.87568 0 0 0
5.47762 0.541321 4.89531 0 0 0
5.41721 0.180613 4.85028 0 0 0
5.43576 0.897029 4.85136 0 0 0
5.43576 0.897029 4.85136 0 0 0
5.47515 0.654845 4.88003 0 0 0
5.47515 0.654845 4.88003 0 0 0
5.5946 0.28105 4.97964 0 0 0
4.94065 0.252672 4.39956 0 0 0
5.551 0.365047 4.91496 0 0 0
5.344 0.378232 4.73771 0 0 0
5.51556 0.683651 4.87545 0 0 0
4.90335 0.542655 4.33332 0 0 0
5.30828 0.731193 4.69358 0 0 0
5.35582 0.63643 4.73317 0 0 0
5.39294 0.56153 4.74064 0 0 0
5.6065 0.49086 4.9148 0 0 0
5.56761 0.613887 4.88428 0 0 0
5.37731 0.5375 4.69257 0 0 0
5.65789 0.482324 4.93325 0 0 0
5.36496 0.575417 4.66428 0 0 0
5.37451 0.625394 4.673 0 0 0
5.73797 0.272119 4.97503 0 0 0
5.49819 1.11578 4.76488 0 0 0
5.53927 0.675688 4.80001 0 0 0
5.24306 1.23877 4.55542 0 0 0
5.43509 0.478982 4.7144 0 0 0
5.6959 0.641845 4.92653 0 0 0
5.35434 0.746079 4.6413 0 0 0
5.23565 1.25534 4.53979 0 0 0
5.48698 1.27823 4.74183 0 0 0
5.48557 0.910105 4.73929 0 0 0
5.40742 0.573491 4.67723 0 0 0
5.30902 0.928704 4.59324 0 0 0
5.69509 0.889559 4.90875 0 0 0
5.30659 0.947383 4.58438 0 0 0
5.7085 0.675743 4.92634 0 0 0
5.27652 1.15358 4.55804 0 0 0
5.50661 0.844172 4.74612 0 0 0
5.76029 0.703747 4.94531 0 0 0
5.57165 0.601176 4.78907 0 0 0
5.57165 0.601176 4.78907 0 0 0
5.82045 0.481457 4.9906 0 0 0
5.0155 0.414193 4.30914 0 0 0
5.12724 1.44443 4.409 0 0 0
5.4306 0.595146 4.66209 0 0 0
5.4306 0.595146 4.66209 0 0 0
5.47133 1.26271 4.6855 0 0 0
3.37325 0.303782 2.88437 0 0 0
5.02747 0.451292 4.29709 0 0 0
5.46688 0.661072 4.68531 0 0 0
5.44717 1.22912 4.65471 0 0 0
5.37776 1.27561 4.59487 0 0 0
5.34567 1.27858 4.56242 0 0 0
5.36032 1.30741 4.57466 0 0 0
3.63825 0.877991 3.1004 0 0 0
5.32102 1.28719 4.53405 0 0 0
5.28326 1.17074 4.51037 0 0 0
5.605 0.86175 4.77522 0 0 0
5.50111 0.662891 4.69395 0 0 0
5.30749 1.46874 4.51069 0 0 0
3.23503 0.387284 2.74031 0 0 0
5.27394 1.43006 4.46947 0 0 0
5.23798 1.22766 4.44401 0 0 0
5.8892 0.368013 4.98761 0 0 0
5.12877 1.41032 4.33917 0 0 0
5.58634 0.61597 4.71063 0 0 0
5.64583 0.435883 4.7562 0 0 0
5.7251 1.07205 4.7994 0 0 0
5.62662 0.61117 4.7174 0 0 0
5.65132 1.19143 4.72725 0 0 0
5.70452 0.460249 4.77038 0 0 0
5.91993 0.411329 4.94014 0 0 0
5.98255 0.915713 4.98028 0 0 0
6.13565 0.472053 5.08443 0 0 0
5.80795 0.994264 4.8116 0 0 0
5.60318 0.993981 4.65101 0 0 0
5.72344 1.19144 4.7383 0 0 0
6.00131 1.17961 4.96137 0 0 0
5.63162 1.47224 4.56468 0 0 0
5.79227 1.3199 4.63802 0 0 0
6.7248 1.42262 5.21945 0 0 0
6.72675 1.41857 5.19979 0 0 0
6.66498 1.59665 5.12388 0 0 0
10.9739 -1.92705 8.43422 0 0 0
6.65401 1.55557 5.11388 0 0 0
6.65401 1.55557 5.11388 0 0 0
11.0113 -1.83783 8.42868 0 0 0
11.0606 -1.90418 8.4574 0 0 0
10.9589 -1.90415 8.36229 0 0 0
11.0227 -1.46112 8.35358 0 0 0
10.9294 -1.89126 8.27411 0 0 0
10.6993 -1.92239 8.06247 0 0 0
7.02512 -1.3187 5.37791 0 0 0
11.0976 -1.85064 8.33688 0 0 0
10.5026 -1.29471 7.77336 0 0 0
7.18028 -0.92411 5.37204 0 0 0
10.4197 -1.07731 7.66808 0 0 0
10.3481 -0.904227 7.61072 0 0 0
10.466 -1.3023 7.69032 0 0 0
10.3493 -0.999155 7.59011 0 0 0
10.3493 -0.999155 7.59011 0 0 0
10.599 -1.14098 7.73919 0 0 0
10.4599 -1.22579 7.59787 0 0 0
7.85189 1.53626 5.66203 0 0 0
10.2039 -0.461497 7.33416 0 0 0
10.1698 -0.461183 7.29593 0 0 0
-0.567837 1.17468 2.67068 100 93 83
-0.261741 0.593314 1.38631 188 179 172
-0.611044 0.140613 3.61246 220 226 238
-0.551883 0.314211 3.38006 88 86 74
-0.426017 1.05275 2.73383 130 130 128
-0.426017 1.05275 2.73383 130 130 128
-0.520169 0.374773 3.37539 108 112 115
-0.414172 1.01132 2.78299 200 195 192
-0.40119 1.18401 2.69372 118 119 113
-0.397684 1.17662 2.69226 110 111 105
-0.401738 1.0137 2.78522 205 204 199
-0.453177 0.531507 3.25426 125 122 115
-0.473664 0.063636 3.41624 220 226 238
-0.804406 0.198713 5.85823 222 226 238
-0.444171 0.537172 3.25064 122 122 112
-0.420701 0.701084 3.14638 212 212 210
-0.387771 0.929763 2.98593 245 246 241
-0.410241 0.286363 3.30674 118 120 119
-0.373008 0.856569 3.03382 220 216 213
-0.402306 0.399984 3.28898 87 87 85
-0.359377 0.861892 3.03067 216 213 208
-0.359377 0.861892 3.03067 216 213 208
-0.421047 0.421849 3.67636 24 24 22
-0.339164 0.822774 3.05434 225 216 211
-0.426592 0.463619 4.09256 30 32 29
-0.337048 0.526665 3.25118 157 152 148
-0.344968 0.230092 3.33059 112 112 112
-0.337643 0.318568 3.2665 44 45 39
-0.315201 0.469528 3.27181 120 124 127
-0.314954 0.121936 3.35003 218 224 236
-0.251347 1.18023 2.71005 145 143 146
-0.300033 0.290708 3.30125 122 126 127
-0.336536 -0.0430644 3.71308 215 221 233
-0.284616 0.470243 3.26872 127 133 133
-0.262534 0.437118 3.28572 12 17 11
-0.217306 1.02631 2.76159 213 214 209
-0.255329 0.469327 3.26941 131 133 132
-0.244918 0.393822 3.27986 25 27 24
-0.217991 0.997777 2.94787 108 105 96
-0.190919 1.02515 2.79892 128 119 112
-0.199983 0.471308 3.36258 130 131 135
1.83825e+06 -744237 -7.76578e+06 44 46 45
-1.58651e+09 7.38153e+08 6.73434e+09 33 34 29
-0.16632 0.597704 3.17747 15 18 11
-0.148047 1.02573 2.80212 178 173 170
-0.164634 0.496536 3.26045 176 176 176
-0.152393 0.652891 3.14249 157 159 158
-0.150501 0.650856 3.13985 160 162 161
-0.123813 0.997749 2.96477 210 209 205
-0.127962 0.715376 3.10897 221 221 219
-0.115466 1.06553 2.76665 215 214 209
0.106929 -0.985645 -2.67369 223 224 219
-0.113949 0.559016 3.29359 221 221 219
-0.0939019 1.00215 2.94161 214 213 208
0.0718475 0.227663 3.56193 206 207 202
0.39704 0.808932 12.0698 207 208 203
0.117901 0.202464 3.55488 205 204 199
0.370754 1.53675 10.4024 142 146 147
0.227675 0.232067 3.54504 202 198 189
0.251356 0.199861 3.53614 197 190 180
0.257254 0.235965 3.55457 201 201 193
0.804949 0.573846 10.1412 119 119 111
0.305587 0.200972 3.52801 155 157 156
0.348457 0.245505 3.54068 118 112 100
0.359603 0.178435 3.49832 212 211 207
1.12134 0.581923 8.49908 210 207 200
0.5029 0.184873 3.49689 210 207 200
0.533291 0.251014 3.54024 209 209 199
1.23199 0.486 7.99391 207 204 197
0.544645 0.214104 3.53348 207 204 197
0.695198 0.548294 3.43218 194 194 194
0.70644 0.55334 3.43148 200 200 198
0.705571 0.57869 3.39122 218 218 216
0.751183 0.265413 3.558 152 151 149
0.891821 0.645403 4.13086 178 178 178
0.741897 0.535593 3.43481 178 178 178
0.75214 0.599193 3.40727 226 226 224
0.795889 0.402196 3.51351 27 29 24
1.40598 0.622503 5.98901 40 42 37
0.861627 0.0680963 3.63065 210 209 205
0.840321 0.199207 3.51396 211 210 206
1.8979 1.17964 7.90541 147 147 147
0.864494 0.115873 3.59219 213 212 208
0.852115 0.19942 3.51597 213 209 206
0.861832 0.186646 3.51726 208 207 203
0.95161 0.198464 3.4703 212 211 207
1.79389 -0.86463 3.90814 30 23 15
1.99342 -0.776521 4.09461 27 27 19
2.15458 -0.718481 4.2197 26 25 21
2.18177 -0.734016 4.28261 26 25 21
2.1305 -0.557163 4.15571 63 62 57
2.06844 -0.824724 4.03253 231 223 220
2.16517 -0.721215 4.21652 20 24 23
2.0406 -0.87111 3.94066 35 31 30
2.1999 -0.65925 4.22408 145 140 134
2.18788 -0.63604 4.20037 66 58 55
2.19339 -0.678212 4.20858 87 82 78
2.22762 -0.687715 4.22814 56 59 52
2.08607 -0.889587 3.95183 109 115 115
2.08607 -0.889587 3.95183 109 115 115
2.21457 -0.587846 4.19076 81 78 71
2.27195 -0.610262 4.2172 56 63 56
2.33711 -0.683306 4.254 27 29 26
2.25214 -0.851661 4.0913 90 91 83
2.32461 -0.574219 4.20988 68 68 58
2.33365 -0.610924 4.22566 74 74 64
2.36494 -0.658918 4.24511 87 82 76
2.40038 -0.69501 4.30368 87 84 77
2.28846 -0.853892 4.09177 93 90 83
2.36784 -0.576281 4.22666 62 65 58
2.40092 -0.649972 4.25626 56 56 54
1.95599 -0.437446 3.46794 68 69 63
2.41004 -0.577112 4.23349 58 51 45
2.41969 -0.610331 4.24881 73 70 65
2.44012 -0.682623 4.27676 72 68 57
2.46427 -0.63623 4.31532 73 72 68
2.44669 -0.573242 4.24157 71 72 66
2.45146 -0.591323 4.24943 70 73 64
2.35697 -0.296931 4.08503 203 202 197
2.47368 -0.661983 4.27827 64 65 57
2.40438 -0.872059 4.12894 99 97 85
2.48809 -0.646849 4.27112 91 86 80
2.5072 -0.854781 4.15215 120 113 103
2.5072 -0.854781 4.15215 120 113 103
2.51939 -0.868452 4.157 122 115 107
2.50337 -0.905551 4.10336 118 111 101
2.642 -0.86001 4.34202 120 111 102
2.68242 -0.666319 4.32813 19 19 11
2.64427 -0.846341 4.26202 120 116 107
2.68291 -0.840637 4.26937 114 110 99
2.71689 -0.401083 4.30301 169 162 152
2.6949 -0.891399 4.25667 115 111 102
1.9233 -0.291121 2.99488 165 158 148
2.72275 -0.82538 4.19886 103 98 94
2.78102 -0.826031 4.27723 81 82 76
2.83786 -0.571586 4.34196 160 153 143
2.7792 -0.335487 4.24732 145 137 126
2.7792 -0.335487 4.24732 145 137 126
2.84682 -0.576282 4.3411 159 150 141
2.8693 -0.537149 4.33378 154 149 143
2.78122 -0.435068 4.19784 146 141 135
2.89761 -0.599731 4.36147 148 148 140
2.89761 -0.599731 4.36147 148 148 140
2.84369 -0.396001 4.26065 104 94 84
2.89699 -0.815372 4.29231 47 39 36
2.85431 -0.881321 4.20182 75 77 72
2.85431 -0.881321 4.20182 75 77 72
2.88263 -0.296015 4.23791 140 143 136
2.97706 -0.60854 4.3666 126 122 113
2.98732 -0.614773 4.38402 126 122 113
2.89136 -0.339262 4.24084 114 115 107
2.97795 -0.588858 4.36074 103 104 98
2.91029 -0.808894 4.24527 28 30 25
2.98279 -0.490911 4.35431 114 115 109
3.01089 -0.560071 4.37889 119 116 109
3.01089 -0.560071 4.37889 119 116 109
2.97564 -0.310176 4.28878 122 121 116
2.97564 -0.310176 4.28878 122 121 116
2.97625 -0.885734 4.27762 64 65 60
2.97993 -0.889908 4.29694 64 65 60
3.01727 -0.800679 4.30526 120 119 114
2.97843 -0.869334 4.22487 58 60 57
2.97843 -0.869334 4.22487 58 60 57
3.05956 -0.812496 4.29571 148 149 141
3.05956 -0.812496 4.29571 148 149 141
3.17542 -0.639999 4.4395 107 108 102
3.17542 -0.639999 4.4395 107 108 102
3.15046 -0.58448 4.40058 113 115 110
3.12088 -0.78658 4.30385 102 103 95
3.12195 -0.804111 4.29762 87 88 80
3.17827 -0.356987 4.33379 118 117 112
3.19162 -0.777131 4.31461 96 97 91
3.19101 -0.8543 4.29152 45 49 48
3.3239 -0.48802 4.44087 102 103 97
3.31884 -0.551512 4.38889 124 121 112
3.37305 -0.568519 4.47345 124 121 112
3.38374 -0.604959 4.48468 113 114 108
3.39543 -0.604483 4.49204 121 122 116
3.40893 -0.498588 4.46088 110 107 100
3.44466 -0.616251 4.50328 105 108 101
3.42529 -0.514031 4.47376 113 115 110
3.42246 -0.491631 4.46812 132 129 122
3.38944 -0.559936 4.40356 129 130 124
3.55867 -0.286407 4.49912 115 105 95
3.5996 -0.555108 4.53074 119 109 99
3.4664 0.942171 4.36326 133 109 85
3.52599 -0.237737 4.42099 128 122 110
3.60634 -0.540953 4.5212 118 109 100
3.62532 -0.544901 4.53465 119 111 100
3.45043 -0.118415 4.30377 128 122 110
3.61374 -0.488334 4.51553 107 100 90
3.61374 -0.488334 4.51553 107 100 90
3.62774 -0.311664 4.48388 108 99 90
3.55581 0.280111 4.23969 101 94 86
3.61497 0.2841 4.27674 0 0 0
3.75191 -0.00515886 4.42759 0 0 0
3.67772 -0.845549 4.30142 0 0 0
3.73104 0.392346 4.31015 0 0 0
3.87171 -0.356568 4.47322 0 0 0
3.69615 0.525843 4.25413 0 0 0
3.9546 -0.652215 4.28422 0 0 0
3.95149 -0.63137 4.27664 0 0 0
3.98913 -0.605772 4.28585 0 0 0
3.99803 -0.634918 4.29411 0 0 0
4.10719 -0.309013 4.28696 0 0 0
4.03589 -0.820469 4.13163 0 0 0
4.08065 -0.822501 4.18791 0 0 0
4.1187 -0.798286 4.2206 0 0 0
4.39543 -0.707009 4.45496 0 0 0
4.31716 -0.608372 4.37434 0 0 0
4.15436 -0.815259 4.20278 0 0 0
4.15436 -0.815259 4.20278 0 0 0
4.39307 -0.583567 4.38501 0 0 0
4.20525 -0.717912 4.16679 0 0 0
4.28711 -0.741349 4.26596 0 0 0
4.44312 -0.59743 4.40375 0 0 0
4.25668 -0.70931 4.1706 0 0 0
4.35088 0.396111 4.2084 0 0 0
4.79616 0.457989 4.58844 0 0 0
4.79185 0.444035 4.57705 0 0 0
4.76845 0.685063 4.53311 0 0 0
3.41682 0.323467 3.24008 0 0 0
5.08365 0.724786 4.77507 0 0 0
4.89821 0.387679 4.59361 0 0 0
4.68858 0.418989 4.32824 0 0 0
5.16895 0.777389 4.7715 0 0 0
5.0243 0.43241 4.62919 0 0 0
2.97482 0.467867 2.72757 0 0 0
4.73716 0.435356 4.33628 0 0 0
5.02198 0.662885 4.59702 0 0 0
5.18875 0.889815 4.74536 0 0 0
5.16501 1.00238 4.69887 0 0 0
3.82014 0.887595 3.16056 0 0 0
5.19493 0.478216 4.69226 0 0 0
4.8224 0.43398 4.34467 0 0 0
3.34006 0.351861 2.99818 0 0 0
5.18784 0.544779 4.65248 0 0 0
3.37035 0.256315 3.01668 0 0 0
5.2341 0.396905 4.68478 0 0 0
5.32841 0.253267 4.76515 0 0 0
5.24827 0.456033 4.68988 0 0 0
5.25682 0.513508 4.69036 0 0 0
5.17492 0.690495 4.61059 0 0 0
5.23536 0.596992 4.66209 0 0 0
5.10407 1.07548 4.51019 0 0 0
5.24494 0.745737 4.63193 0 0 0
5.02597 1.28458 4.42513 0 0 0
5.19686 0.952313 4.56499 0 0 0
5.28499 0.747003 4.64201 0 0 0
5.30758 0.704099 4.65008 0 0 0
4.91907 0.652501 4.26934 0 0 0
5.28677 0.820689 4.61483 0 0 0
5.33946 0.491189 4.65537 0 0 0
5.1519 1.2179 4.48941 0 0 0
5.13191 1.26494 4.46901 0 0 0
5.30879 0.394639 4.62194 0 0 0
5.16107 1.24228 4.486 0 0 0
5.36688 0.499628 4.66028 0 0 0
5.36917 0.491348 4.66219 0 0 0
5.16507 1.24957 4.48145 0 0 0
5.30445 0.687886 4.59981 0 0 0
5.49464 0.258615 4.76399 0 0 0
5.37487 0.418745 4.65869 0 0 0
5.34221 0.581898 4.62844 0 0 0
4.98737 0.420034 4.31284 0 0 0
5.5872 0.874366 4.89247 0 0 0
5.19318 1.22293 4.48917 0 0 0
5.23805 1.08012 4.52564 0 0 0
5.37457 0.547476 4.6428 0 0 0
5.37775 0.607864 4.64517 0 0 0
5.26493 0.896168 4.54759 0 0 0
5.36971 0.574427 4.62791 0 0 0
5.21195 1.19365 4.48749 0 0 0
5.29391 0.91236 4.54624 0 0 0
5.35022 0.824108 4.58558 0 0 0
5.39245 0.704661 4.61693 0 0 0
5.18828 1.21675 4.44068 0 0 0
5.40764 0.547914 4.62709 0 0 0
5.30084 0.995297 4.53058 0 0 0
5.4547 0.539707 4.64433 0 0 0
5.46374 0.510402 4.64892 0 0 0
2.86257 0.266828 2.42991 0 0 0
5.26592 1.20361 4.47582 0 0 0
5.47049 0.551541 4.64696 0 0 0
5.33956 0.940478 4.5357 0 0 0
2.89943 0.269414 2.45251 0 0 0
5.10764 1.32224 4.33129 0 0 0
5.09402 1.38811 4.31064 0 0 0
5.68965 0.320626 4.80106 0 0 0
5.65625 0.353485 4.7701 0 0 0
5.51137 0.706959 4.6389 0 0 0
5.11071 0.59511 4.29211 0 0 0
5.45985 0.87576 4.59135 0 0 0
5.62831 0.463261 4.71584 0 0 0
5.59809 0.699249 4.68201 0 0 0
5.59252 0.755223 4.67128 0 0 0
5.2578 1.25817 4.39023 0 0 0
5.2578 1.25817 4.39023 0 0 0
3.77683 0.480296 3.15077 0 0 0
5.14233 0.634853 4.25872 0 0 0
5.67012 0.444568 4.72541 0 0 0
5.16516 0.526173 4.27216 0 0 0
5.91645 0.938728 4.98019 0 0 0
5.57851 0.82911 4.63995 0 0 0
5.68025 0.418207 4.70863 0 0 0
5.68025 0.418207 4.70863 0 0 0
5.52158 1.09512 4.57639 0 0 0
5.54837 0.98149 4.59649 0 0 0
5.56175 1.00885 4.56807 0 0 0
5.39303 1.26312 4.42878 0 0 0
5.52891 1.30343 4.4428 0 0 0
-0.523577 1.16728 2.72869 128 128 126
-0.508032 1.04069 2.79862 42 37 34
-0.450439 1.075 2.7704 215 214 209
-0.441 1.16586 2.74959 151 151 151
-0.396553 0.686046 3.07284 200 199 195
-0.0565826 0.208937 5.72005 213 220 228
-0.379507 0.123951 3.35621 220 227 235
-0.337012 0.361056 3.15614 179 180 175
-0.325536 0.207096 3.18128 220 227 235
-0.131515 1.05195 2.84612 45 47 42
-0.0691292 0.116423 3.21523 217 214 209
0.132933 0.229647 3.44304 205 201 192
1.80681 1.43673 10.7577 21 23 18
0.301738 0.189883 3.32496 212 209 200
0.37596 0.175094 3.43468 145 135 126
0.47699 0.239563 3.53786 217 214 207
0.777384 0.385257 3.51721 209 206 199
0.837066 0.376981 3.57312 210 209 204
0.980916 0.874024 2.86489 10 15 9
1.01855 0.653677 2.91736 164 164 156
1.0595 0.712843 2.91723 189 186 179
1.6014 -1.04795 3.75562 71 54 46
2.38676 -0.709991 4.30364 113 106 96
2.39809 -0.535076 4.24897 23 24 19
1.9642 -1.06672 3.82348 109 105 94
1.75594 -0.948726 3.42419 112 108 96
2.27397 -0.915152 4.01789 72 62 53
2.66019 -0.863056 4.25095 81 80 75
1.66233 -0.297921 2.97606 148 142 128
2.64768 -0.411791 4.12845 169 163 149
2.73723 -0.372872 4.16019 138 134 125
3.69805 -0.750376 4.36824 105 101 90
3.64315 -0.825698 4.31807 113 109 100
4.34527 -0.77529 4.81012 110 106 94
5.29828 0.403783 4.75802 0 0 0
5.3477 0.978701 4.68353 0 0 0
5.01056 0.389177 4.35573 0 0 0
0.0613195 1.00535 3.47004 220 221 216
1.15695 0.766185 3.14608 227 227 225
1.18268 0.768638 3.15429 226 227 222
1.2382 0.771845 3.17254 227 228 223
1.3304 0.850013 3.19226 220 221 216
1.3304 0.850013 3.19226 220 221 216
1.3742 0.806448 3.21022 233 232 227
1.49045 0.881024 3.33027 152 149 144
1.49976 0.779404 3.25844 162 163 157
1.61729 0.875181 3.35444 161 162 154
2.03239 -0.587333 3.67888 61 61 53
2.38812 -0.685811 4.30032 63 64 56
2.39592 -0.653591 4.30715 101 101 91
2.40612 -0.900794 4.22381 102 93 84
2.49938 -0.866625 4.24341 107 103 94
2.25606 -0.844373 3.78037 106 101 95
2.63052 -0.898628 4.25963 122 118 107
2.69603 -0.680845 4.3424 18 19 13
2.74861 -0.856169 4.26839 113 109 98
2.78686 -0.886743 4.27046 86 85 80
2.81723 -0.846732 4.27521 82 81 77
2.35302 -0.670898 3.50993 44 46 43
3.17119 -0.620811 4.39407 107 106 102
3.13157 -0.861806 4.28376 48 53 49
2.57614 -0.589202 3.34663 91 91 83
3.45874 -0.623688 4.4222 102 95 85
2.4421 -0.352771 3.05447 118 110 99
3.99818 0.860369 3.88221 0 0 0
4.72153 0.449316 4.47722 0 0 0
3.30641 0.291396 2.98154 0 0 0
5.01746 0.248463 4.37843 0 0 0
5.58006e+08 -2.6482e+09 -1.71215e+10 209 206 199
0.0786981 0.548176 4.573 208 205 196
0.247172 0.234119 3.53704 184 182 183
-1.52326 1.27425 20.0981 186 184 185
2.72196 -0.818306 5.31798 87 80 72
2.37078 -0.683343 4.30862 87 80 72
2.44757 -0.951413 4.239 17 19 16
2.47486 -0.638732 4.32502 66 69 60
2.50047 -0.950132 4.2395 86 92 82
2.54213 -0.532212 4.30648 205 206 200
2.61587 -0.852222 4.27343 72 73 65
2.6206 -0.887444 4.27874 64 59 55
2.69088 -0.619211 4.33956 115 102 94
2.68781 -0.616174 4.32987 115 102 94
2.76052 -0.915149 4.26584 25 28 21
2.76052 -0.915149 4.26584 25 28 21
2.84438 -0.496145 4.33612 211 210 206
2.86618 -0.818793 4.29222 162 158 146
2.89361 -0.340892 4.26604 21 22 17
2.93733 -0.520931 4.33884 188 182 170
2.92856 -0.893701 4.28313 136 132 123
3.05189 -0.876786 4.29433 114 111 104
3.05189 -0.876786 4.29433 114 111 104
3.06266 -0.790861 4.3062 125 126 120
3.10536 -0.784939 4.30994 111 112 106
3.14082 -0.780914 4.31226 108 109 103
3.19475 -0.796616 4.32397 116 117 111
3.27911 -0.552774 4.37895 135 130 124
3.26211 -0.767895 4.32836 110 111 105
3.31388 -0.506231 4.36937 115 103 91
3.32744 -0.55718 4.38266 141 142 136
3.34369 -0.756099 4.33341 125 121 110
3.53917 -0.494588 4.38835 132 124 113
3.8078 -0.862395 4.1234 0 0 0
4.00702 -0.76091 4.14866 0 0 0
4.0868 -0.759375 4.13401 0 0 0
4.13633 -0.751203 4.1326 0 0 0
4.22693 -0.604097 4.22434 0 0 0
4.21794 -0.738955 4.13528 0 0 0
4.22612 -0.791606 4.12224 0 0 0
4.22612 -0.791606 4.12224 0 0 0
4.28335 -0.781786 4.148 0 0 0
4.47792 0.404166 4.25299 0 0 0
4.52564 0.417617 4.2607 0 0 0
4.52644 0.417095 4.26201 0 0 0
4.53675 0.370151 4.24438 0 0 0
4.65688 0.370136 4.24816 0 0 0
4.84382 0.418732 4.28266 0 0 0
4.90307 0.474046 4.28039 0 0 0
5.04169 0.462056 4.20117 0 0 0
5.08226 0.559262 4.17112 0 0 0
5.09878 0.552225 4.19249 0 0 0
-2.2533e+06 -880501 1.30063e+06 130 146 146
-1.99591e+06 -803050 1.18181e+06 164 177 186
-1.85387e+06 -737772 1.119e+06 37 38 30
-1.3458e+06 -564387 818325 164 174 184
-1.48329e+06 -617181 901678 163 173 183
-1062.54 -452.156 653.776 166 174 185
-15.3471 -8.66387 12.4595 165 173 184
-1.09397e+06 -455177 670719 165 173 184
-421.961 -185.208 270.881 163 171 182
-191.993 -86.7236 125.922 162 172 182
-175.631 -79.8944 116.069 161 171 181
-337.696 -137.078 223.693 21 26 19
8.47754 -0.625178 5.85375 0 0 0
8.47754 -0.625178 5.85375 0 0 0
8.6926 -0.663668 5.93404 0 0 0
