ply
format ascii 1.0 
element vertex 1440
property float32 x 
property float32 y 
property float32 z
property uchar red  
property uchar green
property uchar blue
element face 0
property list uchar int vertex_indices
end_header
0.914282 -1.41665 4.66713 0 0 0
0.909571 -1.15621 4.64102 0 0 0
0.908094 -0.5395 4.60793 0 0 0
0.917091 -0.840299 4.62354 0 0 0
0.918314 -0.818196 4.62028 0 0 0
0.924337 -0.685625 4.6194 0 0 0
0.929718 -1.31038 4.64315 0 0 0
0.931554 -0.990556 4.62355 0 0 0
0.829247 0.789633 4.11094 0 0 0
0.937633 -1.27286 4.64476 0 0 0
0.93534 -1.06872 4.63163 0 0 0
0.943772 -1.23074 4.64098 0 0 0
0.946089 -0.840401 4.6145 0 0 0
0.887486 0.0757677 4.32654 0 0 0
0.889072 -0.135902 4.32851 0 0 0
0.953484 -1.16086 4.63654 0 0 0
0.956436 -1.31683 4.64011 0 0 0
0.956436 -1.31683 4.64011 0 0 0
0.951933 -0.53848 4.60087 0 0 0
0.857916 0.711004 4.11731 0 0 0
0.856493 0.820172 4.10701 0 0 0
0.856493 0.820172 4.10701 0 0 0
0.967866 -0.844795 4.60296 0 0 0
0.970559 -0.846535 4.61504 0 0 0
0.97312 -0.832269 4.61491 0 0 0
0.984685 -1.16689 4.62405 0 0 0
0.984685 -1.16689 4.62405 0 0 0
0.990361 -1.3159 4.63811 0 0 0
0.885491 0.462361 4.13547 0 0 0
0.989014 -0.97158 4.61463 0 0 0
0.867574 1.02791 4.04719 0 0 0
0.996899 -0.863085 4.61455 0 0 0
1.00096 -1.16192 4.62286 0 0 0
0.998723 -0.969938 4.61117 0 0 0
0.897436 0.310654 4.14039 0 0 0
0.998818 -0.517332 4.58181 0 0 0
1.01509 -1.32172 4.63145 0 0 0
0.898581 0.915463 4.07995 0 0 0
0.909442 0.431755 4.1282 0 0 0
1.01485 -0.533122 4.60247 0 0 0
1.0217 -1.21802 4.62417 0 0 0
1.0217 -1.21802 4.62417 0 0 0
1.02196 -0.844771 4.61114 0 0 0
1.02687 -1.19214 4.61761 0 0 0
1.02373 -0.685664 4.59999 0 0 0
0.921883 0.339092 4.13429 0 0 0
1.03351 -1.18295 4.61407 0 0 0
0.927457 0.416985 4.12927 0 0 0
0.92229 0.608761 4.10516 0 0 0
0.92229 0.608761 4.10516 0 0 0
0.91606 0.560601 4.07278 0 0 0
1.03396 -0.528979 4.58167 0 0 0
0.925448 0.813883 4.09838 0 0 0
1.03924 -0.671903 4.59135 0 0 0
1.05954 -1.59811 4.64657 0 0 0
0.94438 0.335163 4.12864 0 0 0
0.94438 0.335163 4.12864 0 0 0
1.06015 -1.32368 4.62245 0 0 0
0.94956 0.346548 4.12911 0 0 0
1.07022 -1.40837 4.63048 0 0 0
1.07022 -1.40837 4.63048 0 0 0
1.07168 -1.39071 4.62307 0 0 0
1.06923 -0.689146 4.58767 0 0 0
1.06771 0.10116 4.55113 0 0 0
1.07666 0.000878498 4.54835 0 0 0
1.09713 -1.52844 4.62306 0 0 0
1.09092 -0.526823 4.57785 0 0 0
1.09301 -0.0185003 4.55032 0 0 0
1.09945 0.0984597 4.53526 0 0 0
1.12485 -1.4069 4.62442 0 0 0
1.12668 -1.32393 4.61702 0 0 0
1.13598 -1.61876 4.62513 0 0 0
1.12677 -0.538114 4.5692 0 0 0
1.13464 -0.849324 4.59281 0 0 0
1.13483 -0.522926 4.56693 0 0 0
1.14898 -1.32637 4.60307 0 0 0
1.14898 -1.32637 4.60307 0 0 0
1.15788 -1.44953 4.61841 0 0 0
1.15721 -1.03724 4.61107 0 0 0
1.15729 -1.15047 4.59943 0 0 0
1.16508 -1.48475 4.61854 0 0 0
1.16918 -1.41973 4.61567 0 0 0
1.15876 -0.838151 4.57184 0 0 0
1.16987 -1.06619 4.59358 0 0 0
1.15087 0.251603 4.51435 0 0 0
1.17457 -1.04805 4.59256 0 0 0
1.17457 -1.04805 4.59256 0 0 0
1.16121 0.1083 4.53655 0 0 0
1.18125 -1.55104 4.61347 0 0 0
1.18125 -1.55104 4.61347 0 0 0
1.1826 -1.57661 4.61741 0 0 0
1.18159 -1.56511 4.61226 0 0 0
1.16147 0.305049 4.51485 0 0 0
1.16623 -0.0272387 4.53251 0 0 0
1.18713 -1.4153 4.61084 0 0 0
1.17455 -0.523244 4.56185 0 0 0
1.16834 -0.186955 4.53659 0 0 0
1.16929 0.0975241 4.53302 0 0 0
1.18532 -1.08262 4.58795 0 0 0
1.16746 0.297324 4.51326 0 0 0
1.18125 -0.159745 4.53926 0 0 0
1.1969 -1.16394 4.58973 0 0 0
1.18663 -0.39154 4.54993 0 0 0
1.19575 -0.843121 4.58246 0 0 0
1.17908 0.200517 4.51628 0 0 0
1.18561 -0.190901 4.53694 0 0 0
1.18133 0.305266 4.51832 0 0 0
1.2003 -1.05923 4.58659 0 0 0
1.20096 -0.752843 4.57237 0 0 0
1.18605 0.254462 4.51089 0 0 0
1.18605 0.254462 4.51089 0 0 0
1.2063 -0.700488 4.58267 0 0 0
1.21029 -1.32793 4.59562 0 0 0
1.20827 -0.843164 4.57689 0 0 0
1.20827 -0.843164 4.57689 0 0 0
1.19386 0.227782 4.51895 0 0 0
1.19841 -0.0272674 4.53177 0 0 0
1.19841 -0.0272674 4.53177 0 0 0
1.21719 -1.50599 4.60278 0 0 0
1.21719 -1.50599 4.60278 0 0 0
1.19925 0.0919624 4.52384 0 0 0
1.2142 -0.714844 4.57244 0 0 0
1.20212 -0.0848552 4.52682 0 0 0
1.21923 -1.22707 4.59082 0 0 0
1.19692 0.383266 4.49805 0 0 0
1.20121 0.298372 4.5089 0 0 0
1.20121 0.298372 4.5089 0 0 0
1.21754 -0.740809 4.56625 0 0 0
1.22305 -1.02829 4.58052 0 0 0
1.21077 -0.185076 4.53446 0 0 0
1.21463 -0.0524998 4.52827 0 0 0
1.21463 -0.0524998 4.52827 0 0 0
1.23782 -1.5693 4.60931 0 0 0
1.23268 -1.1651 4.5876 0 0 0
1.23268 -1.1651 4.5876 0 0 0
1.2113 0.427784 4.50328 0 0 0
1.2113 0.427784 4.50328 0 0 0
1.2189 -0.0860516 4.5286 0 0 0
1.21065 0.750985 4.48484 0 0 0
1.24408 -1.58283 4.60408 0 0 0
1.21768 0.502168 4.49782 0 0 0
1.22132 0.41045 4.50278 0 0 0
1.21913 0.680243 4.48838 0 0 0
1.21913 0.680243 4.48838 0 0 0
1.21881 0.866853 4.47543 0 0 0
1.24912 -1.16953 4.58327 0 0 0
1.23607 -0.171269 4.53125 0 0 0
1.22691 0.518522 4.49617 0 0 0
1.24952 -1.06685 4.57848 0 0 0
1.25798 -1.57286 4.60843 0 0 0
1.22896 0.298004 4.50153 0 0 0
1.25281 -1.232 4.58754 0 0 0
1.24884 -0.70175 4.56538 0 0 0
1.22657 0.667128 4.48392 0 0 0
1.23589 0.089609 4.5165 0 0 0
1.2362 0.109123 4.51308 0 0 0
1.24257 0.248529 4.50947 0 0 0
1.24771 -0.283324 4.52801 0 0 0
1.26084 -1.05539 4.57446 0 0 0
1.26632 -1.22362 4.58865 0 0 0
1.23936 0.45302 4.48949 0 0 0
1.25581 -0.371397 4.54368 0 0 0
1.27074 -1.4089 4.59272 0 0 0
1.24954 -0.0164038 4.51431 0 0 0
1.27151 -1.17371 4.58206 0 0 0
1.26913 -0.858836 4.57103 0 0 0
1.27582 -1.43637 4.59334 0 0 0
1.25691 -0.175559 4.52248 0 0 0
1.25496 0.0939932 4.51541 0 0 0
1.2453 0.856475 4.48037 0 0 0
1.244 0.875601 4.47482 0 0 0
1.28277 -1.57335 4.60315 0 0 0
1.27887 -1.33439 4.58597 0 0 0
1.27887 -1.33439 4.58597 0 0 0
1.2495 0.842135 4.47228 0 0 0
1.2495 0.842135 4.47228 0 0 0
1.28304 -1.46759 4.58552 0 0 0
1.25902 0.255834 4.49887 0 0 0
1.25902 0.255834 4.49887 0 0 0
1.25962 0.379234 4.48966 0 0 0
1.28335 -1.05672 4.5725 0 0 0
1.28335 -1.05672 4.5725 0 0 0
1.27218 -0.345477 4.53128 0 0 0
1.28266 -0.906152 4.56573 0 0 0
1.27326 -0.279694 4.53104 0 0 0
1.29109 -1.27162 4.57627 0 0 0
1.26198 0.853691 4.47139 0 0 0
1.28995 -0.882122 4.56687 0 0 0
1.29171 -1.17773 4.57258 0 0 0
1.29171 -1.17773 4.57258 0 0 0
1.27837 -0.227462 4.52467 0 0 0
1.26575 0.532065 4.48 0 0 0
1.2995 -1.60444 4.5989 0 0 0
1.2995 -1.60444 4.5989 0 0 0
1.26964 0.399367 4.49174 0 0 0
1.28858 -0.846099 4.55457 0 0 0
1.30209 -1.58758 4.60015 0 0 0
1.29712 -1.22351 4.58046 0 0 0
1.27388 0.245258 4.49804 0 0 0
1.29814 -1.44258 4.58026 0 0 0
1.29656 -1.03832 4.56971 0 0 0
1.29656 -1.03832 4.56971 0 0 0
1.29853 -1.19237 4.56965 0 0 0
1.27991 0.236707 4.50391 0 0 0
1.2887 -0.269303 4.53387 0 0 0
1.27952 0.323369 4.50049 0 0 0
1.27952 0.323369 4.50049 0 0 0
1.27007 0.296789 4.46696 0 0 0
1.27465 0.297474 4.48288 0 0 0
1.27465 0.297474 4.48288 0 0 0
1.30211 -1.20837 4.5745 0 0 0
1.29281 -0.316167 4.53035 0 0 0
1.29275 -0.2929 4.52722 0 0 0
1.31336 -1.57055 4.59621 0 0 0
1.30719 -1.16815 4.57205 0 0 0
1.28167 0.517096 4.47765 0 0 0
1.29605 -0.219326 4.52398 0 0 0
1.29997 -0.279535 4.535 0 0 0
1.29997 -0.279535 4.535 0 0 0
1.31212 -1.15921 4.57687 0 0 0
1.28326 0.570019 4.47391 0 0 0
1.28065 0.754247 4.46305 0 0 0
1.29899 -0.238582 4.5266 0 0 0
1.31194 -1.04085 4.56631 0 0 0
1.29382 0.298467 4.50295 0 0 0
1.30333 -0.329488 4.52713 0 0 0
1.32483 -1.58057 4.59803 0 0 0
1.32483 -1.58057 4.59803 0 0 0
1.32241 -1.31694 4.58362 0 0 0
1.32239 -1.45159 4.58302 0 0 0
1.29013 0.865521 4.47051 0 0 0
1.29711 0.374635 4.49303 0 0 0
1.30029 0.25202 4.50302 0 0 0
1.30658 -0.191615 4.52297 0 0 0
1.2925 0.841556 4.46702 0 0 0
1.30464 0.160542 4.49616 0 0 0
1.31663 -0.387131 4.53664 0 0 0
1.31663 -0.387131 4.53664 0 0 0
1.29983 0.658676 4.47423 0 0 0
1.33141 -1.22087 4.58104 0 0 0
1.33413 -1.45633 4.58425 0 0 0
1.31139 0.388359 4.49593 0 0 0
1.30558 0.678751 4.46915 0 0 0
1.30486 0.524986 4.46619 0 0 0
1.32247 -0.36757 4.51689 0 0 0
1.32334 -0.272404 4.51812 0 0 0
1.31807 0.373902 4.49494 0 0 0
1.31807 0.373902 4.49494 0 0 0
1.33944 -1.18845 4.56653 0 0 0
1.34456 -1.40729 4.58182 0 0 0
1.34352 -1.16138 4.567 0 0 0
1.32101 0.359089 4.48623 0 0 0
1.32749 0.0753955 4.50376 0 0 0
1.33277 -0.190032 4.51925 0 0 0
1.31169 0.820805 4.44601 0 0 0
1.32225 0.655488 4.4806 0 0 0
1.31827 0.824581 4.46577 0 0 0
1.35106 -1.45631 4.57275 0 0 0
1.35306 -1.20834 4.57349 0 0 0
1.33776 0.0965668 4.49941 0 0 0
1.3657 -1.58548 4.5893 0 0 0
1.35917 -1.47041 4.56714 0 0 0
1.35917 -1.47041 4.56714 0 0 0
1.35325 -0.853081 4.54721 0 0 0
1.35916 -1.20088 4.56636 0 0 0
1.33507 0.53373 4.4763 0 0 0
1.33822 0.172735 4.48688 0 0 0
1.34942 -0.213713 4.51364 0 0 0
1.34412 0.155756 4.48961 0 0 0
1.35915 -0.581215 4.53716 0 0 0
1.34005 0.605754 4.47258 0 0 0
1.33983 0.634442 4.47154 0 0 0
1.33983 0.634442 4.47154 0 0 0
1.35087 -0.00980132 4.50689 0 0 0
1.35113 -0.0275861 4.50255 0 0 0
1.35043 0.0560338 4.49768 0 0 0
1.36128 -0.558604 4.53185 0 0 0
1.36128 -0.558604 4.53185 0 0 0
1.34333 0.565816 4.47203 0 0 0
1.34333 0.565816 4.47203 0 0 0
1.34001 0.876748 4.45319 0 0 0
1.355 -8.07304e-05 4.50295 0 0 0
1.355 -8.07304e-05 4.50295 0 0 0
1.34323 0.834467 4.46271 0 0 0
1.33869 0.899754 4.4461 0 0 0
1.37535 -1.22189 4.56517 0 0 0
1.37535 -1.22189 4.56517 0 0 0
1.35691 0.0251098 4.50148 0 0 0
1.36984 -0.869048 4.54409 0 0 0
1.37226 -0.85536 4.54767 0 0 0
1.36084 -0.193653 4.50894 0 0 0
1.34993 0.626989 4.4671 0 0 0
1.38075 -1.37114 4.56808 0 0 0
1.38075 -1.37114 4.56808 0 0 0
1.35009 0.650305 4.46666 0 0 0
1.38062 -1.16792 4.56395 0 0 0
1.36055 -0.0168242 4.49749 0 0 0
1.36387 0.097182 4.50637 0 0 0
1.37268 -0.378681 4.52369 0 0 0
1.36366 0.0584504 4.49124 0 0 0
1.37499 -0.601078 4.52664 0 0 0
1.35854 0.665301 4.4706 0 0 0
1.38555 -1.05626 4.55491 0 0 0
1.38247 -0.694941 4.536 0 0 0
1.38247 -0.694941 4.536 0 0 0
1.39215 -1.26236 4.55747 0 0 0
1.39326 -1.20437 4.55782 0 0 0
1.37861 -0.220148 4.50546 0 0 0
1.38458 -0.540345 4.52459 0 0 0
1.37743 -0.0298523 4.50013 0 0 0
1.39066 -0.851549 4.53996 0 0 0
1.35982 0.900782 4.43894 0 0 0
1.35982 0.900782 4.43894 0 0 0
1.36155 0.890307 4.4418 0 0 0
1.39468 -0.870437 4.54033 0 0 0
1.40613 -1.51574 4.57525 0 0 0
1.38875 -0.205078 4.50686 0 0 0
1.4111 -1.41551 4.57217 0 0 0
1.37851 0.557994 4.45938 0 0 0
1.41286 -1.41179 4.56552 0 0 0
1.38232 0.828402 4.44728 0 0 0
1.38557 0.593113 4.45482 0 0 0
1.39628 0.0946787 4.48851 0 0 0
1.39962 -0.0250978 4.4966 0 0 0
1.4221 -1.48497 4.56644 0 0 0
1.39051 0.583365 4.45367 0 0 0
1.39051 0.583365 4.45367 0 0 0
1.43147 -1.60251 4.58203 0 0 0
1.42766 -1.40631 4.56618 0 0 0
1.40437 -0.0128233 4.48847 0 0 0
1.39986 0.148766 4.46842 0 0 0
1.39817 0.626997 4.45077 0 0 0
1.39817 0.626997 4.45077 0 0 0
1.41851 -0.376489 4.5109 0 0 0
1.41374 0.093068 4.48481 0 0 0
1.41641 -0.0238482 4.49173 0 0 0
1.40642 0.508965 4.45694 0 0 0
1.41064 0.504294 4.45779 0 0 0
1.4143 0.524814 4.45621 0 0 0
1.4293 -0.197766 4.50185 0 0 0
1.44361 -1.0244 4.54646 0 0 0
1.41423 0.668173 4.4516 0 0 0
1.44854 -1.3329 4.55484 0 0 0
1.45091 -1.03658 4.55324 0 0 0
1.4519 -1.04689 4.55104 0 0 0
1.41859 0.793407 4.43938 0 0 0
1.45752 -1.0452 4.54223 0 0 0
1.42606 0.825665 4.43845 0 0 0
1.43387 0.376126 4.46153 0 0 0
1.43207 0.539672 4.4551 0 0 0
1.42418 0.847192 4.42916 0 0 0
1.45968 -1.14561 4.53936 0 0 0
1.44161 0.0960564 4.48166 0 0 0
1.44211 0.160032 4.46975 0 0 0
1.44712 -0.0240393 4.48501 0 0 0
1.44977 -0.0909297 4.48954 0 0 0
1.47094 -1.33849 4.55026 0 0 0
1.47138 -1.22507 4.54546 0 0 0
1.47691 -1.06273 4.54498 0 0 0
1.44853 0.669793 4.44743 0 0 0
1.45001 0.538082 4.45017 0 0 0
1.4558 0.167657 4.46504 0 0 0
1.45486 0.39351 4.46123 0 0 0
1.45792 0.145676 4.46949 0 0 0
1.45792 0.145676 4.46949 0 0 0
1.4671 -0.192963 4.49471 0 0 0
1.4671 -0.192963 4.49471 0 0 0
1.44937 0.321883 4.439 0 0 0
1.45333 0.683508 4.44418 0 0 0
1.45511 0.262777 4.44742 0 0 0
1.44765 0.862397 4.42384 0 0 0
1.45457 0.343398 4.44417 0 0 0
1.45676 0.287937 4.4459 0 0 0
1.488 -1.15826 4.54065 0 0 0
1.48865 -1.18895 4.53807 0 0 0
1.47102 -0.16965 4.48287 0 0 0
1.49245 -1.39192 4.54809 0 0 0
1.46529 0.236202 4.46435 0 0 0
1.4567 0.848494 4.43658 0 0 0
1.48061 -0.539793 4.50651 0 0 0
1.48886 -0.853343 4.52772 0 0 0
1.48598 -0.524881 4.51452 0 0 0
1.48775 -0.862043 4.51937 0 0 0
1.4862 -0.704907 4.51339 0 0 0
1.50092 -1.40766 4.5532 0 0 0
1.49783 -1.23774 4.54261 0 0 0
1.46992 0.226486 4.45501 0 0 0
1.47587 0.093421 4.47286 0 0 0
1.49479 -1.20012 4.52763 0 0 0
1.49697 -1.05965 4.53191 0 0 0
1.48967 -0.504891 4.5016 0 0 0
1.4763 0.215127 4.45648 0 0 0
1.5024 -1.25352 4.53514 0 0 0
1.47763 0.403833 4.45941 0 0 0
1.50358 -1.03438 4.53239 0 0 0
1.49472 -0.426564 4.50558 0 0 0
1.49952 -0.694316 4.51673 0 0 0
1.47289 0.846168 4.43613 0 0 0
1.47809 0.25461 4.44892 0 0 0
1.49141 -0.166967 4.48519 0 0 0
1.49472 -0.189641 4.48685 0 0 0
1.47815 0.61565 4.43674 0 0 0
1.48155 0.524646 4.44629 0 0 0
1.48357 0.553939 4.44489 0 0 0
1.48715 0.271042 4.45455 0 0 0
1.51231 -1.05373 4.51663 0 0 0
1.50403 -0.386554 4.48918 0 0 0
1.48361 0.872466 4.42328 0 0 0
1.48313 0.813512 4.42159 0 0 0
1.48605 0.862058 4.42278 0 0 0
1.52839 -1.22304 4.54492 0 0 0
1.51416 -0.521789 4.49857 0 0 0
1.49991 0.401004 4.45459 0 0 0
1.51313 -0.357767 4.48942 0 0 0
1.49315 0.801496 4.42203 0 0 0
1.49315 0.801496 4.42203 0 0 0
1.49568 0.750978 4.42628 0 0 0
1.5083 0.019913 4.46196 0 0 0
1.5083 0.019913 4.46196 0 0 0
1.49962 0.846724 4.42755 0 0 0
1.50311 0.603534 4.43506 0 0 0
1.52152 -0.372078 4.48902 0 0 0
1.5069 0.611757 4.43577 0 0 0
1.55007 -1.39516 4.53344 0 0 0
1.52788 -0.0381504 4.46757 0 0 0
1.52788 -0.0381504 4.46757 0 0 0
1.51044 0.89985 4.41489 0 0 0
1.52039 0.542222 4.44385 0 0 0
1.52039 0.542222 4.44385 0 0 0
1.54026 -0.538516 4.50184 0 0 0
1.55137 -1.19281 4.53023 0 0 0
1.53939 -0.203639 4.48252 0 0 0
1.55178 -1.03764 4.51785 0 0 0
1.52081 0.684042 4.42641 0 0 0
1.56757 -1.58117 4.55465 0 0 0
1.51839 0.873775 4.41152 0 0 0
1.55906 -1.2092 4.52904 0 0 0
1.55906 -1.2092 4.52904 0 0 0
1.56517 -1.43773 4.53789 0 0 0
1.5388 0.0475693 4.46063 0 0 0
1.53562 0.18107 4.45036 0 0 0
1.55285 -0.474889 4.49062 0 0 0
1.57135 -1.33844 4.535 0 0 0
1.57135 -1.33844 4.535 0 0 0
1.55256 -0.178419 4.47944 0 0 0
1.55885 -0.689463 4.49685 0 0 0
1.57587 -1.33039 4.5411 0 0 0
1.54435 0.217814 4.44374 0 0 0
1.58215 -1.64153 4.55196 0 0 0
1.57733 -1.28557 4.5356 0 0 0
1.57792 -1.45291 4.53618 0 0 0
1.56761 -1.01858 4.50531 0 0 0
1.56373 -0.54451 4.49417 0 0 0
1.57919 -1.29838 4.53358 0 0 0
1.54674 0.207103 4.4399 0 0 0
1.55691 -0.0126864 4.46723 0 0 0
1.57954 -1.22461 4.53001 0 0 0
1.54042 0.838075 4.41765 0 0 0
1.53765 0.806176 4.40961 0 0 0
1.55666 0.00597157 4.46264 0 0 0
1.58291 -1.53616 4.53693 0 0 0
1.56283 -0.192918 4.47878 0 0 0
1.56799 -0.515719 4.49137 0 0 0
1.56799 -0.515719 4.49137 0 0 0
1.58415 -1.40568 4.53686 0 0 0
1.55757 0.0681457 4.45972 0 0 0
1.58145 -1.21389 4.52671 0 0 0
1.58145 -1.21389 4.52671 0 0 0
1.56488 -0.211403 4.47868 0 0 0
1.58829 -1.39223 4.53509 0 0 0
1.58715 -1.30708 4.53049 0 0 0
1.56989 -0.227082 4.47574 0 0 0
1.59068 -1.44007 4.53075 0 0 0
1.59777 -1.58777 4.54809 0 0 0
1.59777 -1.58777 4.54809 0 0 0
1.55245 0.849865 4.41836 0 0 0
1.58555 -1.05251 4.50931 0 0 0
1.56047 0.434252 4.43511 0 0 0
1.55802 0.662429 4.42733 0 0 0
1.55802 0.662429 4.42733 0 0 0
1.60072 -1.60371 4.54472 0 0 0
1.5627 0.539574 4.43579 0 0 0
1.59666 -1.37765 4.53028 0 0 0
1.59666 -1.37765 4.53028 0 0 0
1.57379 0.0778134 4.45223 0 0 0
1.59462 -1.03841 4.50743 0 0 0
1.60279 -1.42008 4.52968 0 0 0
1.60688 -1.61809 4.54036 0 0 0
1.57743 0.00551335 4.45372 0 0 0
1.58932 -0.391065 4.48369 0 0 0
1.59843 -0.689869 4.49455 0 0 0
1.57011 0.855248 4.41455 0 0 0
1.59826 -0.547996 4.49298 0 0 0
1.59826 -0.547996 4.49298 0 0 0
1.58806 -0.0378893 4.46349 0 0 0
1.57433 0.659174 4.41924 0 0 0
1.58501 0.237308 4.44647 0 0 0
1.5743 0.851838 4.4126 0 0 0
1.58451 0.393181 4.43768 0 0 0
1.58731 0.405878 4.44503 0 0 0
1.59629 -0.00869083 4.46694 0 0 0
1.58518 0.504351 4.43302 0 0 0
1.58859 0.250251 4.44226 0 0 0
1.59651 -0.172708 4.46397 0 0 0
1.59472 0.00406101 4.45389 0 0 0
1.62381 -1.40363 4.52986 0 0 0
1.62381 -1.40363 4.52986 0 0 0
1.61631 -1.03331 4.50805 0 0 0
1.59009 0.437087 4.43108 0 0 0
1.6042 -0.153869 4.46085 0 0 0
1.60089 0.0251008 4.44902 0 0 0
1.63289 -1.58667 4.53472 0 0 0
1.59192 0.660949 4.41603 0 0 0
1.56004 0.972024 4.32606 0 0 0
1.56004 0.972024 4.32606 0 0 0
1.59872 0.542112 4.43223 0 0 0
1.63185 -1.41856 4.52286 0 0 0
1.61045 -0.162156 4.46113 0 0 0
1.60084 0.233385 4.43344 0 0 0
1.60084 0.233385 4.43344 0 0 0
1.60055 0.553626 4.42324 0 0 0
1.60205 0.457454 4.42288 0 0 0
1.6231 -0.367661 4.47676 0 0 0
1.61238 0.0217727 4.44686 0 0 0
1.63256 -1.04012 4.49897 0 0 0
1.61438 0.0138206 4.4481 0 0 0
1.61175 0.530613 4.43557 0 0 0
1.61207 0.204214 4.43157 0 0 0
1.57473 0.972266 4.32521 0 0 0
1.6175 0.401981 4.4363 0 0 0
1.61104 0.717546 4.40874 0 0 0
1.62224 0.0919683 4.43937 0 0 0
1.62784 -0.0226195 4.45169 0 0 0
1.62858 0.250268 4.43671 0 0 0
1.63769 -0.0356806 4.44306 0 0 0
1.66814 -1.40957 4.51725 0 0 0
1.66814 -1.40957 4.51725 0 0 0
1.67334 -1.58845 4.53068 0 0 0
1.63398 0.558561 4.42305 0 0 0
1.62928 0.531312 4.40486 0 0 0
1.62913 0.827587 4.39913 0 0 0
1.66715 -0.875922 4.49965 0 0 0
1.64763 -0.0129786 4.44358 0 0 0
1.64069 0.29307 4.42425 0 0 0
1.63309 0.870576 4.40164 0 0 0
1.64698 0.0932087 4.43723 0 0 0
1.64275 0.602473 4.41715 0 0 0
1.64275 0.602473 4.41715 0 0 0
1.64087 0.84893 4.40991 0 0 0
1.67963 -1.44132 4.51334 0 0 0
1.67963 -1.44132 4.51334 0 0 0
1.65008 0.0653117 4.43379 0 0 0
1.67648 -1.03496 4.50053 0 0 0
1.64385 0.638712 4.41176 0 0 0
1.64385 0.638712 4.41176 0 0 0
1.67794 -0.889776 4.5018 0 0 0
1.68874 -1.40874 4.52018 0 0 0
1.66564 0.247784 4.43622 0 0 0
1.69666 -1.39635 4.51802 0 0 0
1.66301 0.410871 4.42655 0 0 0
1.65621 0.629752 4.4077 0 0 0
1.6908 -1.03622 4.49891 0 0 0
1.69049 -0.946825 4.49329 0 0 0
1.69131 -0.979481 4.49492 0 0 0
1.69006 -0.858841 4.4882 0 0 0
1.681 -0.383289 4.46399 0 0 0
1.69642 -0.871445 4.49265 0 0 0
1.69642 -0.871445 4.49265 0 0 0
1.67524 0.0430021 4.43396 0 0 0
1.66279 0.816686 4.39086 0 0 0
1.6787 0.402541 4.42991 0 0 0
1.67507 0.304557 4.41905 0 0 0
1.66549 0.865274 4.38868 0 0 0
1.69957 -0.686927 4.47623 0 0 0
1.70634 -0.882074 4.49399 0 0 0
1.68613 0.24061 4.43327 0 0 0
1.68613 0.24061 4.43327 0 0 0
1.67773 0.443309 4.41023 0 0 0
1.67773 0.443309 4.41023 0 0 0
1.7087 -1.04166 4.48751 0 0 0
1.69603 -0.00250482 4.43353 0 0 0
1.69603 -0.00250482 4.43353 0 0 0
1.69635 -0.0118835 4.43334 0 0 0
1.70235 -0.19056 4.44671 0 0 0
1.71785 -0.668166 4.4774 0 0 0
1.72354 -0.906253 4.48038 0 0 0
1.72354 -0.906253 4.48038 0 0 0
1.69524 0.552287 4.40652 0 0 0
1.68906 0.867291 4.38935 0 0 0
1.71154 -0.0224352 4.43409 0 0 0
1.72911 -0.686329 4.47085 0 0 0
1.71048 0.441155 4.40828 0 0 0
1.70177 0.796846 4.38281 0 0 0
1.70187 0.888434 4.38102 0 0 0
1.70498 0.872655 4.38396 0 0 0
1.75541 -1.40874 4.50862 0 0 0
1.74101 -0.902314 4.47115 0 0 0
1.73124 -0.19544 4.44144 0 0 0
1.73124 -0.19544 4.44144 0 0 0
1.74764 -0.891017 4.4821 0 0 0
1.72688 0.251775 4.4254 0 0 0
1.71975 0.644471 4.40068 0 0 0
1.73908 -0.527073 4.44849 0 0 0
1.72793 0.237986 4.41919 0 0 0
1.74485 -0.546339 4.45538 0 0 0
1.72869 0.532242 4.41228 0 0 0
1.72869 0.532242 4.41228 0 0 0
1.71625 0.861808 4.38015 0 0 0
1.72512 0.546341 4.39827 0 0 0
1.73171 0.405584 4.4105 0 0 0
1.73778 0.00304185 4.42534 0 0 0
1.76168 -1.01335 4.47814 0 0 0
1.7747 -1.58665 4.50925 0 0 0
1.76895 -0.906968 4.47262 0 0 0
1.77215 -1.02452 4.47605 0 0 0
1.77987 -1.51891 4.49557 0 0 0
1.75399 0.235282 4.41678 0 0 0
1.7386 0.81722 4.37462 0 0 0
1.76957 -0.199826 4.4325 0 0 0
1.79506 -1.39969 4.49538 0 0 0
1.78697 -0.89887 4.47474 0 0 0
1.78697 -0.89887 4.47474 0 0 0
1.75029 0.871696 4.37648 0 0 0
1.76842 0.0935127 4.41922 0 0 0
1.76725 0.214964 4.40579 0 0 0
1.79298 -0.672745 4.45817 0 0 0
1.81376 -1.39562 4.50286 0 0 0
1.79895 -0.345398 4.43959 0 0 0
1.79737 -0.260093 4.43377 0 0 0
1.79798 -0.305668 4.4351 0 0 0
1.80981 -0.857775 4.4635 0 0 0
1.80981 -0.857775 4.4635 0 0 0
1.77317 0.872857 4.36606 0 0 0
1.80895 -0.686642 4.45138 0 0 0
1.83101 -1.57757 4.50065 0 0 0
1.81054 -0.366244 4.44132 0 0 0
1.78923 0.543476 4.38522 0 0 0
1.81047 -0.203715 4.43131 0 0 0
1.80805 0.0109635 4.42269 0 0 0
1.80096 0.282962 4.399 0 0 0
1.81977 -0.53044 4.44202 0 0 0
1.83282 -1.0413 4.46542 0 0 0
1.84027 -1.31138 4.4833 0 0 0
1.83409 -1.10912 4.4653 0 0 0
1.79375 0.81438 4.36616 0 0 0
1.8325 -0.890412 4.45978 0 0 0
1.83748 -1.03863 4.47078 0 0 0
1.81344 0.0716194 4.41086 0 0 0
1.80969 0.242735 4.39587 0 0 0
1.83187 -0.237564 4.42764 0 0 0
1.81432 0.658273 4.38449 0 0 0
1.82762 -0.0193057 4.40443 0 0 0
1.83447 -0.0193029 4.42045 0 0 0
1.84199 -0.19418 4.43074 0 0 0
1.81508 0.811377 4.36165 0 0 0
1.82234 0.643682 4.37601 0 0 0
1.83747 0.0149293 4.41154 0 0 0
1.83747 0.0149293 4.41154 0 0 0
1.86567 -1.21587 4.47791 0 0 0
1.86567 -1.21587 4.47791 0 0 0
1.86451 -1.23231 4.47438 0 0 0
1.84321 -0.0538696 4.41194 0 0 0
1.84321 -0.0538696 4.41194 0 0 0
1.84379 -0.0476089 4.41275 0 0 0
1.86796 -1.25018 4.46902 0 0 0
1.84379 0.0762932 4.40848 0 0 0
1.84379 0.0762932 4.40848 0 0 0
1.83189 0.844199 4.3633 0 0 0
1.85267 -0.0121277 4.40631 0 0 0
1.8394 0.65437 4.37452 0 0 0
1.85925 -0.274701 4.42001 0 0 0
1.85925 -0.274701 4.42001 0 0 0
1.83519 0.892555 4.3588 0 0 0
1.85573 -0.0429858 4.40447 0 0 0
1.85802 0.0939987 4.40719 0 0 0
1.83898 0.876012 4.36019 0 0 0
1.84709 0.852382 4.36498 0 0 0
1.84709 0.852382 4.36498 0 0 0
1.8936 -1.22736 4.46419 0 0 0
1.87732 0.0524865 4.39746 0 0 0
1.86489 0.841901 4.35942 0 0 0
1.90013 -0.88182 4.44096 0 0 0
1.89086 -0.0622827 4.40067 0 0 0
1.92894 -1.58685 4.48434 0 0 0
1.92894 -1.58685 4.48434 0 0 0
1.88012 0.843588 4.35869 0 0 0
1.88012 0.843588 4.35869 0 0 0
1.91097 0.529284 4.37203 0 0 0
1.9068 0.838729 4.35341 0 0 0
1.93501 -0.384553 4.41128 0 0 0
1.91732 0.65099 4.3598 0 0 0
1.94733 -0.715585 4.4251 0 0 0
1.93615 -0.0618813 4.39233 0 0 0
1.92905 0.848079 4.35335 0 0 0
1.96064 -0.570778 4.41634 0 0 0
1.95418 0.0680498 4.3851 0 0 0
1.94103 0.806034 4.34432 0 0 0
1.95331 0.396296 4.36404 0 0 0
1.94363 0.849062 4.34104 0 0 0
1.90772 0.984792 4.26058 0 0 0
1.90707 1.08951 4.25441 0 0 0
1.96864 -0.0134914 4.38692 0 0 0
1.95445 0.821704 4.34255 0 0 0
1.91668 1.00925 4.2586 0 0 0
1.99124 -0.566877 4.40882 0 0 0
1.96012 0.840338 4.33918 0 0 0
1.92362 0.991426 4.25607 0 0 0
1.92418 1.08136 4.254 0 0 0
1.97459 0.446185 4.35887 0 0 0
1.99035 -0.0565137 4.38366 0 0 0
1.93816 1.06857 4.2446 0 0 0
2.03699 -1.25157 4.44205 0 0 0
1.98352 0.898956 4.32303 0 0 0
1.95264 0.981407 4.24951 0 0 0
2.04204 -1.35135 4.44141 0 0 0
2.04571 -1.44847 4.44932 0 0 0
2.01595 0.203777 4.3638 0 0 0
2.02177 -0.0565729 4.37508 0 0 0
2.01135 0.607003 4.33813 0 0 0
2.01135 0.607003 4.33813 0 0 0
2.04222 -0.434573 4.39896 0 0 0
1.98374 1.00259 4.24487 0 0 0
2.01614 0.908053 4.3001 0 0 0
2.04971 0.550308 4.33541 0 0 0
2.00848 1.00706 4.24116 0 0 0
2.00848 1.00706 4.24116 0 0 0
2.00831 1.06878 4.22687 0 0 0
2.00831 1.06878 4.22687 0 0 0
2.01296 1.10389 4.21291 0 0 0
2.05424 1.10415 4.22272 0 0 0
2.053 0.986635 4.20541 0 0 0
2.06379 0.990358 4.22676 0 0 0
2.0782 0.958262 4.23066 0 0 0
2.08627 0.98316 4.22128 0 0 0
2.09762 1.08732 4.2164 0 0 0
2.11079 1.09468 4.20753 0 0 0
-2.46103 -1.17724 5.21222 89 64 74
-2.39632 0.688199 5.09824 121 53 60
-2.39941 0.460527 5.1112 139 87 96
-2.41603 -1.32657 5.21386 126 101 123
-2.40385 -1.17887 5.21106 113 94 113
-2.35533 0.941953 5.08113 80 40 45
-2.37924 -0.410318 5.15798 128 105 124
-2.33924 0.96775 5.0501 112 59 71
-2.35815 0.166497 5.12617 42 22 28
-2.37198 -1.27703 5.20846 101 74 89
-2.37201 -1.33438 5.21131 122 97 117
-2.36627 -1.17958 5.20301 118 95 115
-2.35862 -1.30613 5.21118 110 88 106
-2.35646 -1.29733 5.20819 109 94 117
-2.35646 -1.29733 5.20819 109 94 117
-2.33285 -0.344472 5.15742 119 93 112
-2.30024 0.688667 5.08392 53 25 25
-2.31643 -1.25774 5.20174 110 88 107
-2.30492 -0.838579 5.16587 106 82 96
-2.29817 -0.797428 5.16421 125 101 115
-2.28533 -0.348832 5.14984 121 93 105
-2.29681 -1.17803 5.18654 83 66 76
-2.25547 0.651167 5.08329 83 44 49
-2.26771 0.0376784 5.12753 44 23 27
-2.28258 -1.16667 5.18487 94 77 86
-2.28501 -1.30466 5.19579 106 92 110
-2.24325 0.850855 5.06778 64 32 37
-2.23014 0.948298 5.04927 64 30 33
-2.25534 -0.696381 5.15124 107 90 110
-2.25534 -0.696381 5.15124 107 90 110
-2.0041 1.05189 4.20618 69 36 42
-2.25731 -0.841788 5.15925 97 70 77
-2.25731 -0.841788 5.15925 97 70 77
-2.23994 0.0403318 5.12404 45 33 40
-2.20731 0.988066 5.01825 83 39 44
-2.24506 -0.498964 5.15109 75 54 61
-2.21969 0.711976 5.07696 81 45 56
-2.2484 -1.03094 5.16818 120 97 112
-2.24884 -1.03178 5.17327 120 97 112
-2.2444 -0.907394 5.1611 122 92 113
-2.2432 -0.843498 5.15888 80 68 80
-2.23987 -0.868384 5.15849 100 74 83
-2.21514 0.156757 5.10648 58 29 31
-2.23459 -1.02691 5.16783 116 88 110
-2.21597 0.0461565 5.11227 86 69 87
-2.22028 -0.489468 5.13782 117 92 107
-2.22005 -1.28218 5.18221 102 78 92
-2.22074 -1.38744 5.19319 120 90 98
-2.18457 -0.156276 5.11429 113 81 97
-2.18485 -0.29945 5.11719 85 70 89
-2.17292 0.292353 5.08059 91 46 55
-2.20451 -1.31554 5.18597 61 43 54
-2.17557 -0.601919 5.13038 109 83 105
-2.16153 0.184545 5.08508 90 46 50
-2.1584 -0.281862 5.12265 146 115 131
-2.16532 -0.988181 5.15987 119 88 106
-2.15239 -0.699171 5.13114 124 96 115
-2.15281 -1.3906 5.18357 129 102 117
-2.14268 -1.28043 5.17205 120 101 121
-2.13042 -0.8281 5.14014 118 91 108
-2.11097 0.231682 5.07701 88 58 70
-2.11847 -0.329479 5.11213 131 100 114
-2.13312 -1.33055 5.16354 127 101 121
-2.11691 -0.34015 5.11389 134 106 121
-2.09262 0.197629 5.06982 70 29 34
-2.12019 -1.26183 5.16878 120 93 110
-2.10185 -0.34894 5.11126 137 106 121
-2.11036 -1.02056 5.14075 106 78 93
-2.10098 -0.32224 5.11507 137 110 127
-2.1101 -1.11141 5.15469 126 97 115
-2.05171 0.980532 4.99571 106 54 64
-2.05171 0.980532 4.99571 106 54 64
-2.07385 -0.156405 5.10692 133 97 111
-2.0785 -0.713717 5.1197 119 93 107
-2.0761 -0.527563 5.11657 102 89 108
-2.09199 -1.4139 5.179 126 96 108
-2.05013 0.305689 5.06224 76 34 48
-2.07477 -1.20153 5.17012 116 91 110
-2.04525 0.191222 5.06457 100 54 63
-2.04778 0.17147 5.07623 102 55 64
-2.07538 -1.39234 5.17574 106 80 89
-2.04543 0.192288 5.06856 100 55 63
-2.05796 -0.662439 5.11866 87 71 90
-2.05104 -0.695763 5.11934 107 89 109
-2.05736 -1.19726 5.15135 111 88 102
-2.02997 -0.683771 5.11225 110 83 100
-1.98443 0.689736 5.03641 58 26 27
-1.98443 0.689736 5.03641 58 26 27
-1.97877 0.146316 5.06172 114 66 78
-1.97702 -0.286729 5.08777 127 105 122
-1.97335 -0.153681 5.09406 93 41 49
-1.95716 0.558156 5.04354 72 33 36
-1.97041 -1.01596 5.12659 108 76 91
-1.94841 0.188253 5.05356 67 27 34
-1.94137 0.158258 5.0637 75 52 68
-1.94387 0.0304888 5.07391 75 42 52
-1.94387 0.0304888 5.07391 75 42 52
-1.94751 -0.273984 5.08726 126 101 118
-1.93672 -0.803086 5.10326 111 81 96
-1.9221 0.160703 5.05578 66 32 42
-1.91 0.565399 5.02814 80 41 50
-1.9112 0.267387 5.05505 67 36 42
-1.91606 -0.821323 5.11253 108 75 85
-1.89702 0.184874 5.04548 91 45 53
-1.8928 0.261198 5.04038 43 22 25
-1.90024 -0.337276 5.07942 122 95 112
-1.91461 -1.39433 5.13696 128 105 122
-1.89167 0.269461 5.05258 80 42 47
-1.88902 -0.672814 5.09564 95 74 96
-1.87584 -0.339498 5.06685 122 98 112
-1.86869 0.279632 5.04509 84 44 50
-1.8687 0.279778 5.04705 85 45 52
-1.89288 -1.41357 5.14708 114 89 112
-1.85547 0.269781 5.04202 85 42 48
-1.85379 0.26206 5.03763 60 25 27
-1.85861 -0.356275 5.07425 86 54 65
-1.83778 0.703997 5.01734 112 61 68
-1.84407 -0.0540215 5.04643 57 27 32
-1.83337 0.799497 5.00524 113 62 71
-1.84169 -0.047985 5.04297 64 33 38
-1.84169 -0.047985 5.04297 64 33 38
-1.85651 -1.38476 5.13884 91 86 108
-1.84338 -0.95578 5.0953 113 94 107
-1.83652 -0.363573 5.07797 116 91 112
-1.81424 -0.365151 5.06814 128 101 118
-1.80776 0.0297134 5.0512 67 46 55
-1.81639 -1.20134 5.12186 123 101 124
-1.78123 0.546523 5.01399 87 59 74
-1.77551 0.34585 5.02306 101 53 65
-1.77795 -0.0325535 5.03753 105 66 71
-1.77673 0.0221815 5.04394 70 29 33
-1.76661 0.436504 5.00983 71 30 36
-1.78117 -0.68775 5.07641 112 84 99
-1.77944 -0.679779 5.08314 107 75 91
-1.7801 -1.16865 5.10311 119 97 121
-1.77877 -1.17611 5.10329 115 93 119
-1.77877 -1.17611 5.10329 115 93 119
-1.78032 -1.36055 5.12789 120 98 119
-1.76449 -0.349489 5.05639 115 86 104
-1.75579 0.26279 5.01892 82 39 46
-1.77356 -1.36809 5.11498 73 59 85
-1.7408 0.678969 5.01252 127 74 83
-1.74806 -0.750585 5.08006 107 81 92
-1.75151 -1.34833 5.11107 118 102 129
-1.71901 0.958981 4.96986 67 32 34
-1.73942 -1.38416 5.11989 49 45 57
-1.73622 -1.2224 5.10403 103 88 119
-1.73622 -1.2224 5.10403 103 88 119
-1.72197 -0.376748 5.05295 101 66 74
-1.72953 -1.15272 5.08288 60 56 74
-1.72953 -1.15272 5.08288 60 56 74
-1.71304 0.035997 5.02264 104 56 66
-1.69655 0.954707 4.96409 82 37 42
-1.70826 0.051298 5.02493 93 51 61
-1.70826 0.051298 5.02493 93 51 61
-1.69462 0.67296 4.98197 116 67 74
-1.71763 -1.19043 5.10514 122 104 129
-1.71211 -1.12422 5.09246 125 107 131
-1.71229 -1.19748 5.09752 99 84 112
-1.68655 0.433295 5.00495 102 56 64
-1.69385 -0.397749 5.04685 134 111 127
-1.69309 -0.68975 5.06869 108 91 107
-1.67817 0.252546 5.00414 89 44 48
-1.67179 0.000696241 5.02712 113 60 71
-1.66522 0.330842 4.9966 73 35 39
-1.66351 0.35203 4.99917 68 31 34
-1.65401 0.447714 5.00696 112 56 67
-1.66463 -0.529545 5.05558 106 87 106
-1.66664 -0.82231 5.06739 109 88 106
-1.66279 -0.510093 5.05907 104 80 100
-1.64619 0.303386 5.00049 80 40 45
-1.65189 -1.18835 5.08502 117 93 109
-1.65189 -1.18835 5.08502 117 93 109
-1.55295 0.924742 4.50347 72 32 33
-1.63174 -0.533909 5.04543 108 83 102
-1.54058 0.922622 4.51119 83 37 41
-1.61318 -0.692135 5.05524 109 82 97
-1.6027 -0.175777 5.02206 78 68 85
-1.59868 -0.278775 5.02584 111 80 90
-1.60135 -0.53326 5.0397 113 86 101
-1.58471 0.00619906 4.99766 121 66 74
-1.5969 -1.11958 5.07858 115 88 111
-1.58265 -0.279073 5.01764 113 81 94
-1.57926 -0.282021 5.01861 112 80 95
-1.58609 -1.0116 5.07096 60 46 67
-1.58829 -1.41498 5.08924 100 96 117
-1.56542 0.00798415 4.99499 128 72 86
-1.56542 0.00798415 4.99499 128 72 86
-1.57079 -1.18849 5.07521 120 94 118
-1.55624 -0.534742 5.03443 113 86 101
-1.49224 0.439407 4.55301 129 73 86
-1.53579 -0.18492 5.0137 120 82 96
-1.53981 -1.17723 5.06606 126 103 131
-1.53311 -0.981063 5.05616 100 82 104
-1.44562 0.323412 4.53705 89 51 65
-1.50532 -0.992896 5.04908 125 96 124
-1.49775 -0.670811 5.02677 124 93 108
-1.49743 -0.671189 5.03101 124 93 108
-1.50531 -1.38358 5.0774 115 102 123
-1.4973 -1.13601 5.05714 117 92 114
-1.42022 0.931679 4.47479 94 56 69
-1.42021 0.931717 4.47489 94 56 69
-1.47942 -0.684592 5.0224 125 94 109
-1.41571 0.844915 4.49728 111 69 83
-1.43875 0.217403 4.69716 67 30 34
-1.42932 0.195634 4.69347 97 56 65
-1.45478 -0.907056 5.03683 111 89 104
-1.44731 -0.887695 5.03606 112 81 94
-1.44533 -0.83945 5.03466 101 70 80
-1.44498 -0.910612 5.03532 101 84 96
-1.44601 -1.31953 5.06134 106 90 116
-1.44463 -1.32604 5.05638 114 94 121
-1.43973 -0.889068 5.02524 87 69 80
-1.43506 -0.946921 5.03555 89 74 97
-1.43611 -1.12155 5.04358 107 88 109
-1.43713 -1.37853 5.062 106 80 99
-1.43184 -0.954803 5.03318 101 83 104
-1.43475 -1.348 5.06246 100 83 101
-1.43026 -0.964573 5.03808 105 87 113
-1.36215 0.931804 4.46112 78 39 40
-1.41856 -1.38017 5.05085 76 62 87
-1.40788 -1.37084 5.05365 116 98 120
-1.3417 0.870017 4.48059 54 24 26
-1.38537 -0.162249 4.95302 88 47 56
-1.34128 0.30146 4.6149 71 38 43
-1.3203 0.932178 4.45658 70 39 44
-1.32297 0.40615 4.5193 103 56 64
-1.36804 -1.11494 5.02812 108 80 98
-1.36496 -1.0534 5.03224 112 81 99
-1.31663 0.381848 4.51407 81 54 68
-1.33336 -0.189014 4.7358 119 64 73
-1.29744 0.870108 4.47467 118 75 82
-1.29744 0.870108 4.47467 118 75 82
-1.2971 0.365028 4.51149 112 71 84
-1.3094 0.110482 4.69486 111 60 69
-1.28899 0.74936 4.47831 80 41 41
-1.28579 0.784669 4.47832 86 42 44
-1.30321 0.0935278 4.74252 108 59 64
-1.3031 -0.827402 5.00488 106 83 96
-1.27598 -0.075818 4.7749 94 60 77
-1.28946 -0.984178 5.01451 105 83 96
-1.24101 0.334095 4.5087 71 44 55
-1.24047 0.348159 4.50626 79 50 65
-1.27307 -1.1107 5.01582 60 43 61
-1.26095 -0.67784 4.99404 99 80 108
-1.25209 -0.586329 4.98528 98 43 49
-1.25464 -0.978649 5.00414 91 74 100
-1.25464 -0.978649 5.00414 91 74 100
-1.24544 -0.675487 4.9823 108 81 96
-1.21259 0.479631 4.4947 84 44 49
-1.21575 0.299746 4.61733 93 53 59
-1.23199 -0.531027 4.97296 129 77 82
-1.23271 -1.26733 5.01868 113 88 110
-1.22805 -1.21208 5.01678 103 80 99
-1.22201 -0.813121 4.99091 91 70 90
-1.2027 0.0103498 4.78608 119 63 71
-1.21829 -1.33765 5.02152 88 73 94
-1.21747 -1.19657 5.01704 107 86 100
-1.21623 -1.2952 5.02126 112 86 103
-1.21623 -1.2952 5.02126 112 86 103
-1.19785 -0.0805641 4.76774 114 62 66
-1.17808 0.447473 4.49069 111 61 70
-1.20684 -1.20199 5.01226 105 80 96
-1.20246 -0.827857 4.99693 70 53 64
-1.20003 -1.36534 5.01942 110 92 115
-1.15758 0.334633 4.48633 125 68 79
-1.18559 -1.12039 4.99694 115 95 122
-1.16614 -1.19648 5.00182 103 93 120
-1.1592 -1.3909 5.01476 114 94 117
-1.15639 -1.40777 5.01164 111 93 118
-1.13975 -0.359306 4.71362 70 28 33
-1.14601 -0.827624 4.98805 60 45 61
-1.13225 0.117014 4.76474 64 38 49
-1.1312 0.117293 4.771 65 39 51
-1.11093 0.133401 4.76413 66 40 54
-1.11907 -1.46424 5.00455 124 102 124
-1.11717 -1.19282 4.99594 118 96 108
-1.11681 -1.2659 4.99312 93 70 92
-1.05823 0.825295 3.63093 132 81 90
-1.09176 0.069414 4.78405 129 74 84
-1.09249 -0.420357 4.75063 72 39 43
-1.10088 -1.4438 5.00399 113 95 117
-1.09475 -0.698826 4.96659 72 56 69
-1.07884 -1.37403 4.99125 85 73 85
-1.06313 -0.433253 4.7639 100 56 63
-1.06999 -1.38779 5.00463 92 82 102
-1.05745 -0.453639 4.75921 93 54 59
-1.04647 0.13226 4.76117 119 62 70
-1.0568 -1.40627 5.00782 115 103 129
-1.0568 -1.40627 5.00782 115 103 129
-1.03264 -0.482887 4.76738 61 30 35
-1.02851 -1.40908 4.99916 109 90 116
-1.01112 -0.0339067 4.75849 96 45 50
-1.01112 -0.0339067 4.75849 96 45 50
-0.996252 0.36493 4.46413 112 56 67
-0.996252 0.36493 4.46413 112 56 67
-0.996398 -1.02448 4.59277 94 79 94
-0.988817 -0.892184 4.69128 95 80 102
-0.986612 -0.660722 4.68686 105 80 95
-0.976131 -1.39264 4.97982 117 99 121
-0.955366 -0.0742399 4.74074 118 62 69
-0.952989 -0.113562 4.73823 110 61 65
-0.950386 0.373655 4.45809 131 75 88
-0.934786 -1.39633 4.98523 102 88 114
-0.926422 0.0538745 4.73737 50 20 22
-0.927809 -1.38229 4.96988 113 101 128
-0.920645 -1.39163 4.97544 111 100 130
-0.914178 -0.0625136 4.68691 117 62 68
-0.90309 -1.36396 4.97265 106 100 128
-0.904037 -0.869278 4.69447 86 73 77
-0.911747 0.908091 3.41066 123 66 73
-0.874505 0.732572 3.46518 124 69 79
-0.843784 -0.617144 4.73968 67 48 53
-0.828205 0.442753 4.43028 137 85 98
-0.800484 0.121837 4.71116 117 60 68
-0.800125 -0.237701 4.7325 58 31 39
-0.770746 -0.567912 4.74152 61 45 57
-0.766502 0.301007 4.51762 129 75 88
-0.766502 0.301007 4.51762 129 75 88
-0.754894 -1.0743 4.66636 101 87 101
-0.74568 -0.0346858 4.71274 126 64 72
-0.74062 -0.627228 4.74102 63 47 58
-0.739683 -1.09042 4.64612 97 89 102
-0.730468 -0.179407 4.7153 123 64 71
-0.729963 0.101398 4.6909 116 59 65
-0.70884 -0.161526 4.71561 126 66 78
-0.769597 0.613388 3.45196 138 86 108
-0.697386 0.219974 4.55305 139 85 105
-0.679575 -0.504516 4.67268 98 47 56
-0.754356 0.630232 3.44642 105 47 61
-0.754196 0.467445 3.41028 120 71 90
-0.660819 0.358691 4.40804 138 80 95
-0.656644 -1.15651 4.54317 20 29 54
-0.639655 -0.0817624 4.58861 149 91 106
-0.621959 -0.416883 4.58513 84 54 59
-0.707622 0.623333 3.44521 137 76 90
-0.706546 0.682671 3.43767 141 79 92
-0.706546 0.682671 3.43767 141 79 92
-0.619004 -0.583338 4.58452 121 67 78
-0.618886 -0.583614 4.5849 121 67 78
-0.616687 -0.96741 4.54004 73 57 69
-0.696184 0.735326 3.43224 140 75 89
-0.600856 -0.0796996 4.58541 107 63 73
-0.69341 0.908796 3.38019 153 118 139
-0.595324 -0.0163204 4.57757 121 76 94
-0.688653 0.612967 3.43719 153 111 131
-0.591685 -0.143759 4.57832 133 98 120
-0.589547 -0.0903093 4.58559 139 104 124
-0.5943 -1.06052 4.50143 115 99 119
-0.58271 -0.281742 4.59121 131 84 106
-0.675823 0.819053 3.42794 135 89 105
-0.565724 0.14136 4.56666 129 83 96
-0.57136 -0.739311 4.54944 73 67 77
-0.659541 0.69641 3.42944 139 92 113
-0.658807 0.734401 3.4264 133 86 97
-0.56851 0.524574 4.31958 132 78 94
-0.550999 0.301196 4.45505 135 87 101
-0.550999 0.301196 4.45505 135 87 101
-0.540424 -0.144093 4.57219 40 23 28
-0.540424 -0.144093 4.57219 40 23 28
-0.547598 -1.0658 4.51768 107 89 107
-0.531532 -0.355755 4.59006 66 46 53
-0.501474 -0.230038 4.57065 127 75 90
-0.518626 0.441164 4.37986 132 79 95
-0.506894 -0.965894 4.53429 72 60 74
-0.489642 -0.0869276 4.5638 108 75 96
-0.49884 -1.01758 4.50188 98 91 112
-0.49884 -1.01758 4.50188 98 91 112
-0.485127 -1.05303 4.50372 83 71 95
-0.44432 0.0683783 4.55915 132 84 98
-0.44965 0.340503 4.37595 138 85 108
-0.421815 0.0512738 4.52453 123 74 96
-0.3989 -0.329802 4.55107 132 77 88
-0.405551 -1.46733 4.4994 100 90 118
-0.399394 0.0622918 4.47991 143 90 110
-0.390028 -0.323957 4.54862 131 78 87
-0.388948 -0.354705 4.55274 122 76 86
-0.384092 -0.29317 4.54649 126 77 83
-0.374785 -0.502022 4.59183 110 68 77
-0.364359 -0.408292 4.55547 117 66 78
-0.352334 -0.166582 4.61209 153 113 137
-0.360084 -0.293374 4.54432 104 62 84
-0.360084 -0.293374 4.54432 104 62 84
-0.52189 0.909537 3.3442 105 63 77
-0.336456 -0.43785 4.55978 104 55 63
-0.499891 0.875362 3.37542 115 68 84
-0.328576 -0.525041 4.56206 97 52 59
-0.328946 -0.433402 4.55584 103 53 58
-0.343561 0.0116614 4.40305 107 64 75
-0.343561 0.0116614 4.40305 107 64 75
-0.479569 0.733949 3.39716 52 94 145
-0.304128 -0.745035 4.56921 59 39 51
-0.309874 -0.294514 4.46298 86 48 54
-0.302084 -0.376367 4.49753 81 45 49
-0.465769 0.797217 3.38954 165 125 151
-0.314581 0.355559 4.34917 155 114 132
-0.300015 -0.086585 4.39807 94 53 62
-0.279245 -0.538992 4.53868 46 23 20
-0.453896 0.727903 3.39433 109 60 69
-0.297663 -0.0717434 4.39023 109 56 69
-0.272166 -0.556214 4.54234 33 21 16
-0.269489 -0.327745 4.52797 82 45 50
-0.26824 -1.20491 4.49255 75 67 84
-0.266154 -1.22487 4.48974 98 94 115
-0.440409 0.874985 3.36427 114 61 69
-0.248571 -0.947471 4.52847 57 52 59
-0.239669 -0.360712 4.55181 62 35 34
-0.259027 -0.0803047 4.41963 93 48 55
-0.241626 -0.3038 4.51949 66 34 35
-0.241626 -0.3038 4.51949 66 34 35
-0.263894 -0.0763849 4.38055 106 61 68
-0.251415 -0.223612 4.45833 70 36 36
-0.263525 -0.0762735 4.38144 108 63 70
-0.266749 -0.0210988 4.34455 109 57 63
-0.242409 0.0961825 4.45874 108 55 65
-0.245858 -0.0600462 4.38187 80 33 39
-0.216784 -0.754706 4.54736 83 60 68
-0.211502 -0.839427 4.55416 86 65 70
-0.204904 -0.357916 4.55547 65 37 36
-0.433033 1.01585 3.20311 124 76 88
-0.191518 -0.353495 4.549 64 36 35
-0.212077 -0.0467938 4.39146 103 56 64
-0.177287 -0.294582 4.53407 64 34 34
-0.195934 -1.46328 4.45658 107 89 103
-0.172625 -0.294931 4.53097 71 39 42
-0.389746 1.04659 3.28474 97 56 67
-0.150633 -0.753116 4.53344 79 57 64
-0.15839 -1.46679 4.4542 97 90 106
-0.175362 0.365387 4.31459 95 55 63
-0.172074 0.366526 4.32203 97 56 64
-0.13609 -0.904925 4.53358 81 61 67
-0.0981029 -0.710108 4.5225 65 51 60
-0.132778 0.439384 4.31324 106 58 72
-0.10364 0.0475798 4.41184 95 59 70
-0.10364 0.0475798 4.41184 95 59 70
-0.0974363 0.0292931 4.40866 103 60 76
-0.094164 -1.02822 4.44217 88 73 89
-0.105242 0.486937 4.30319 102 70 90
-0.0636954 -0.64744 4.51312 106 62 69
-0.0637156 -0.646664 4.51308 106 62 69
-0.0747281 0.0553014 4.42279 106 70 90
-0.291928 0.818862 3.35991 105 73 97
-0.291928 0.818862 3.35991 105 73 97
-0.0467199 0.103779 4.45587 103 68 86
-0.278862 0.627677 3.36826 102 74 97
-0.0876718 0.577325 4.24446 128 84 104
-0.0345166 -0.0664747 4.47967 98 57 64
-0.0320395 -0.600711 4.49425 68 51 58
-0.0330286 0.211599 4.40788 104 72 96
-0.0136176 -0.0838464 4.47751 98 57 65
-0.0136176 -0.0838464 4.47751 98 57 65
0.00295173 -0.4242 4.47497 53 37 42
-0.0131462 -1.05705 4.40501 84 78 81
-0.238393 0.808055 3.35125 107 77 98
-0.238393 0.808055 3.35125 107 77 98
0.00498642 -0.99113 4.43585 88 80 87
0.0245418 -0.0816594 4.47295 78 50 62
0.0051502 -1.46254 4.40243 118 111 123
0.0308106 -0.231126 4.47718 89 48 57
0.0125708 -1.05127 4.39527 86 80 80
0.0110806 0.302096 4.35582 127 80 98
0.0224125 -0.980318 4.40875 76 75 81
0.0464553 -0.370948 4.47741 97 63 74
0.0376385 -1.21341 4.44094 98 85 93
0.0546682 -0.240659 4.46834 104 63 68
0.0418918 -1.05782 4.38824 80 71 74
0.0305189 -1.40798 4.33148 106 101 108
-0.188278 0.641254 3.35151 106 74 98
0.0604127 -1.05963 4.39096 47 46 50
0.0861206 -0.303094 4.47222 76 52 65
0.0861206 -0.303094 4.47222 76 52 65
0.0880758 0.0509639 4.4545 123 72 87
0.0495386 0.356839 4.28304 120 76 96
0.104959 0.0706785 4.46639 128 83 100
0.0957229 -1.21904 4.43447 59 58 75
-0.178629 1.01298 3.28143 151 102 124
0.108411 -1.01792 4.39637 72 61 69
0.145873 -1.05692 4.39132 50 59 54
0.158969 -1.0832 4.37858 47 59 57
0.271441 -0.90542 4.5502 56 80 59
0.204982 0.337868 4.26356 163 113 135
-0.057368 0.697639 3.32694 137 90 110
0.288588 0.115174 4.52663 151 102 123
0.327314 -0.249162 4.53467 62 44 49
0.313883 -1.14417 4.47075 76 77 72
-0.0137495 0.875147 3.29311 74 58 69
-0.0137495 0.875147 3.29311 74 58 69
0.350958 -0.0871692 4.47837 74 47 56
0.35337 -0.120299 4.47954 75 40 44
0.000797264 0.792919 3.31321 111 65 76
0.00136713 0.793216 3.31407 109 63 74
0.374233 -0.725629 4.52889 47 59 54
0.377596 -0.349429 4.5328 61 41 43
0.377813 -0.34969 4.53319 61 41 43
0.300037 0.351639 4.24018 106 68 79
0.0133328 0.806897 3.30933 114 67 79
0.3951 -0.0461546 4.5131 97 57 62
0.393262 -0.175631 4.50881 84 52 57
0.0202594 0.725309 3.31062 118 68 79
0.0214916 0.738128 3.3101 123 72 82
0.321799 0.428314 4.23288 125 75 87
0.321799 0.428314 4.23288 125 75 87
0.400222 -0.112698 4.441 79 44 48
0.437443 -0.266368 4.50986 67 47 49
0.0647047 0.87472 3.28317 130 83 99
0.0690618 0.515545 3.27769 127 84 101
0.0782133 0.860849 3.28842 122 76 88
0.393317 0.35511 4.22527 102 68 81
0.503364 -0.267565 4.508 59 67 70
0.454028 -1.02167 4.3707 74 82 85
0.579438 -1.30492 4.70565 84 98 99
0.596833 -1.63378 4.72231 74 89 88
0.473804 -1.03079 4.33984 75 87 89
0.562252 -0.0658371 4.48186 82 85 110
0.641726 -1.3843 4.69582 73 88 85
0.645844 -1.38365 4.69863 76 91 90
0.651873 -1.39761 4.70278 79 94 91
0.592594 0.0428446 4.46742 85 89 115
0.681916 -1.55924 4.70697 75 84 90
0.684488 -1.52802 4.69986 67 77 89
0.684488 -1.52802 4.69986 67 77 89
0.685713 -1.48235 4.69585 68 79 92
0.533494 0.333731 4.20874 78 83 103
0.627978 -0.198481 4.45926 80 87 101
0.703196 -0.847211 4.66386 65 67 86
0.708932 -1.31927 4.68507 71 85 93
0.637645 -0.182616 4.45674 81 84 101
0.591855 0.31079 4.19272 87 90 112
0.603998 0.323782 4.18742 87 92 112
0.61482 0.423749 4.18021 79 84 104
0.798242 -0.873618 4.64871 64 69 91
0.80431 -1.0155 4.65559 61 63 84
0.816586 -1.33179 4.66775 55 62 81
0.836223 -1.39702 4.67194 67 74 92
0.651775 0.464121 4.17665 81 79 100
0.651775 0.464121 4.17665 81 79 100
0.838379 -0.546964 4.62014 0 0 0
0.744703 -0.441231 4.37791 0 0 0
0.848851 -0.554156 4.61865 0 0 0
0.671081 0.418702 4.17048 0 0 0
0.857781 -0.536577 4.61644 0 0 0
0.685108 0.359353 4.17104 0 0 0
0.778125 0.159315 4.37825 0 0 0
0.885123 -0.822875 4.62531 0 0 0
0.901334 -1.57031 4.67105 0 0 0
0.756312 0.231334 4.28165 0 0 0
0.907391 -1.40282 4.65655 0 0 0
0.902803 -0.796856 4.62336 0 0 0
0.906612 -0.933388 4.62281 0 0 0
0.774644 0.21922 4.28333 0 0 0
0.799702 0.091402 4.33817 0 0 0
0.799653 0.110116 4.32912 0 0 0
0.73526 0.447913 4.16315 0 0 0
0.867595 -0.114099 4.3368 0 0 0
0.85376 -0.224965 4.2974 0 0 0
0.996394 -0.862694 4.61341 0 0 0
0.852999 -0.313284 4.24233 0 0 0
1.03832 -1.62557 4.64347 0 0 0
1.0461 -0.860679 4.60192 0 0 0
0.864319 0.423666 4.14385 0 0 0
1.06721 -0.842037 4.59615 0 0 0
1.07179 -0.850089 4.59752 0 0 0
1.06739 -0.531337 4.58012 0 0 0
1.084 -0.539631 4.583 0 0 0
1.10098 -1.03258 4.60546 0 0 0
0.893722 0.807579 4.10018 0 0 0
1.12645 -0.863583 4.58706 0 0 0
1.13605 -1.04627 4.59814 0 0 0
0.913203 0.790583 4.09835 0 0 0
1.12746 0.0978412 4.53562 0 0 0
1.15402 -1.02355 4.59891 0 0 0
1.16643 -1.06464 4.5865 0 0 0
1.17254 -1.16357 4.59868 0 0 0
0.931557 0.914721 4.07277 0 0 0
1.19598 -1.02894 4.58657 0 0 0
1.19241 -0.739909 4.57212 0 0 0
1.17917 0.200449 4.51646 0 0 0
1.18958 0.121662 4.53068 0 0 0
1.21945 -1.03996 4.58321 0 0 0
1.21551 0.218966 4.5117 0 0 0
1.00558 0.562536 4.08179 0 0 0
1.2618 -0.691663 4.56092 0 0 0
1.27887 -1.1686 4.57773 0 0 0
1.27344 -0.701251 4.56117 0 0 0
1.2826 -0.906026 4.5656 0 0 0
1.25568 0.2671 4.49725 0 0 0
1.27462 -0.441271 4.53581 0 0 0
1.28557 -0.376559 4.54691 0 0 0
1.28703 -0.269864 4.53066 0 0 0
1.31319 -1.33373 4.5877 0 0 0
1.27891 0.212616 4.49534 0 0 0
1.28538 0.227523 4.50011 0 0 0
1.28448 0.261386 4.49225 0 0 0
1.29844 -0.356534 4.52111 0 0 0
1.33936 -1.72335 4.59502 0 0 0
1.30782 0.196846 4.49247 0 0 0
1.33956 -1.18731 4.56673 0 0 0
1.33956 -1.18731 4.56673 0 0 0
1.31025 0.39974 4.49235 0 0 0
1.33338 -0.867811 4.54927 0 0 0
1.32427 0.236731 4.50476 0 0 0
1.32074 0.224024 4.49512 0 0 0
1.31906 0.122174 4.49311 0 0 0
1.32843 0.266104 4.48818 0 0 0
1.32853 0.349471 4.48076 0 0 0
1.34541 0.0831809 4.50231 0 0 0
1.36226 -0.400491 4.51908 0 0 0
1.38981 -1.03509 4.55997 0 0 0
1.4027 -1.22816 4.55731 0 0 0
1.40112 -0.53625 4.51751 0 0 0
1.39075 0.246598 4.48371 0 0 0
1.4026 0.149091 4.47337 0 0 0
1.4068 0.408392 4.46522 0 0 0
1.44488 -0.868936 4.53794 0 0 0
1.44488 -0.868936 4.53794 0 0 0
1.42024 0.231088 4.47568 0 0 0
1.42024 0.231088 4.47568 0 0 0
1.42804 0.202203 4.46819 0 0 0
1.45921 -0.868073 4.52928 0 0 0
1.46099 -0.701279 4.52624 0 0 0
1.44099 0.262311 4.4511 0 0 0
1.44139 0.261695 4.45158 0 0 0
1.47866 -0.854878 4.52589 0 0 0
1.44457 0.553386 4.45029 0 0 0
1.43688 0.898008 4.43177 0 0 0
1.43688 0.898008 4.43177 0 0 0
1.48425 -1.17558 4.53476 0 0 0
1.46986 -0.180871 4.48615 0 0 0
1.46986 -0.180871 4.48615 0 0 0
1.49358 -1.11524 4.5333 0 0 0
1.49358 -1.11524 4.5333 0 0 0
1.49518 -1.1871 4.53371 0 0 0
1.45064 0.825877 4.43059 0 0 0
1.4972 -1.20161 4.53185 0 0 0
1.5065 -1.29603 4.54378 0 0 0
1.49783 -0.772783 4.51485 0 0 0
1.49855 -0.694066 4.51503 0 0 0
1.46889 0.624048 4.43274 0 0 0
1.47583 0.68363 4.43457 0 0 0
1.5275 -0.550311 4.49611 0 0 0
1.50462 0.287349 4.44686 0 0 0
1.50462 0.287349 4.44686 0 0 0
1.49582 0.75069 4.42649 0 0 0
1.50503 0.831802 4.4281 0 0 0
1.52791 -0.00841257 4.46886 0 0 0
1.51386 0.666759 4.43662 0 0 0
1.5382 -0.415864 4.48487 0 0 0
1.56906 -1.34799 4.53418 0 0 0
1.52023 0.802672 4.42069 0 0 0
1.56237 -0.486182 4.48762 0 0 0
1.57673 -1.04348 4.51066 0 0 0
1.56031 -0.0312965 4.47173 0 0 0
1.55825 0.0403899 4.46134 0 0 0
1.57591 -0.859655 4.50052 0 0 0
1.59226 -1.22687 4.52447 0 0 0
1.56911 -0.175259 4.47015 0 0 0
1.57844 0.00587827 4.45542 0 0 0
1.59655 -0.188726 4.48038 0 0 0
1.57267 0.449979 4.43202 0 0 0
1.59274 -0.171994 4.45771 0 0 0
1.59075 0.471554 4.42727 0 0 0
1.63113 -1.03957 4.4966 0 0 0
1.62191 0.259564 4.42703 0 0 0
1.63461 0.261782 4.44127 0 0 0
1.67445 -1.03406 4.49722 0 0 0
1.6675 -0.18368 4.46759 0 0 0
1.6675 -0.18368 4.46759 0 0 0
1.71323 -0.854704 4.48196 0 0 0
1.68624 0.214505 4.42745 0 0 0
1.73199 -0.856611 4.47798 0 0 0
1.71578 0.224362 4.42403 0 0 0
1.7459 -0.874759 4.48235 0 0 0
1.74455 -0.377781 4.45465 0 0 0
1.76446 -0.692393 4.45972 0 0 0
1.77039 -0.900421 4.47097 0 0 0
1.76127 0.407783 4.40851 0 0 0
1.76127 0.407783 4.40851 0 0 0
1.74875 0.704475 4.37624 0 0 0
1.76981 0.261596 4.4064 0 0 0
1.80774 -0.35626 4.44383 0 0 0
1.82882 -1.13651 4.46895 0 0 0
1.80984 -0.204075 4.43035 0 0 0
1.80264 -0.0470796 4.41587 0 0 0
1.81674 -0.323274 4.43449 0 0 0
1.83333 -1.04157 4.46622 0 0 0
1.83237 -1.10858 4.46267 0 0 0
1.80133 0.28249 4.39955 0 0 0
1.81622 -0.222613 4.4264 0 0 0
1.81622 -0.222613 4.4264 0 0 0
1.82475 -0.262554 4.43102 0 0 0
1.81673 0.0241298 4.41463 0 0 0
1.81119 0.850124 4.37732 0 0 0
1.83513 0.0407869 4.4087 0 0 0
1.83513 0.0407869 4.4087 0 0 0
1.81778 0.812237 4.36568 0 0 0
1.87369 -0.694768 4.44119 0 0 0
1.84147 0.749696 4.3697 0 0 0
1.86906 -0.192258 4.41803 0 0 0
1.87111 -0.192116 4.42017 0 0 0
1.84691 0.822084 4.37375 0 0 0
1.85843 0.40384 4.38247 0 0 0
1.85843 0.40384 4.38247 0 0 0
1.86989 0.852023 4.3634 0 0 0
1.90373 0.555903 4.36805 0 0 0
