ply
format ascii 1.0 
element vertex 1379
property float32 x 
property float32 y 
property float32 z
property uchar red  
property uchar green
property uchar blue
element face 0
property list uchar int vertex_indices
end_header
1.48984 0.868932 4.42147 0 0 0
1.48896 0.810146 4.4192 0 0 0
1.49253 0.858295 4.42186 0 0 0
1.53396 -1.2245 4.54115 0 0 0
1.5198 -0.523939 4.4952 0 0 0
1.50567 0.397724 4.45159 0 0 0
1.5191 -0.360459 4.48674 0 0 0
1.4991 0.797935 4.41987 0 0 0
1.4991 0.797935 4.41987 0 0 0
1.50172 0.747315 4.42431 0 0 0
1.51409 0.0170191 4.45917 0 0 0
1.51738 0.0169609 4.4672 0 0 0
1.50619 0.843058 4.42647 0 0 0
1.50932 0.600094 4.43341 0 0 0
1.52725 -0.37457 4.48592 0 0 0
1.51237 0.608163 4.43258 0 0 0
1.55559 -1.39634 4.52947 0 0 0
1.53368 -0.040989 4.46473 0 0 0
1.53368 -0.040989 4.46473 0 0 0
1.51626 0.895881 4.4129 0 0 0
1.52632 0.538856 4.44149 0 0 0
1.52632 0.538856 4.44149 0 0 0
1.54604 -0.540764 4.49874 0 0 0
1.55757 -1.19457 4.52772 0 0 0
1.54483 -0.206327 4.47919 0 0 0
1.55576 -1.03856 4.51088 0 0 0
1.52682 0.680561 4.42443 0 0 0
1.57238 -1.58151 4.54913 0 0 0
1.52729 0.871349 4.41488 0 0 0
1.56436 -1.21021 4.52413 0 0 0
1.56375 -1.21011 4.52311 0 0 0
1.56923 -1.43775 4.53052 0 0 0
1.54484 0.044257 4.45834 0 0 0
1.54178 0.178041 4.44841 0 0 0
1.55847 -0.477488 4.48714 0 0 0
1.57634 -1.33921 4.52998 0 0 0
1.57635 -1.33942 4.53053 0 0 0
1.55733 -0.180897 4.47424 0 0 0
1.5658 -0.691963 4.49651 0 0 0
1.58144 -1.33168 4.53719 0 0 0
1.54985 0.214705 4.44042 0 0 0
1.58764 -1.64235 4.54778 0 0 0
1.5824 -1.28672 4.53053 0 0 0
1.58387 -1.45423 4.53269 0 0 0
1.57699 -1.02258 4.51041 0 0 0
1.56989 -0.546816 4.49205 0 0 0
1.58443 -1.29905 4.52889 0 0 0
1.55437 0.204223 4.4405 0 0 0
1.56353 -0.0156255 4.46563 0 0 0
1.58357 -1.22521 4.52306 0 0 0
1.54683 0.834671 4.41627 0 0 0
1.54363 0.802613 4.40742 0 0 0
1.56267 0.00371456 4.46022 0 0 0
1.58843 -1.53718 4.53295 0 0 0
1.5669 -0.19567 4.47273 0 0 0
1.57373 -0.518043 4.48813 0 0 0
1.57373 -0.518043 4.48813 0 0 0
1.58921 -1.40676 4.5325 0 0 0
1.56343 0.0652042 4.45696 0 0 0
1.58681 -1.21527 4.52243 0 0 0
1.58704 -1.21563 4.52346 0 0 0
1.57153 -0.214135 4.47747 0 0 0
1.59365 -1.3938 4.53114 0 0 0
1.5929 -1.30863 4.52731 0 0 0
1.57565 -0.22969 4.47263 0 0 0
1.59553 -1.44059 4.52495 0 0 0
1.60338 -1.5888 4.54432 0 0 0
1.60338 -1.5888 4.54432 0 0 0
1.55808 0.846061 4.41512 0 0 0
1.59096 -1.05404 4.50511 0 0 0
1.56627 0.430821 4.43363 0 0 0
1.56402 0.658971 4.42505 0 0 0
1.56402 0.658971 4.42505 0 0 0
1.60424 -1.60335 4.53619 0 0 0
1.5681 0.536037 4.43229 0 0 0
1.60204 -1.37846 4.52598 0 0 0
1.60204 -1.37846 4.52598 0 0 0
1.58027 0.0746887 4.4503 0 0 0
1.60093 -1.04045 4.50482 0 0 0
1.60704 -1.42032 4.52307 0 0 0
1.61238 -1.61893 4.53616 0 0 0
1.58633 0.00209175 4.45658 0 0 0
1.59451 -0.393223 4.47831 0 0 0
1.60466 -0.69235 4.49236 0 0 0
1.57616 0.851647 4.41243 0 0 0
1.60476 -0.550367 4.49119 0 0 0
1.60476 -0.550367 4.49119 0 0 0
1.59354 -0.0408403 4.45997 0 0 0
1.58145 0.656073 4.4192 0 0 0
1.59074 0.234085 4.44345 0 0 0
1.58037 0.848086 4.41083 0 0 0
1.59004 0.389971 4.43411 0 0 0
1.59295 0.40249 4.44207 0 0 0
1.6014 -0.0115613 4.46271 0 0 0
1.59117 0.50102 4.4306 0 0 0
1.59514 0.247361 4.4406 0 0 0
1.60294 -0.175546 4.46216 0 0 0
1.6008 0.00134985 4.45113 0 0 0
1.63018 -1.40541 4.52773 0 0 0
1.63018 -1.40541 4.52773 0 0 0
1.62219 -1.03504 4.50482 0 0 0
1.59574 0.434312 4.4279 0 0 0
1.6104 -0.15654 4.45888 0 0 0
1.60704 0.0222134 4.44626 0 0 0
1.6384 -1.58754 4.53053 0 0 0
1.59793 0.657494 4.41372 0 0 0
1.56685 0.96872 4.32538 0 0 0
1.56691 0.968645 4.32576 0 0 0
1.60352 0.53847 4.42704 0 0 0
1.6374 -1.41968 4.51881 0 0 0
1.61671 -0.164864 4.45902 0 0 0
1.60755 0.230525 4.4326 0 0 0
1.60755 0.230525 4.4326 0 0 0
1.60681 0.55043 4.42156 0 0 0
1.60761 0.45406 4.41947 0 0 0
1.62891 -0.370145 4.47361 0 0 0
1.61816 0.0188706 4.44399 0 0 0
1.63964 -1.0423 4.49737 0 0 0
1.62026 0.0109418 4.44525 0 0 0
1.61778 0.527257 4.43318 0 0 0
1.61834 0.201257 4.42968 0 0 0
1.58081 0.968572 4.32302 0 0 0
1.62415 0.398904 4.43506 0 0 0
1.61504 0.713293 4.4024 0 0 0
1.6278 0.0886837 4.43669 0 0 0
1.6343 -0.0255302 4.45063 0 0 0
1.63407 0.246901 4.43296 0 0 0
1.64371 -0.0385982 4.44078 0 0 0
1.67339 -1.41043 4.51245 0 0 0
1.67339 -1.41043 4.51245 0 0 0
1.6777 -1.58845 4.52419 0 0 0
1.63964 0.555065 4.42058 0 0 0
1.63862 0.528784 4.40785 0 0 0
1.63719 0.824828 4.40138 0 0 0
1.67204 -0.877496 4.49509 0 0 0
1.65334 -0.0158379 4.44048 0 0 0
1.64654 0.289428 4.42138 0 0 0
1.63894 0.866763 4.39899 0 0 0
1.6527 0.0902103 4.43375 0 0 0
1.64881 0.599064 4.41478 0 0 0
1.64894 0.599154 4.41508 0 0 0
1.647 0.845333 4.40776 0 0 0
1.68555 -1.4425 4.50988 0 0 0
1.68554 -1.44244 4.50972 0 0 0
1.65667 0.0625077 4.43205 0 0 0
1.68205 -1.03653 4.49605 0 0 0
1.6504 0.635323 4.4105 0 0 0
1.6504 0.635323 4.4105 0 0 0
1.68203 -0.890805 4.49475 0 0 0
1.69253 -1.40859 4.5125 0 0 0
1.67038 0.244631 4.43133 0 0 0
1.70181 -1.39702 4.5129 0 0 0
1.66873 0.407621 4.42377 0 0 0
1.66228 0.626323 4.40533 0 0 0
1.69648 -1.03786 4.49516 0 0 0
1.69633 -0.948693 4.48989 0 0 0
1.69673 -0.980825 4.49074 0 0 0
1.6959 -0.860837 4.48519 0 0 0
1.68602 -0.385558 4.45949 0 0 0
1.70216 -0.873309 4.48903 0 0 0
1.69967 -0.872145 4.48367 0 0 0
1.68098 0.0401839 4.43072 0 0 0
1.66939 0.813192 4.38955 0 0 0
1.68422 0.399044 4.42615 0 0 0
1.68127 0.301202 4.4168 0 0 0
1.67354 0.86244 4.3897 0 0 0
1.70538 -0.688994 4.47299 0 0 0
1.71234 -0.884262 4.49095 0 0 0
1.69215 0.237514 4.43059 0 0 0
1.69215 0.237514 4.43059 0 0 0
1.68384 0.439998 4.40791 0 0 0
1.68379 0.439994 4.40775 0 0 0
1.71444 -1.04338 4.48384 0 0 0
1.70241 -0.00532901 4.43146 0 0 0
1.70248 -0.00527358 4.43161 0 0 0
1.7025 -0.0147685 4.43095 0 0 0
1.70812 -0.193162 4.44336 0 0 0
1.72333 -0.670319 4.47345 0 0 0
1.72958 -0.908257 4.4773 0 0 0
1.72949 -0.908243 4.47713 0 0 0
1.70141 0.548869 4.40476 0 0 0
1.69531 0.863799 4.38818 0 0 0
1.71746 -0.0252841 4.43152 0 0 0
1.73562 -0.688855 4.46878 0 0 0
1.71636 0.437807 4.40529 0 0 0
1.7087 0.793309 4.38204 0 0 0
1.70833 0.88468 4.37928 0 0 0
1.71102 0.870633 4.38122 0 0 0
1.76139 -1.41006 4.50517 0 0 0
1.74832 -0.904809 4.47113 0 0 0
1.73612 -0.198039 4.43659 0 0 0
1.73612 -0.198039 4.43659 0 0 0
1.75169 -0.892165 4.47537 0 0 0
1.73309 0.24875 4.42395 0 0 0
1.72457 0.640433 4.39542 0 0 0
1.74575 -0.529473 4.44695 0 0 0
1.73446 0.235069 4.41755 0 0 0
1.75338 -0.54888 4.45636 0 0 0
1.73186 0.527244 4.40386 0 0 0
1.73192 0.52767 4.40574 0 0 0
1.72415 0.858735 4.38165 0 0 0
1.73272 0.543298 4.39853 0 0 0
1.73907 0.402624 4.40998 0 0 0
1.7435 -2.85281e-05 4.42194 0 0 0
1.76812 -1.01541 4.47591 0 0 0
1.78164 -1.5881 4.50758 0 0 0
1.77436 -0.90867 4.46847 0 0 0
1.77836 -1.02633 4.47301 0 0 0
1.7871 -1.52083 4.49453 0 0 0
1.76022 0.23224 4.41398 0 0 0
1.7468 0.814163 4.37594 0 0 0
1.77581 -0.202552 4.43006 0 0 0
1.80069 -1.40077 4.49122 0 0 0
1.79079 -0.899883 4.46749 0 0 0
1.79079 -0.899883 4.46749 0 0 0
1.75646 0.86795 4.37413 0 0 0
1.77444 0.0905697 4.41635 0 0 0
1.77407 0.211962 4.40444 0 0 0
1.79788 -0.67468 4.45268 0 0 0
1.81799 -1.39596 4.49588 0 0 0
1.80508 -0.347639 4.43675 0 0 0
1.80369 -0.262638 4.43137 0 0 0
1.8037 -0.30763 4.4314 0 0 0
1.81653 -0.85998 4.46148 0 0 0
1.81653 -0.85998 4.46148 0 0 0
1.78146 0.869948 4.36671 0 0 0
1.81752 -0.689533 4.45272 0 0 0
1.83661 -1.57837 4.49631 0 0 0
1.81618 -0.368655 4.43724 0 0 0
1.79636 0.540385 4.3849 0 0 0
1.81748 -0.206061 4.43021 0 0 0
1.8121 0.00842856 4.4164 0 0 0
1.80698 0.280674 4.3963 0 0 0
1.82563 -0.532553 4.43808 0 0 0
1.83884 -1.04309 4.46214 0 0 0
1.84593 -1.31251 4.47916 0 0 0
1.83962 -1.11042 4.4607 0 0 0
1.80082 0.811118 4.36574 0 0 0
1.83798 -0.892097 4.45579 0 0 0
1.84321 -1.04027 4.46688 0 0 0
1.82196 0.0687541 4.41261 0 0 0
1.81816 0.240137 4.39814 0 0 0
1.83823 -0.239862 4.4246 0 0 0
1.82123 0.655077 4.38349 0 0 0
1.83124 -0.0220987 4.39566 0 0 0
1.83961 -0.0223146 4.41589 0 0 0
1.84859 -0.196704 4.42862 0 0 0
1.82366 0.808619 4.36346 0 0 0
1.82822 0.640241 4.37312 0 0 0
1.84356 0.0125651 4.40864 0 0 0
1.84356 0.0125651 4.40864 0 0 0
1.87084 -1.21678 4.47262 0 0 0
1.87084 -1.21678 4.47262 0 0 0
1.86929 -1.23315 4.46841 0 0 0
1.84985 -0.0565297 4.40997 0 0 0
1.84985 -0.0565297 4.40997 0 0 0
1.84914 -0.050338 4.40862 0 0 0
1.87398 -1.25172 4.46553 0 0 0
1.84987 0.0733742 4.40556 0 0 0
1.84915 0.0729582 4.40429 0 0 0
1.83818 0.840608 4.36102 0 0 0
1.86026 -0.0150077 4.40593 0 0 0
1.84564 0.650926 4.37208 0 0 0
1.86522 -0.277239 4.41676 0 0 0
1.86522 -0.277239 4.41676 0 0 0
1.84131 0.888913 4.35641 0 0 0
1.86228 -0.0457551 4.40242 0 0 0
1.86419 0.0913967 4.40429 0 0 0
1.84569 0.872641 4.35863 0 0 0
1.85382 0.848744 4.36371 0 0 0
1.85419 0.849061 4.36439 0 0 0
1.89867 -1.22821 4.45879 0 0 0
1.8832 0.0497148 4.39421 0 0 0
1.87017 0.837975 4.35536 0 0 0
1.90745 -0.884157 4.43979 0 0 0
1.89692 -0.0650473 4.39758 0 0 0
1.93431 -1.58742 4.47947 0 0 0
1.93431 -1.58742 4.47947 0 0 0
1.88847 0.84072 4.35946 0 0 0
1.88646 0.839998 4.3564 0 0 0
1.91658 0.526018 4.37013 0 0 0
1.91243 0.834795 4.34969 0 0 0
1.94153 -0.386975 4.40836 0 0 0
1.923 0.64649 4.35708 0 0 0
1.95322 -0.717565 4.42142 0 0 0
1.94257 -0.0646014 4.38978 0 0 0
1.93484 0.844158 4.35006 0 0 0
1.96626 -0.572725 4.41238 0 0 0
1.96072 0.0651601 4.38269 0 0 0
1.94713 0.802566 4.34134 0 0 0
1.95953 0.393162 4.36119 0 0 0
1.94947 0.845262 4.33767 0 0 0
1.91352 0.981 4.2574 0 0 0
1.91413 1.08597 4.25388 0 0 0
1.97405 -0.0161531 4.38249 0 0 0
1.96063 0.817978 4.33976 0 0 0
1.92169 1.00495 4.25411 0 0 0
1.99672 -0.568917 4.40496 0 0 0
1.96783 0.837326 4.33895 0 0 0
1.92975 0.987651 4.25346 0 0 0
1.93046 1.07761 4.25173 0 0 0
1.98006 0.442797 4.35464 0 0 0
1.99796 -0.059243 4.38297 0 0 0
1.94704 1.06591 4.24663 0 0 0
2.04175 -1.25192 4.43614 0 0 0
1.9902 0.895404 4.32123 0 0 0
1.95935 0.977978 4.24774 0 0 0
2.04775 -1.3524 4.4371 0 0 0
2.0514 -1.44937 4.44493 0 0 0
2.02211 0.200894 4.36094 0 0 0
2.02872 -0.0594035 4.37315 0 0 0
2.01806 0.603573 4.33607 0 0 0
2.01806 0.603573 4.33607 0 0 0
2.04732 -0.436599 4.39381 0 0 0
1.99131 0.999565 4.24452 0 0 0
2.02324 0.90458 4.29937 0 0 0
2.05564 0.546872 4.33207 0 0 0
2.01482 1.00336 4.23879 0 0 0
2.01435 1.00305 4.23806 0 0 0
2.01489 1.06506 4.22492 0 0 0
2.01583 1.0655 4.2268 0 0 0
2.02197 1.10132 4.21478 0 0 0
2.06064 1.10038 4.22041 0 0 0
2.05803 0.982376 4.20036 0 0 0
2.0696 0.987308 4.22355 0 0 0
2.08526 0.954807 4.22929 0 0 0
2.09376 0.979931 4.22066 0 0 0
2.10372 1.08357 4.21365 0 0 0
2.11991 1.09251 4.20975 0 0 0
-2.46102 -1.1803 5.21229 89 64 74
-2.39674 0.68485 5.09961 121 53 60
-2.39976 0.457182 5.1124 139 87 96
-2.41587 -1.32957 5.21374 126 101 123
-2.40372 -1.18195 5.21107 113 94 113
-2.35572 0.938637 5.08263 80 40 45
-2.37928 -0.413575 5.15853 128 105 124
-2.33956 0.964452 5.05147 112 59 71
-2.35831 0.163158 5.12712 42 22 28
-2.37174 -1.28006 5.20832 101 74 89
-2.37175 -1.33738 5.21113 122 97 117
-2.36605 -1.18264 5.20294 118 95 115
-2.35834 -1.30913 5.21102 110 88 106
-2.35618 -1.30032 5.20803 109 94 117
-2.35618 -1.30032 5.20803 109 94 117
-2.33281 -0.347758 5.15799 119 93 112
-2.30041 0.685296 5.08515 53 25 25
-2.31607 -1.26074 5.20155 110 88 107
-2.30465 -0.841738 5.16595 106 82 96
-2.2979 -0.800563 5.16433 125 101 115
-2.28517 -0.352117 5.15033 121 93 105
-2.29642 -1.18104 5.18635 83 66 76
-2.25552 0.647818 5.08445 83 44 49
-2.26762 0.0343471 5.12829 44 23 27
-2.28216 -1.16969 5.18468 94 77 86
-2.28456 -1.30762 5.1955 106 92 110
-2.24332 0.847497 5.06905 64 32 37
-2.23019 0.944959 5.05054 64 30 33
-2.255 -0.699548 5.15137 107 90 110
-2.255 -0.699548 5.15137 107 90 110
-2.00302 1.04841 4.20435 69 36 42
-2.25692 -0.844909 5.15926 97 70 77
-2.25692 -0.844909 5.15926 97 70 77
-2.23978 0.037038 5.12477 45 33 40
-2.2073 0.984691 5.01942 83 39 44
-2.24476 -0.50219 5.1514 75 54 61
-2.21967 0.708646 5.07812 81 45 56
-2.24743 -1.03372 5.16603 120 97 112
-2.24839 -1.03484 5.17313 120 97 112
-2.24397 -0.910444 5.16106 122 92 113
-2.24278 -0.846595 5.15888 80 68 80
-2.23944 -0.871427 5.15848 100 74 83
-2.21495 0.15342 5.10723 58 29 31
-2.2341 -1.02992 5.16769 116 88 110
-2.21575 0.042865 5.11294 86 69 87
-2.21992 -0.49268 5.13807 117 92 107
-2.21945 -1.28511 5.18184 102 78 92
-2.22012 -1.39033 5.19276 120 90 98
-2.18422 -0.15956 5.11475 113 81 97
-2.18446 -0.302674 5.11752 85 70 89
-2.17266 0.289023 5.08134 91 46 55
-2.20387 -1.31847 5.18556 61 43 54
-2.17507 -0.605104 5.13045 109 83 105
-2.16121 0.181223 5.08573 90 46 50
-2.15795 -0.285118 5.123 146 115 131
-2.16469 -0.991215 5.15967 119 88 106
-2.15181 -0.702289 5.1311 124 96 115
-2.15204 -1.39347 5.18303 129 102 117
-2.14192 -1.28333 5.17158 120 101 121
-2.12975 -0.831182 5.13999 118 91 108
-2.11055 0.228377 5.07764 88 58 70
-2.11792 -0.332719 5.11236 131 100 114
-2.13232 -1.33344 5.16295 127 101 121
-2.11635 -0.34334 5.11411 134 106 121
-2.09214 0.19431 5.07036 70 29 34
-2.11939 -1.26471 5.16831 120 93 110
-2.10125 -0.352149 5.11145 137 106 121
-2.10959 -1.02353 5.14039 106 78 93
-2.10039 -0.325441 5.11531 137 110 127
-2.10931 -1.11437 5.15429 126 97 115
-2.05132 0.977163 4.99666 106 54 64
-2.05132 0.977163 4.99666 106 54 64
-2.07325 -0.159675 5.10726 133 97 111
-2.07775 -0.716791 5.11955 119 93 107
-2.0754 -0.530733 5.11658 102 89 108
-2.09109 -1.41672 5.17838 126 96 108
-2.04958 0.302346 5.06283 76 34 48
-2.07389 -1.20445 5.16968 116 91 110
-2.04523 0.186898 5.06765 100 54 63
-2.0472 0.168145 5.07675 102 55 64
-2.07445 -1.39516 5.17512 106 80 89
-2.04485 0.188984 5.06907 100 55 63
-2.05718 -0.665558 5.11853 87 71 90
-2.05023 -0.698895 5.11918 107 89 109
-2.05644 -1.20015 5.15081 111 88 102
-2.02912 -0.686856 5.11206 110 83 100
-1.98384 0.686374 5.03721 58 26 27
-1.98384 0.686374 5.03721 58 26 27
-1.97803 0.143009 5.06211 114 66 78
-1.97616 -0.289941 5.08784 127 105 122
-1.97253 -0.156954 5.09429 93 41 49
-1.95648 0.554766 5.04424 72 33 36
-1.96935 -1.0189 5.12608 108 76 91
-1.9476 0.184917 5.05393 67 27 34
-1.94055 0.154939 5.06408 75 52 68
-1.94303 0.0271967 5.07421 75 42 52
-1.94303 0.0271967 5.07421 75 42 52
-1.94659 -0.277175 5.08732 126 101 118
-1.93564 -0.806088 5.10285 111 81 96
-1.92124 0.157397 5.05612 66 32 42
-1.9092 0.562028 5.02874 80 41 50
-1.91035 0.264034 5.05549 67 36 42
-1.91494 -0.824342 5.11212 108 75 85
-1.8961 0.181548 5.04579 91 45 53
-1.8919 0.257859 5.04074 43 22 25
-1.8992 -0.340467 5.07935 122 95 112
-1.91334 -1.39702 5.13607 128 105 122
-1.89077 0.266129 5.05299 80 42 47
-1.88787 -0.675885 5.09529 95 74 96
-1.87474 -0.342659 5.06672 122 98 112
-1.86856 0.276543 5.0499 84 44 50
-1.86775 0.276439 5.04744 85 45 52
-1.89156 -1.41628 5.14619 114 89 112
-1.85449 0.266442 5.04236 85 42 48
-1.8528 0.258731 5.03795 60 25 27
-1.85748 -0.359449 5.07412 86 54 65
-1.83686 0.700599 5.01799 112 61 68
-1.84298 -0.057266 5.04647 57 27 32
-1.83246 0.796091 5.00592 113 62 71
-1.84059 -0.0512388 5.043 64 33 38
-1.84059 -0.0512388 5.043 64 33 38
-1.85513 -1.38748 5.13792 91 86 108
-1.84207 -0.958696 5.09464 113 94 107
-1.83535 -0.36673 5.07783 116 91 112
-1.81302 -0.368302 5.06795 128 101 118
-1.80662 0.0264336 5.05132 67 46 55
-1.81498 -1.20414 5.12104 123 101 124
-1.78016 0.543138 5.01444 87 59 74
-1.77437 0.342509 5.02335 101 53 65
-1.77673 -0.0358275 5.03751 105 66 71
-1.77552 0.0189122 5.044 70 29 33
-1.76547 0.433144 5.01015 71 30 36
-1.7798 -0.690768 5.0759 112 84 99
-1.77807 -0.68279 5.08268 107 75 91
-1.77862 -1.17141 5.10222 119 97 121
-1.77728 -1.17889 5.10239 115 93 119
-1.77728 -1.17889 5.10239 115 93 119
-1.7788 -1.36322 5.12692 120 98 119
-1.76316 -0.352643 5.05613 115 86 104
-1.75459 0.259461 5.01911 82 39 46
-1.77201 -1.37076 5.11393 73 59 85
-1.73967 0.675613 5.01307 127 74 83
-1.74661 -0.75355 5.07949 107 81 92
-1.74993 -1.35098 5.11001 118 102 129
-1.71789 0.955562 4.97049 67 32 34
-1.73782 -1.38684 5.11881 49 45 57
-1.73464 -1.22515 5.10306 103 88 119
-1.73464 -1.22515 5.10306 103 88 119
-1.72055 -0.379881 5.05263 101 66 74
-1.72794 -1.15543 5.08191 60 56 74
-1.72794 -1.15543 5.08191 60 56 74
-1.7117 0.032735 5.0226 104 56 66
-1.69537 0.951269 4.96468 82 37 42
-1.70691 0.0480384 5.0249 93 51 61
-1.70691 0.0480384 5.0249 93 51 61
-1.69338 0.669562 4.98237 116 67 74
-1.71602 -1.19319 5.10419 122 104 129
-1.71051 -1.127 5.09154 125 107 131
-1.71067 -1.20021 5.09654 99 84 112
-1.68524 0.429936 5.0052 102 56 64
-1.69237 -0.400855 5.04647 134 111 127
-1.69154 -0.692752 5.0681 108 91 107
-1.6768 0.24923 5.00421 89 44 48
-1.67036 -0.00254021 5.02704 113 60 71
-1.66384 0.327514 4.99671 73 35 39
-1.66214 0.348698 4.99931 68 31 34
-1.65264 0.44435 5.00721 112 56 67
-1.66307 -0.532599 5.05508 106 87 106
-1.66501 -0.825216 5.06665 109 88 106
-1.66123 -0.513196 5.05859 104 80 100
-1.64477 0.300044 5.00057 80 40 45
-1.65015 -1.19105 5.08396 117 93 109
-1.65015 -1.19105 5.08396 117 93 109
-1.55131 0.921273 4.50227 72 32 33
-1.6301 -0.536952 5.04487 108 83 102
-1.53891 0.919173 4.51001 83 37 41
-1.61148 -0.695109 5.05455 109 82 97
-1.60109 -0.178958 5.02174 78 68 85
-1.59703 -0.281922 5.02543 111 80 90
-1.59966 -0.536306 5.0391 113 86 101
-1.58309 0.00294191 4.99741 121 66 74
-1.59508 -1.12232 5.07754 115 88 111
-1.58097 -0.282193 5.0172 113 81 94
-1.57757 -0.285155 5.01816 112 80 95
-1.58427 -1.01441 5.06998 60 46 67
-1.58638 -1.41752 5.08793 100 96 117
-1.56376 0.00476036 4.99472 128 72 86
-1.56376 0.00476036 4.99472 128 72 86
-1.56891 -1.19117 5.07407 120 94 118
-1.55446 -0.537772 5.03378 113 86 101
-1.4904 0.436121 4.55154 129 73 86
-1.53404 -0.188105 5.0133 120 82 96
-1.53787 -1.17991 5.06487 126 103 131
-1.53119 -0.983855 5.05513 100 82 104
-1.44368 0.320304 4.53538 89 51 65
-1.50335 -0.995663 5.048 125 96 124
-1.49557 -0.673563 5.02346 124 93 108
-1.49551 -0.674142 5.03018 124 93 108
-1.50327 -1.38613 5.07603 115 102 123
-1.49529 -1.1387 5.05593 117 92 114
-1.41925 0.930124 4.48205 94 56 69
-1.41834 0.928252 4.47355 94 56 69
-1.47746 -0.687521 5.02151 125 94 109
-1.41382 0.841504 4.49593 111 69 83
-1.43682 0.21429 4.69593 67 30 34
-1.42736 0.192549 4.6922 97 56 65
-1.45273 -0.909854 5.03576 111 89 104
-1.44525 -0.890512 5.035 112 81 94
-1.44328 -0.842311 5.03364 101 70 80
-1.44292 -0.913393 5.03423 101 84 96
-1.44387 -1.32208 5.05993 106 90 116
-1.44248 -1.32855 5.05496 114 94 121
-1.43766 -0.891882 5.02413 87 69 80
-1.43298 -0.949699 5.03442 89 74 97
-1.43399 -1.12422 5.0423 107 88 109
-1.43496 -1.38101 5.06054 106 80 99
-1.42974 -0.957558 5.03204 101 83 104
-1.43258 -1.3505 5.06103 100 83 101
-1.42816 -0.967345 5.03694 105 87 113
-1.36018 0.928327 4.45972 78 39 40
-1.41636 -1.38264 5.04933 76 62 87
-1.40567 -1.37332 5.05214 116 98 120
-1.33969 0.866575 4.47919 54 24 26
-1.38333 -0.165317 4.95234 88 47 56
-1.33919 0.298325 4.61343 71 38 43
-1.31827 0.928707 4.45515 70 39 44
-1.32085 0.402952 4.51761 103 56 64
-1.3658 -1.11757 5.02676 108 80 98
-1.36273 -1.05607 5.03096 112 81 99
-1.3145 0.378723 4.51233 81 54 68
-1.33118 -0.191822 4.73429 119 64 73
-1.29536 0.866672 4.47324 118 75 82
-1.29536 0.866672 4.47324 118 75 82
-1.29494 0.36191 4.50973 112 71 84
-1.30723 0.10742 4.69347 111 60 69
-1.28688 0.745986 4.47678 80 41 41
-1.28368 0.781283 4.47682 86 42 44
-1.30104 0.0904315 4.74128 108 59 64
-1.3008 -0.830195 5.00369 106 83 96
-1.27373 -0.0787742 4.7736 94 60 77
-1.28711 -0.986886 5.01319 105 83 96
-1.23875 0.330932 4.50689 71 44 55
-1.23822 0.345048 4.50445 79 50 65
-1.27067 -1.11331 5.01437 60 43 61
-1.2586 -0.680721 4.99294 99 80 108
-1.24974 -0.589234 4.98424 98 43 49
-1.25222 -0.981326 5.00277 91 74 100
-1.25222 -0.981326 5.00277 91 74 100
-1.24306 -0.678349 4.98115 108 81 96
-1.21032 0.476432 4.49296 84 44 49
-1.21346 0.296645 4.61581 93 53 59
-1.22961 -0.533965 4.97191 129 77 82
-1.23022 -1.26981 5.01707 113 88 110
-1.22555 -1.2146 5.01521 103 80 99
-1.21957 -0.815894 4.98964 91 70 90
-1.20035 0.00727147 4.78487 119 63 71
-1.21576 -1.34005 5.01984 88 73 94
-1.21496 -1.1991 5.01548 107 86 100
-1.21371 -1.29767 5.01961 112 86 103
-1.21371 -1.29767 5.01961 112 86 103
-1.19548 -0.0835698 4.76637 114 62 66
-1.17575 0.444285 4.48889 111 61 70
-1.20431 -1.20453 5.01067 105 80 96
-1.19998 -0.830642 4.99567 70 53 64
-1.19746 -1.36773 5.01769 110 92 115
-1.1552 0.331538 4.48442 125 68 79
-1.18304 -1.12294 4.99537 115 95 122
-1.16354 -1.19896 5.00019 103 93 120
-1.15656 -1.39325 5.01297 114 94 117
-1.15374 -1.41009 5.00982 111 93 118
-1.13724 -0.362043 4.71179 70 28 33
-1.14344 -0.830383 4.98672 60 45 61
-1.1314 0.114783 4.80852 64 38 49
-1.12875 0.114177 4.7698 65 39 51
-1.10845 0.130271 4.76292 66 40 54
-1.11636 -1.4665 5.00262 124 102 124
-1.1145 -1.19531 4.99426 118 96 108
-1.11412 -1.26832 4.99136 93 70 92
-1.05583 0.821942 3.62741 132 81 90
-1.08924 0.0662887 4.78284 129 74 84
-1.0899 -0.423111 4.74885 72 39 43
-1.09815 -1.4461 5.00207 113 95 117
-1.09212 -0.701637 4.96529 72 56 69
-1.07608 -1.37633 4.98936 85 73 85
-1.06049 -0.436002 4.76213 100 56 63
-1.06722 -1.39012 5.00276 92 82 102
-1.0548 -0.456366 4.75741 93 54 59
-1.04388 0.12913 4.75993 119 62 70
-1.054 -1.40859 5.00594 115 103 129
-1.054 -1.40859 5.00594 115 103 129
-1.02994 -0.485607 4.76557 61 30 35
-1.02566 -1.41138 4.99723 109 90 116
-1.00845 -0.0369176 4.75707 96 45 50
-1.00845 -0.0369176 4.75707 96 45 50
-0.993648 0.361818 4.46213 112 56 67
-0.993648 0.361818 4.46213 112 56 67
-0.993595 -1.0264 4.58988 94 79 94
-0.986011 -0.894421 4.68882 95 80 102
-0.983832 -0.663159 4.6846 105 80 95
-0.973207 -1.3949 4.97782 117 99 121
-0.952607 -0.0771981 4.7392 118 62 69
-0.950222 -0.116523 4.73664 110 61 65
-0.947719 0.370531 4.45607 131 75 88
-0.931799 -1.39861 4.98323 102 88 114
-0.923635 0.0508199 4.73593 50 20 22
-0.924813 -1.38452 4.96784 113 101 128
-0.917637 -1.39388 4.9734 111 100 130
-0.911366 -0.0654677 4.68519 117 62 68
-0.900058 -1.36622 4.97063 106 100 128
-0.901115 -0.871529 4.69201 86 73 77
-0.90928 0.904632 3.40688 123 66 73
-0.871984 0.72939 3.46134 124 69 79
-0.840794 -0.619703 4.73758 67 48 53
-0.825381 0.439583 4.4282 137 85 98
-0.797512 0.11877 4.70966 117 60 68
-0.797111 -0.240541 4.73073 58 31 39
-0.767654 -0.570517 4.73946 61 45 57
-0.763553 0.297878 4.51566 129 75 88
-0.763553 0.297878 4.51566 129 75 88
-0.751759 -1.07629 4.66357 101 87 101
-0.742608 -0.037686 4.71108 126 64 72
-0.737478 -0.629769 4.73889 63 47 58
-0.736532 -1.09235 4.64325 97 89 102
-0.72736 -0.182294 4.7135 123 64 71
-0.726887 0.0983382 4.68929 116 59 65
-0.705701 -0.164424 4.71383 126 66 78
-0.766999 0.610376 3.44802 138 86 108
-0.694319 0.216903 4.55111 139 85 105
-0.676378 -0.507033 4.67044 98 47 56
-0.751753 0.627195 3.44248 105 47 61
-0.751588 0.464676 3.40619 120 71 90
-0.657767 0.355597 4.40579 138 80 95
-0.653423 -1.15818 4.53992 20 29 54
-0.636469 -0.0846092 4.58648 149 91 106
-0.618726 -0.41942 4.58268 84 54 59
-0.704988 0.62029 3.44127 137 76 90
-0.70392 0.679552 3.43376 141 79 92
-0.70392 0.679552 3.43376 141 79 92
-0.616539 -0.584023 4.57204 121 67 78
-0.615639 -0.586 4.5823 121 67 78
-0.613432 -0.969308 4.53694 73 57 69
-0.693559 0.732127 3.42837 140 75 89
-0.597617 -0.0825558 4.58327 107 63 73
-0.690815 0.905336 3.37638 153 118 139
-0.592084 -0.0192008 4.57547 121 76 94
-0.686011 0.609968 3.43323 153 111 131
-0.588431 -0.146512 4.5761 133 98 120
-0.586291 -0.0931515 4.58344 139 104 124
-0.591028 -1.06223 4.49814 115 99 119
-0.57943 -0.284417 4.58889 131 84 106
-0.673192 0.815722 3.42412 135 89 105
-0.562458 0.138355 4.56465 129 83 96
-0.568058 -0.741489 4.54657 73 67 77
-0.65689 0.69327 3.42554 139 92 113
-0.65616 0.731199 3.42252 133 86 97
-0.565386 0.521369 4.31722 132 78 94
-0.547774 0.298095 4.45286 135 87 101
-0.547774 0.298095 4.45286 135 87 101
-0.537104 -0.146874 4.56993 40 23 28
-0.537104 -0.146874 4.56993 40 23 28
-0.544264 -1.06752 4.51442 107 89 107
-0.528179 -0.35836 4.58766 66 46 53
-0.498097 -0.232737 4.56831 127 75 90
-0.515403 0.438007 4.37758 132 79 95
-0.50351 -0.967797 4.53116 72 60 74
-0.486259 -0.0897464 4.56156 108 75 96
-0.495459 -1.01934 4.49862 98 91 112
-0.495459 -1.01934 4.49862 98 91 112
-0.481728 -1.05476 4.50042 83 71 95
-0.440883 0.0654062 4.55704 132 84 98
-0.446334 0.337431 4.37356 138 85 108
-0.418366 0.0483551 4.52229 123 74 96
-0.395393 -0.332395 4.54855 132 77 88
-0.402056 -1.46851 4.49568 100 90 118
-0.395942 0.0594059 4.47755 143 90 110
-0.386511 -0.326551 4.5461 131 78 87
-0.385426 -0.357272 4.5502 122 76 86
-0.380569 -0.295792 4.54399 126 77 83
-0.371212 -0.504443 4.58928 110 68 77
-0.360802 -0.410819 4.55289 117 66 78
-0.34873 -0.169407 4.60989 153 113 137
-0.356531 -0.295992 4.54181 104 62 84
-0.356531 -0.295992 4.54181 104 62 84
-0.519207 0.906076 3.34036 105 63 77
-0.332859 -0.440337 4.55718 104 55 63
-0.497177 0.871952 3.37159 115 68 84
-0.324966 -0.527447 4.55938 97 52 59
-0.325342 -0.435906 4.55322 103 53 58
-0.340083 0.00888506 4.40042 107 64 75
-0.340083 0.00888506 4.40042 107 64 75
-0.476825 0.730749 3.39325 52 94 145
-0.30048 -0.747207 4.56634 59 39 51
-0.30631 -0.297045 4.46023 86 48 54
-0.298486 -0.37885 4.4948 81 45 49
-0.463024 0.793926 3.38567 165 125 151
-0.311109 0.352488 4.34671 155 114 132
-0.296485 -0.0892643 4.39534 94 53 62
-0.275588 -0.541348 4.53591 46 23 20
-0.451137 0.724712 3.39041 109 60 69
-0.294135 -0.0744356 4.38749 109 56 69
-0.268498 -0.558568 4.53957 33 21 16
-0.265829 -0.33033 4.52536 82 45 50
-0.264601 -1.2064 4.48904 75 67 84
-0.262514 -1.22633 4.48621 98 94 115
-0.437665 0.871577 3.36042 114 61 69
-0.244883 -0.949358 4.52529 57 52 59
-0.23595 -0.363249 4.54925 62 35 34
-0.255429 -0.0829799 4.41697 93 48 55
-0.237934 -0.306427 4.51689 66 34 35
-0.237934 -0.306427 4.51689 66 34 35
-0.262001 -0.0790425 4.3679 106 61 68
-0.247781 -0.226209 4.45563 70 36 36
-0.259962 -0.0789517 4.37867 108 63 70
-0.263215 -0.0238023 4.34173 109 57 63
-0.238764 0.0932572 4.45633 108 55 65
-0.242273 -0.0627441 4.37912 80 33 39
-0.213043 -0.756843 4.5444 83 60 68
-0.20775 -0.841475 4.55115 86 65 70
-0.201139 -0.360473 4.55291 65 37 36
-0.429449 1.01351 3.20427 124 76 88
-0.187741 -0.356054 4.54642 64 36 35
-0.208444 -0.0495105 4.38874 103 56 64
-0.173501 -0.297171 4.5315 64 34 34
-0.192247 -1.46435 4.45273 107 89 103
-0.168837 -0.297536 4.52839 71 39 42
-0.387023 1.04294 3.28094 97 56 67
-0.146821 -0.755234 4.53044 79 57 64
-0.154666 -1.46785 4.45033 97 90 106
-0.172273 0.361529 4.30922 95 55 63
-0.168441 0.363455 4.31948 97 56 64
-0.132263 -0.906861 4.53044 81 61 67
-0.0942364 -0.712263 4.5195 65 51 60
-0.129103 0.436246 4.31073 106 58 72
-0.0998542 0.0447496 4.40924 95 59 70
-0.0998542 0.0447496 4.40924 95 59 70
-0.0936455 0.0264775 4.40604 103 60 76
-0.0903699 -1.02987 4.43867 88 73 89
-0.10154 0.483758 4.3007 102 70 90
-0.0610599 -0.647721 4.50401 106 62 69
-0.0598129 -0.648901 4.51011 106 62 69
-0.0708961 0.0524536 4.42022 106 70 90
-0.289095 0.81554 3.35604 105 73 97
-0.289095 0.81554 3.35604 105 73 97
-0.0428217 0.100854 4.45343 103 68 86
-0.276012 0.624657 3.36425 102 74 97
-0.0839938 0.574101 4.2419 128 84 104
-0.0305873 -0.0692482 4.47714 98 57 64
-0.0281123 -0.602939 4.49127 68 51 58
-0.0291518 0.208616 4.4054 104 72 96
-0.00966391 -0.0866031 4.47496 98 57 65
-0.00966391 -0.0866031 4.47496 98 57 65
0.00691008 -0.426611 4.47209 53 37 42
-0.00929673 -1.05859 4.40138 84 78 81
-0.235533 0.804752 3.34736 107 77 98
-0.235533 0.804752 3.34736 107 77 98
0.00888654 -0.992802 4.43236 88 80 87
0.0285404 -0.084418 4.47038 78 50 62
0.00899614 -1.46349 4.39843 118 111 123
0.0348145 -0.233737 4.47448 89 48 57
0.0164395 -1.05279 4.39163 86 80 80
0.0149702 0.299062 4.35329 127 80 98
0.0263069 -0.981963 4.4052 76 75 81
0.0504719 -0.373421 4.47458 97 63 74
0.0415664 -1.2148 4.43725 98 85 93
0.058693 -0.243254 4.4656 104 63 68
0.0457845 -1.05932 4.38457 80 71 74
0.0343274 -1.40887 4.32736 106 101 108
-0.185388 0.638216 3.34751 106 74 98
0.0643263 -1.06114 4.38729 47 46 50
0.0901851 -0.305628 4.46944 76 52 65
0.0901851 -0.305628 4.46944 76 52 65
0.0921452 0.0480957 4.452 123 72 87
0.0534107 0.353789 4.28037 120 76 96
0.109063 0.0677789 4.46394 128 83 100
0.0997065 -1.2204 4.43076 59 58 75
-0.175783 1.00937 3.27763 151 102 124
0.112383 -1.0195 4.39275 72 61 69
0.149877 -1.05843 4.38765 50 59 54
0.162973 -1.08465 4.37486 47 59 57
0.275768 -0.907377 4.54706 56 80 59
0.209022 0.334845 4.26082 163 113 135
-0.0544201 0.694518 3.32297 137 90 110
0.293004 0.112192 4.52436 151 102 123
0.331756 -0.251816 4.53209 62 44 49
0.318145 -1.1457 4.46717 76 77 72
-0.0107986 0.87175 3.28923 74 58 69
-0.0107986 0.87175 3.28923 74 58 69
0.355381 -0.0899283 4.47578 74 47 56
0.357794 -0.123027 4.47693 75 40 44
0.00431278 0.790165 3.31105 111 65 76
0.00434198 0.789946 3.31016 109 63 74
0.378678 -0.727766 4.52585 47 59 54
0.380027 -0.351806 4.5235 61 41 43
0.382309 -0.352242 4.53051 61 41 43
0.304167 0.348612 4.23739 106 68 79
0.0163113 0.803606 3.30543 114 67 79
0.399629 -0.0489779 4.51064 97 57 62
0.397767 -0.178332 4.50622 84 52 57
0.0232399 0.722148 3.30666 118 68 79
0.0244733 0.734944 3.30615 123 72 82
0.325953 0.425214 4.23014 125 75 87
0.325953 0.425214 4.23014 125 75 87
0.404661 -0.1154 4.43829 79 44 48
0.441996 -0.26898 4.50719 67 47 49
0.0676939 0.871326 3.2793 130 83 99
0.0720311 0.512744 3.27356 127 84 101
0.0812147 0.857483 3.28455 122 76 88
0.39754 0.352084 4.22245 102 68 81
0.507999 -0.270175 4.50531 59 67 70
0.458335 -1.0232 4.36699 74 82 85
0.584282 -1.30665 4.70251 84 98 99
0.601669 -1.63513 4.7189 74 89 88
0.478092 -1.03225 4.33606 75 87 89
0.566956 -0.0686218 4.47929 82 85 110
0.64662 -1.38591 4.69257 73 88 85
0.650748 -1.38528 4.69539 76 91 90
0.656788 -1.39922 4.69954 79 94 91
0.597334 0.0399821 4.46492 85 89 115
0.686846 -1.56065 4.70358 75 84 90
0.689416 -1.52946 4.69648 67 77 89
0.689416 -1.52946 4.69648 67 77 89
0.690644 -1.48384 4.69251 68 79 92
0.53786 0.330737 4.20587 78 83 103
0.632717 -0.201116 4.45651 80 87 101
0.708213 -0.849405 4.66104 65 67 86
0.712469 -1.32 4.67805 71 85 93
0.642395 -0.185264 4.454 81 84 101
0.596266 0.307828 4.18979 87 90 112
0.608417 0.320808 4.18449 87 92 112
0.619257 0.420673 4.17736 79 84 104
0.803355 -0.875763 4.64582 64 69 91
0.809414 -1.01749 4.65258 61 63 84
0.821663 -1.33342 4.66447 55 62 81
0.841317 -1.39857 4.66861 67 74 92
0.656257 0.461007 4.17382 81 79 100
0.656257 0.461007 4.17382 81 79 100
0.843564 -0.549415 4.61748 0 0 0
0.749434 -0.443555 4.37475 0 0 0
0.854045 -0.556595 4.61598 0 0 0
0.675571 0.415636 4.1676 0 0 0
0.862988 -0.53904 4.61378 0 0 0
0.689605 0.356356 4.16811 0 0 0
0.782999 0.156392 4.37563 0 0 0
0.890321 -0.825039 4.62241 0 0 0
0.906468 -1.57163 4.66754 0 0 0
0.76103 0.2284 4.27885 0 0 0
0.912546 -1.40433 4.65317 0 0 0
0.908027 -0.799046 4.62048 0 0 0
0.911811 -0.93542 4.61979 0 0 0
0.779385 0.216296 4.28053 0 0 0
0.804532 0.0885647 4.33539 0 0 0
0.804474 0.107253 4.32634 0 0 0
0.73982 0.44482 4.16028 0 0 0
0.872468 -0.116726 4.33383 0 0 0
0.858535 -0.227406 4.29425 0 0 0
1.00171 -0.864799 4.61043 0 0 0
0.857672 -0.31556 4.23898 0 0 0
1.04356 -1.62675 4.63984 0 0 0
1.05145 -0.862765 4.59892 0 0 0
0.868999 0.420612 4.14093 0 0 0
1.07259 -0.844139 4.59315 0 0 0
1.07717 -0.852183 4.59451 0 0 0
1.07282 -0.53376 4.57737 0 0 0
1.08946 -0.542047 4.58025 0 0 0
1.10638 -1.03448 4.6023 0 0 0
0.898446 0.804131 4.0975 0 0 0
1.13188 -0.865652 4.58402 0 0 0
1.14147 -1.04813 4.59495 0 0 0
0.917944 0.787159 4.09566 0 0 0
1.13304 0.0948542 4.53334 0 0 0
1.15947 -1.02545 4.59575 0 0 0
1.17186 -1.06646 4.58326 0 0 0
1.17798 -1.16529 4.59538 0 0 0
0.936305 0.91119 4.07012 0 0 0
1.20146 -1.0308 4.58337 0 0 0
1.19793 -0.742098 4.56915 0 0 0
1.18482 0.197388 4.51422 0 0 0
1.19524 0.118661 4.52841 0 0 0
1.22495 -1.0418 4.57999 0 0 0
1.2212 0.215899 4.50948 0 0 0
1.01036 0.559346 4.07888 0 0 0
1.2674 -0.693886 4.55797 0 0 0
1.2844 -1.17028 4.57437 0 0 0
1.27906 -0.703466 4.55822 0 0 0
1.28818 -0.908015 4.56246 0 0 0
1.26141 0.263993 4.49503 0 0 0
1.28026 -0.443735 4.53304 0 0 0
1.29126 -0.379105 4.54422 0 0 0
1.29273 -0.272486 4.52803 0 0 0
1.31873 -1.33521 4.58421 0 0 0
1.28466 0.209554 4.49307 0 0 0
1.29116 0.224445 4.49786 0 0 0
1.29025 0.258288 4.49001 0 0 0
1.30412 -0.35911 4.51838 0 0 0
1.34483 -1.72431 4.59117 0 0 0
1.3136 0.193798 4.49018 0 0 0
1.34514 -1.18896 4.56333 0 0 0
1.34514 -1.18896 4.56333 0 0 0
1.31609 0.396534 4.49025 0 0 0
1.339 -0.869816 4.54614 0 0 0
1.33011 0.233648 4.50254 0 0 0
1.32656 0.220956 4.49286 0 0 0
1.32484 0.119197 4.49076 0 0 0
1.33425 0.263014 4.48594 0 0 0
1.33436 0.346306 4.47859 0 0 0
1.35123 0.0802253 4.49995 0 0 0
1.368 -0.402984 4.5163 0 0 0
1.39548 -1.03689 4.5567 0 0 0
1.40832 -1.22973 4.55386 0 0 0
1.40687 -0.538604 4.51461 0 0 0
1.39664 0.243513 4.48145 0 0 0
1.40847 0.146098 4.471 0 0 0
1.41273 0.405184 4.46306 0 0 0
1.45062 -0.870924 4.53478 0 0 0
1.45062 -0.870924 4.53478 0 0 0
1.42616 0.228021 4.47338 0 0 0
1.42616 0.228021 4.47338 0 0 0
1.43394 0.199168 4.46585 0 0 0
1.46496 -0.870064 4.5261 0 0 0
1.46678 -0.703457 4.52321 0 0 0
1.44478 0.259779 4.44506 0 0 0
1.44731 0.258624 4.44926 0 0 0
1.48442 -0.856869 4.52271 0 0 0
1.45057 0.550071 4.44823 0 0 0
1.44294 0.894451 4.42998 0 0 0
1.44294 0.894451 4.42998 0 0 0
1.48994 -1.17717 4.5313 0 0 0
1.47575 -0.183561 4.4835 0 0 0
1.47575 -0.183561 4.4835 0 0 0
1.4993 -1.11691 4.5299 0 0 0
1.4993 -1.11691 4.5299 0 0 0
1.50088 -1.18868 4.53025 0 0 0
1.4567 0.82236 4.42873 0 0 0
1.50289 -1.20317 4.52837 0 0 0
1.51219 -1.29748 4.54024 0 0 0
1.50363 -0.774854 4.51173 0 0 0
1.50437 -0.696235 4.51199 0 0 0
1.47491 0.620675 4.4307 0 0 0
1.48188 0.680221 4.43259 0 0 0
1.53337 -0.552623 4.49316 0 0 0
1.51062 0.284236 4.44456 0 0 0
1.51062 0.284236 4.44456 0 0 0
1.5019 0.747247 4.42456 0 0 0
1.51116 0.828293 4.42624 0 0 0
1.53389 -0.011246 4.46633 0 0 0
1.51997 0.663364 4.43464 0 0 0
1.5441 -0.418306 4.48201 0 0 0
1.5748 -1.34936 4.53057 0 0 0
1.52636 0.799158 4.4188 0 0 0
1.56829 -0.488556 4.4847 0 0 0
1.58253 -1.04522 4.50728 0 0 0
1.56634 -0.0341218 4.46919 0 0 0
1.56428 0.0375433 4.45885 0 0 0
1.58174 -0.861607 4.49729 0 0 0
1.59804 -1.22839 4.52095 0 0 0
1.5751 -0.177908 4.46748 0 0 0
1.58447 0.00302703 4.45289 0 0 0
1.60259 -0.191404 4.47772 0 0 0
1.57878 0.446804 4.42983 0 0 0
1.59874 -0.174677 4.45501 0 0 0
1.59689 0.468311 4.42509 0 0 0
1.63696 -1.04129 4.49319 0 0 0
1.62593 0.255969 4.42124 0 0 0
1.64077 0.258753 4.43893 0 0 0
1.68034 -1.03579 4.49383 0 0 0
1.67362 -0.186339 4.46492 0 0 0
1.67362 -0.186339 4.46492 0 0 0
1.7192 -0.856645 4.4787 0 0 0
1.69244 0.211485 4.42504 0 0 0
1.73798 -0.858538 4.47471 0 0 0
1.72201 0.221342 4.42164 0 0 0
1.7519 -0.876675 4.47908 0 0 0
1.75068 -0.380233 4.45177 0 0 0
1.7705 -0.6945 4.45657 0 0 0
1.7764 -0.902279 4.46765 0 0 0
1.7676 0.404603 4.40625 0 0 0
1.7676 0.404603 4.40625 0 0 0
1.7551 0.701055 4.37417 0 0 0
1.77609 0.258546 4.404 0 0 0
1.81393 -0.358724 4.44096 0 0 0
1.8348 -1.13806 4.46541 0 0 0
1.81607 -0.206678 4.42759 0 0 0
1.80888 -0.0498512 4.41321 0 0 0
1.82294 -0.325783 4.43163 0 0 0
1.83935 -1.04323 4.46276 0 0 0
1.83835 -1.11016 4.45914 0 0 0
1.80765 0.279443 4.39716 0 0 0
1.82243 -0.22521 4.42362 0 0 0
1.82243 -0.22521 4.42362 0 0 0
1.83097 -0.26511 4.42821 0 0 0
1.82301 0.0212833 4.41204 0 0 0
1.81769 0.846593 4.3754 0 0 0
1.84143 0.037892 4.40612 0 0 0
1.84143 0.037892 4.40612 0 0 0
1.82424 0.808756 4.36369 0 0 0
1.87984 -0.69685 4.43801 0 0 0
1.84795 0.746279 4.36766 0 0 0
1.87304 -0.194789 4.41184 0 0 0
1.8774 -0.194728 4.4174 0 0 0
1.85343 0.818601 4.37179 0 0 0
1.86485 0.400677 4.38016 0 0 0
1.86485 0.400677 4.38016 0 0 0
1.87644 0.848517 4.36144 0 0 0
1.91023 0.552613 4.36584 0 0 0
1.91298 0.58576 4.36448 0 0 0
1.91735 0.53609 4.35702 0 0 0
1.96799 -1.06682 4.44053 0 0 0
1.94987 -0.356616 4.40378 0 0 0
1.9668 -0.335584 4.39973 0 0 0
1.93746 0.831327 4.345 0 0 0
1.96601 0.412351 4.35895 0 0 0
1.98605 -0.0379406 4.38301 0 0 0
1.95346 0.995981 4.24675 0 0 0
2.04913 0.830135 4.32161 0 0 0
2.10422 0.926565 4.27619 0 0 0
2.06679 1.03193 4.22431 0 0 0
2.06679 1.03193 4.22431 0 0 0
-2.67206 1.06053 5.0453 157 98 118
-2.6781 0.935673 5.12403 50 27 31
-2.67245 0.935766 5.11708 47 24 30
-2.6558 0.979722 5.09136 115 67 75
-2.67513 0.857078 5.13006 69 33 37
-2.66215 0.887453 5.1155 69 36 41
-2.60436 1.07008 5.02739 106 53 61
-2.65148 0.947834 5.12297 60 28 32
-2.65708 0.69462 5.1392 119 66 79
-2.65708 0.69462 5.1392 119 66 79
-2.60358 1.01969 5.03864 80 45 60
-2.65078 0.0267156 5.14491 124 98 121
-2.63609 0.72963 5.12996 114 68 79
-2.64213 0.447057 5.16343 64 28 41
-2.62938 0.662043 5.14363 83 31 42
-2.64455 0.0568063 5.17783 122 96 118
-2.63358 0.369239 5.15764 57 22 29
-2.64273 0.05631 5.17655 119 95 117
-2.63246 0.604829 5.15947 115 57 72
-2.60544 0.9584 5.12141 69 33 37
-2.62525 0.24979 5.16708 38 20 26
-2.64238 -0.512798 5.21158 113 85 96
-2.63676 -1.09968 5.23771 121 97 118
-2.61998 -0.461093 5.20773 115 84 100
-2.64228 -1.55994 5.26001 112 88 111
-2.61997 -0.610705 5.22664 125 94 112
-2.56594 0.815811 5.12386 119 67 80
-2.63104 -1.56554 5.26471 118 91 110
-2.52088 1.00053 5.05078 49 27 30
-2.5036 1.02878 5.02312 45 23 25
-2.62842 -1.71888 5.27811 165 181 232
-2.61689 -1.35523 5.25505 121 93 108
-2.60782 -1.12984 5.23858 118 91 108
-2.6255 -1.74468 5.27681 165 181 232
-2.6138 -1.71732 5.26971 163 179 231
-2.60966 -1.7156 5.26577 164 180 232
-2.61592 -1.84669 5.2806 164 180 231
-2.60324 -1.60457 5.26874 128 109 128
-2.59017 -1.41499 5.25346 118 96 114
-2.53906 0.0379163 5.16147 85 51 58
-2.53857 0.0379284 5.16063 85 51 58
-2.53857 0.0379284 5.16063 85 51 58
-2.56064 -1.29629 5.24002 109 85 108
-2.4561 0.987018 5.04232 60 39 47
-2.54217 -1.30665 5.23915 120 92 109
-2.54071 -1.30583 5.23642 120 92 109
-2.53826 -1.71203 5.25837 166 182 234
-2.52806 -1.56122 5.25261 103 83 104
-2.52669 -1.56066 5.25056 103 83 104
-2.44401 0.24133 5.1306 72 37 43
-2.44285 0.241188 5.12838 72 37 43
-2.48178 -1.31693 5.23042 112 87 108
-2.48295 -1.88997 5.26945 161 177 229
-2.48295 -1.88997 5.26945 161 177 229
-2.44841 -1.1859 5.22145 122 99 118
-2.42298 -1.33337 5.22813 126 95 111
-2.42828 -1.72825 5.2426 165 181 233
-2.38865 -0.417615 5.16471 109 86 107
-2.4029 -1.18189 5.21048 114 96 112
-2.40443 -1.55522 5.2292 110 102 133
-2.38519 -1.3237 5.21929 125 98 114
-2.395 -1.85154 5.24535 163 179 231
-2.31822 0.687098 5.07978 122 71 85
-2.37508 -1.28191 5.21678 120 95 114
-2.37193 -1.33737 5.21102 121 90 109
-2.37959 -1.87312 5.24012 162 178 229
-2.33159 -0.380498 5.14859 127 103 117
-2.29871 0.685013 5.08124 126 79 95
-2.29871 0.685013 5.08124 126 79 95
-2.36216 -1.55842 5.22272 102 85 114
-2.36569 -1.89068 5.23766 162 178 228
-2.34315 -0.820106 5.19257 73 65 87
-2.36008 -1.84902 5.23101 164 180 232
-2.3289 -1.56738 5.2176 110 99 124
-2.29831 -0.802286 5.16388 105 95 122
-2.29923 -0.83227 5.17307 115 91 107
-2.31405 -1.8524 5.22346 162 178 230
-2.29926 -1.18245 5.19139 109 91 108
-2.30105 -1.56582 5.20712 123 102 121
-2.29176 -1.54288 5.21048 128 99 119
-2.29508 -1.84165 5.22724 162 178 230
-2.28094 -1.85095 5.21969 162 178 230
-2.28094 -1.85095 5.21969 162 178 230
-2.18043 0.436033 5.07627 89 42 53
-2.20023 -0.364193 5.13054 138 112 125
-2.22197 -1.39053 5.1933 83 63 75
-2.22197 -1.39053 5.1933 83 63 75
-2.17424 0.182994 5.09319 81 40 46
-2.15653 0.359753 5.0737 105 61 79
-2.18092 -1.26267 5.17835 129 102 117
-2.18331 -1.56937 5.1883 128 106 127
-2.13607 -0.505623 5.119 115 99 120
-2.11287 0.257626 5.07174 96 61 73
-2.11287 0.257626 5.07174 96 61 73
-2.11149 0.330294 5.0714 78 43 49
-2.11122 0.228042 5.07886 53 27 37
-2.14183 -1.28296 5.17035 121 93 107
-2.12727 -1.31746 5.17271 108 76 86
-2.1012 -0.352632 5.11081 116 88 98
-2.11467 -0.978889 5.14563 100 77 86
-2.05762 0.351754 5.065 65 27 33
-2.10919 -1.58003 5.20161 108 94 125
-2.08895 -1.41476 5.17132 114 96 115
-2.06772 -0.82468 5.13145 88 76 100
-2.06932 -1.70296 5.18524 166 182 234
-2.0118 0.427834 5.05733 99 48 55
-2.05855 -1.71574 5.18194 166 182 234
-2.00327 0.142027 5.07661 72 37 43
-2.0007 -0.521516 5.10605 123 92 107
-1.99358 -0.997567 5.13287 112 91 108
-1.9499 0.182457 5.05496 64 33 35
-1.98774 -1.75276 5.19306 160 176 227
-1.93357 -0.806328 5.0961 127 105 120
-1.93529 -0.83011 5.10986 122 94 111
-1.90825 0.441118 5.03922 118 64 77
-1.90802 -0.0837644 5.06313 78 51 57
-1.89695 0.154286 5.04731 69 37 37
-1.89601 -0.339574 5.07725 114 90 114
-1.87778 0.256246 5.05027 122 72 82
-1.8757 0.141727 5.0501 64 33 38
-1.9075 -1.74121 5.16874 165 179 231
-1.89762 -1.49687 5.14371 117 93 109
-1.88403 -1.57019 5.14499 123 101 119
-1.88403 -1.57019 5.14499 123 101 119
-1.85429 -1.71209 5.14892 163 179 230
-1.84507 -1.73321 5.15335 165 181 232
-1.8138 -1.72529 5.12938 162 176 228
-1.81637 -1.72788 5.13571 162 176 228
-1.78511 -0.827374 5.09089 111 89 102
-1.77878 -0.533706 5.07591 79 59 83
-1.77772 -1.1791 5.10628 124 98 123
-1.78458 -1.5761 5.13617 94 75 87
-1.7711 -1.37093 5.11398 112 91 103
-1.76781 -1.7297 5.13524 161 177 229
-1.73609 -1.37615 5.11334 108 97 117
-1.68809 -1.72494 5.12331 158 174 225
-1.66135 -0.516975 5.05962 104 80 96
-1.66669 -1.51815 5.10008 111 84 100
-1.63566 -1.12282 5.07439 100 76 99
-1.64927 -1.72717 5.11817 161 175 227
-1.59415 -1.12306 5.07548 112 94 118
-1.59795 -1.72834 5.10795 167 184 235
-1.59006 -1.82785 5.10825 160 176 226
-1.5787 -1.81966 5.10911 160 176 228
-1.56585 -1.15956 5.06855 112 86 111
-1.42876 0.298446 4.62733 69 31 35
-1.54938 -1.71957 5.10243 160 175 226
-1.39147 -0.296733 4.622 134 114 131
-1.50831 -0.691064 5.03043 126 94 107
-1.38502 -0.284096 4.62185 119 88 105
-1.51073 -1.17532 5.05934 120 95 121
-1.37524 -0.302415 4.62858 135 112 132
-1.47359 -1.71633 5.08786 162 176 226
-1.34041 -0.326955 4.64414 91 72 97
-1.42201 -0.518581 4.99789 121 100 119
-1.43522 -1.38173 5.05768 84 58 77
-1.41338 -1.19659 5.05197 123 107 133
-1.4135 -1.72199 5.0725 160 176 225
-1.38538 -0.544521 4.99849 115 85 95
-1.39256 -1.10304 5.03323 112 92 119
-1.38988 -1.10224 5.02759 112 92 120
-1.38956 -1.19408 5.04459 127 112 138
-1.36925 -0.692858 5.00979 111 82 92
-1.3295 -1.10669 5.03093 108 85 106
-1.17576 0.444838 4.48831 158 138 127
-1.14959 0.441046 4.48066 136 109 96
-1.29228 -1.72745 5.05304 162 178 229
-1.279 -1.69846 5.0483 159 175 224
-1.20204 0.0098027 4.7849 118 66 77
-1.23387 -1.73476 5.04685 159 175 224
-1.21702 -1.2532 5.01503 117 98 126
-1.21675 -1.27065 5.01876 116 96 121
-1.19907 -0.829873 4.9943 76 54 72
-1.07422 0.442606 4.47477 59 28 31
-1.06975 0.368226 4.4855 123 68 74
-1.19264 -1.71153 5.03214 154 172 220
-1.17372 -1.63462 5.02213 110 116 148
-1.08369 0.0614338 4.76976 114 72 90
-0.99626 0.54711 4.39042 89 59 25
-0.99626 0.54711 4.39042 89 59 25
-0.991284 0.372235 4.46065 115 63 75
-1.03374 -0.0560735 4.75168 98 48 59
-0.948122 0.370763 4.45754 115 62 74
-0.973587 -1.04149 4.59758 108 90 112
-0.934308 -0.652762 4.67497 88 75 89
-0.930864 -0.879607 4.68177 85 68 83
-0.862084 0.543758 4.3668 189 189 181
-0.673128 0.814717 3.42197 126 70 81
-0.978048 -1.73373 4.99827 156 173 222
-0.944461 -1.73369 4.98902 155 172 218
-0.936504 -1.75295 4.98894 156 173 219
-0.935498 -1.72103 4.98771 158 175 221
-0.922507 -1.7061 4.97687 159 176 222
-0.907213 -1.72701 4.98879 155 171 220
-0.897381 -1.73656 4.98079 154 170 219
-0.84061 -0.620139 4.73942 91 75 94
-0.88062 -1.73468 4.98512 153 170 216
-0.799832 -0.0749852 4.71537 91 63 78
-0.760117 0.297302 4.49443 72 48 62
-0.759551 0.297511 4.49238 72 48 62
-0.51848 0.744292 3.39605 133 79 92
-0.658513 0.354952 4.39978 95 47 55
-0.67633 0.213597 4.55265 129 74 87
-0.659408 -1.60858 4.6042 159 173 218
-0.627741 -1.36026 4.49471 113 100 126
-0.630915 -0.946237 4.53525 87 68 87
-0.62709 0.0551207 4.57729 134 83 99
-0.60822 -1.46369 4.44664 111 128 166
-0.613437 -1.21015 4.54641 123 108 137
-0.58458 0.354382 4.39521 104 50 64
-0.599396 -0.399676 4.57699 129 70 82
-0.582569 -0.880867 4.49879 88 77 95
-0.569002 -0.732419 4.51566 110 93 109
-0.569002 -0.732419 4.51566 110 93 109
-0.538276 -1.06247 4.50322 157 174 243
-0.534894 -0.304382 4.58953 104 61 68
-0.501234 0.465105 4.37467 133 74 88
-0.500958 -0.921536 4.53562 102 86 97
-0.484188 -0.512464 4.56663 86 64 66
-0.484188 -0.512464 4.56663 86 64 66
-0.449961 -0.560986 4.50306 57 51 53
-0.441618 0.0670768 4.54982 133 81 98
-0.429489 -1.46077 4.50206 107 89 111
-0.42398 -1.04507 4.52939 73 68 91
-0.419652 -0.541252 4.50573 66 54 58
-0.420673 -0.623239 4.58945 104 64 73
-0.409862 -1.47707 4.48945 101 100 125
-0.402062 -1.46564 4.4894 106 93 111
-0.389503 -1.35738 4.44279 106 95 125
-0.397562 -0.332238 4.54776 59 36 41
-0.390459 -0.673258 4.58047 67 51 57
-0.367647 0.422693 4.35865 108 65 75
-0.380146 -0.294969 4.54501 66 41 48
-0.371812 -1.46609 4.48567 102 92 115
-0.37523 -0.279606 4.54597 127 71 81
-0.360793 -0.408912 4.55134 122 70 83
-0.352716 -0.718483 4.56873 61 47 60
-0.33814 0.0609815 4.43344 117 79 102
-0.339026 -1.46345 4.47829 112 103 124
-0.329459 -0.735041 4.56313 50 48 59
-0.31091 -0.32389 4.46683 121 73 77
-0.31091 -0.32389 4.46683 121 73 77
-0.308817 -0.536114 4.54949 129 92 101
-0.297706 -0.418494 4.55879 104 57 72
-0.218077 0.728254 3.34223 147 98 118
-0.218168 0.691879 3.34927 147 105 123
-0.215111 0.784698 3.34514 153 105 122
-0.285868 -0.380048 4.49304 145 109 127
-0.288734 -0.468425 4.54269 105 61 79
-0.280568 -0.294684 4.46661 146 104 124
-0.273415 -0.259158 4.46006 130 87 107
-0.266139 -0.0409077 4.34247 100 60 67
-0.257772 0.0226844 4.35741 116 69 77
-0.264338 -1.20702 4.48991 114 107 138
-0.262107 -1.22606 4.48389 104 103 129
-0.263285 -0.352826 4.51331 130 88 108
-0.241932 -0.0626507 4.37906 97 59 70
-0.240716 0.0966618 4.43111 116 69 85
-0.224765 0.0120587 4.35875 111 100 141
-0.217519 -0.241733 4.4662 137 90 112
-0.219996 -0.15211 4.54389 142 95 113
-0.219061 -0.160195 4.5381 141 91 112
-0.214429 -0.1438 4.54902 111 59 72
-0.202631 -0.0524497 4.39214 109 58 70
-0.206919 -0.840733 4.54513 73 59 72
-0.206317 -0.155231 4.55361 109 58 65
-0.202893 -0.164608 4.54674 108 59 65
-0.193801 -0.0681362 4.39891 111 60 67
-0.192148 -1.46485 4.45461 83 73 98
-0.19457 -0.557623 4.55467 88 51 56
-0.188468 -0.174305 4.56023 107 54 60
-0.178106 -0.186003 4.57117 111 55 64
-0.16605 0.435814 4.31697 114 58 67
-0.161925 -0.244187 4.50534 96 49 52
-0.154463 -1.46444 4.44161 109 88 104
-0.153923 -0.00732648 4.4378 105 54 63
-0.146211 -0.755633 4.53502 91 71 81
-0.131922 0.00998911 4.42415 76 40 42
-0.132568 -0.717767 4.53252 92 62 67
-0.128823 -1.47332 4.44672 105 97 113
-0.127444 -0.473055 4.52906 79 45 46
-0.113217 0.0360668 4.42569 110 64 73
-0.0997748 0.0449665 4.41092 83 41 43
-0.0573236 0.728148 3.3145 78 43 49
-0.07168 0.0206321 4.42153 96 56 63
-0.0591191 -0.644142 4.50916 78 60 75
-0.0567192 -1.36114 4.38428 97 86 103
-0.046366 0.0730395 4.47221 112 64 77
-0.0372635 -1.06658 4.39991 75 59 74
-0.0339368 0.0823961 4.45801 116 63 76
-0.0277902 -0.598574 4.49448 66 51 54
-0.0252796 -1.01583 4.40571 105 85 96
-0.0130934 -0.370616 4.48969 123 71 87
-0.0126892 -0.0930158 4.47715 80 36 47
-0.0111627 0.361028 4.3154 85 61 77
-0.0107379 0.358971 4.29588 88 64 80
-0.00140861 -0.234082 4.4795 94 69 85
-0.00108835 0.0478161 4.46863 81 54 68
0.0041343 -1.01404 4.4018 92 82 98
0.0175634 0.0538056 4.46397 100 72 95
0.0159793 0.802567 3.30206 127 95 119
0.0241638 -0.61498 4.49759 92 53 58
0.0256343 -0.405486 4.46324 103 61 72
0.0256343 -0.405486 4.46324 103 61 72
0.028673 -0.362113 4.48739 124 77 95
0.0293601 -0.0839016 4.47461 127 74 91
0.0330319 -0.0266238 4.4668 124 73 86
0.034944 -0.0865936 4.47619 126 75 92
0.0510244 -0.372159 4.47677 123 75 89
0.0421837 0.535986 3.27256 104 77 104
0.0594893 -0.242598 4.47273 98 70 91
0.0639225 0.132514 4.45337 107 75 99
0.0639701 -1.05817 4.37913 97 88 93
0.0655016 -0.255167 4.46403 111 74 92
0.0757849 -1.06028 4.39417 105 91 96
0.085515 -1.21236 4.42533 98 92 96
0.0913775 -0.30597 4.47206 123 75 90
0.101156 -0.972493 4.3936 85 79 81
0.0796616 0.859804 3.2836 148 99 120
0.0796616 0.859804 3.2836 148 99 120
0.113402 -0.947695 4.39557 48 47 52
0.0834212 0.880781 3.2455 153 105 127
0.0909709 0.533295 3.2804 129 88 104
0.12865 -0.235339 4.45815 69 50 66
0.135114 -1.05648 4.36946 85 73 83
0.109322 0.859969 3.28579 153 103 122
0.15575 -0.547336 4.39132 96 61 74
0.176267 -1.59189 4.45304 76 89 106
0.132553 0.782632 3.33072 123 90 116
0.177544 -0.564227 4.39256 104 63 71
0.134506 0.536228 3.32053 108 79 102
0.147561 0.784762 3.34985 160 115 138
0.194621 0.348596 4.26246 106 77 104
