ply
format ascii 1.0 
element vertex 1361
property float32 x 
property float32 y 
property float32 z
property uchar red  
property uchar green
property uchar blue
element face 0
property list uchar int vertex_indices
end_header
1.7294 0.549966 4.39833 0 0 0
1.73577 0.40933 4.40994 0 0 0
1.74028 0.00654175 4.42191 0 0 0
1.76555 -1.00908 4.4778 0 0 0
1.77936 -1.58223 4.51049 0 0 0
1.77168 -0.902241 4.47011 0 0 0
1.77584 -1.01984 4.47449 0 0 0
1.78468 -1.51482 4.49688 0 0 0
1.75695 0.238897 4.41393 0 0 0
1.74341 0.820729 4.3756 0 0 0
1.77291 -0.195741 4.43112 0 0 0
1.79835 -1.39475 4.49366 0 0 0
1.78815 -0.89346 4.46916 0 0 0
1.78815 -0.89346 4.46916 0 0 0
1.75296 0.87447 4.37336 0 0 0
1.77134 0.0972689 4.41673 0 0 0
1.77106 0.218777 4.40446 0 0 0
1.79484 -0.668042 4.453 0 0 0
1.81556 -1.38985 4.49811 0 0 0
1.80222 -0.341004 4.43775 0 0 0
1.80117 -0.25617 4.43296 0 0 0
1.80117 -0.300867 4.43297 0 0 0
1.81391 -0.853546 4.46311 0 0 0
1.81391 -0.853546 4.46311 0 0 0
1.77849 0.876366 4.36633 0 0 0
1.81482 -0.683016 4.45415 0 0 0
1.83441 -1.57254 4.49902 0 0 0
1.81326 -0.36205 4.43807 0 0 0
1.79309 0.547017 4.38475 0 0 0
1.81454 -0.199393 4.43099 0 0 0
1.80908 0.0151144 4.41693 0 0 0
1.80388 0.287095 4.39666 0 0 0
1.82288 -0.525988 4.43933 0 0 0
1.83607 -1.03662 4.46356 0 0 0
1.84398 -1.30651 4.48209 0 0 0
1.8371 -1.10414 4.46262 0 0 0
1.79746 0.817666 4.36528 0 0 0
1.83537 -0.88569 4.45744 0 0 0
1.8407 -1.03395 4.46876 0 0 0
1.81892 0.0754432 4.41306 0 0 0
1.81505 0.246811 4.39838 0 0 0
1.83534 -0.233212 4.42545 0 0 0
1.81789 0.661687 4.38318 0 0 0
1.82967 -0.015459 4.3996 0 0 0
1.83655 -0.0156895 4.41633 0 0 0
1.84571 -0.190036 4.42947 0 0 0
1.82024 0.815073 4.36236 0 0 0
1.82496 0.646835 4.37291 0 0 0
1.84096 0.0195184 4.40988 0 0 0
1.84096 0.0195184 4.40988 0 0 0
1.86841 -1.21055 4.47466 0 0 0
1.86827 -1.21042 4.47423 0 0 0
1.86699 -1.22718 4.47072 0 0 0
1.84692 -0.0498597 4.41063 0 0 0
1.84692 -0.0498597 4.41063 0 0 0
1.84618 -0.0436718 4.40923 0 0 0
1.87157 -1.24554 4.4676 0 0 0
1.84685 0.0800569 4.40601 0 0 0
1.84615 0.0796378 4.4048 0 0 0
1.83476 0.847117 4.36044 0 0 0
1.85758 -0.00835865 4.40717 0 0 0
1.84232 0.657512 4.37176 0 0 0
1.8624 -0.27061 4.41769 0 0 0
1.8624 -0.27061 4.41769 0 0 0
1.83794 0.895428 4.35561 0 0 0
1.85934 -0.039099 4.40303 0 0 0
1.86115 0.0979051 4.40462 0 0 0
1.84235 0.879274 4.3582 0 0 0
1.85051 0.855393 4.36352 0 0 0
1.85092 0.855696 4.36411 0 0 0
1.89639 -1.2221 4.46106 0 0 0
1.88032 0.0564535 4.39502 0 0 0
1.86685 0.844501 4.35491 0 0 0
1.90492 -0.877765 4.44142 0 0 0
1.89402 -0.0583963 4.39825 0 0 0
1.93218 -1.58158 4.4821 0 0 0
1.93218 -1.58158 4.4821 0 0 0
1.88516 0.847255 4.35902 0 0 0
1.88308 0.846507 4.35586 0 0 0
1.91268 0.532626 4.36978 0 0 0
1.90906 0.84128 4.349 0 0 0
1.93883 -0.380401 4.40945 0 0 0
1.91981 0.653076 4.35691 0 0 0
1.95074 -0.711135 4.423 0 0 0
1.93973 -0.0579688 4.39046 0 0 0
1.93135 0.850524 4.34895 0 0 0
1.96366 -0.566216 4.41368 0 0 0
1.95784 0.0718182 4.38327 0 0 0
1.94386 0.809196 4.34089 0 0 0
1.95662 0.399795 4.36183 0 0 0
1.94618 0.851773 4.33723 0 0 0
1.91026 0.987447 4.25686 0 0 0
1.91069 1.09224 4.25352 0 0 0
1.97122 -0.00952334 4.38313 0 0 0
1.95737 0.824441 4.33932 0 0 0
1.91824 1.0111 4.25311 0 0 0
1.99432 -0.562522 4.40686 0 0 0
1.96491 0.843946 4.33891 0 0 0
1.92635 0.993939 4.25249 0 0 0
1.92702 1.08384 4.25083 0 0 0
1.97699 0.449412 4.35471 0 0 0
1.99519 -0.0526152 4.38373 0 0 0
1.94395 1.07251 4.2466 0 0 0
2.03938 -1.24556 4.43775 0 0 0
1.98691 0.901835 4.32058 0 0 0
1.95614 0.984395 4.24723 0 0 0
2.04576 -1.34646 4.43961 0 0 0
2.04947 -1.44352 4.44757 0 0 0
2.01923 0.207517 4.36135 0 0 0
2.02585 -0.0526972 4.37317 0 0 0
2.01494 0.610199 4.33576 0 0 0
2.01494 0.610199 4.33576 0 0 0
2.04476 -0.430068 4.39499 0 0 0
1.98807 1.00587 4.24393 0 0 0
2.02003 0.911016 4.29892 0 0 0
2.05265 0.553448 4.33214 0 0 0
2.01148 1.00962 4.23804 0 0 0
2.01112 1.00934 4.23747 0 0 0
2.01164 1.07131 4.22425 0 0 0
2.01282 1.07197 4.22683 0 0 0
2.01871 1.10754 4.21408 0 0 0
2.05729 1.10657 4.21956 0 0 0
2.05506 0.988721 4.20025 0 0 0
2.06659 0.99328 4.22345 0 0 0
2.08213 0.961119 4.22881 0 0 0
2.09061 0.986218 4.22014 0 0 0
2.10054 1.08982 4.21303 0 0 0
2.11684 1.09892 4.20944 0 0 0
-2.46639 -1.17206 5.21069 89 64 74
-2.40078 0.692033 5.09558 121 53 60
-2.40396 0.464587 5.10867 139 87 96
-2.42135 -1.32135 5.21238 126 101 123
-2.40911 -1.17373 5.20952 113 94 113
-2.3596 0.945545 5.0783 80 40 45
-2.38411 -0.405576 5.15597 128 105 124
-2.34341 0.971284 5.04714 112 59 71
-2.36207 0.170703 5.12069 42 22 28
-2.37719 -1.27185 5.20694 101 74 89
-2.37725 -1.32918 5.20982 122 97 117
-2.37143 -1.17443 5.20143 118 95 115
-2.36382 -1.30092 5.20969 110 88 106
-2.36165 -1.29212 5.20669 109 94 117
-2.36165 -1.29212 5.20669 109 94 117
-2.33761 -0.339738 5.15536 119 93 112
-2.30427 0.692133 5.08009 53 25 25
-2.32152 -1.25255 5.2002 110 88 107
-2.31009 -0.833893 5.16549 106 82 96
-2.30323 -0.792432 5.1635 125 101 115
-2.28947 -0.34394 5.14514 121 93 105
-2.3018 -1.17288 5.18491 83 66 76
-2.25956 0.655153 5.08038 83 44 49
-2.2718 0.042057 5.12326 44 23 27
-2.28754 -1.16153 5.18323 94 77 86
-2.29003 -1.29946 5.19424 106 92 110
-2.24719 0.854759 5.06705 64 32 37
-2.23492 0.952701 5.04983 64 30 33
-2.26022 -0.691626 5.1502 107 90 110
-2.26022 -0.691626 5.1502 107 90 110
-2.00608 1.05383 4.20049 69 36 42
-2.26215 -0.837043 5.15771 97 70 77
-2.26215 -0.837043 5.15771 97 70 77
-2.24436 0.0447664 5.12175 45 33 40
-2.2112 0.991473 5.01519 83 39 44
-2.24872 -0.493354 5.14255 75 54 61
-2.2238 0.715796 5.07422 81 45 56
-2.25302 -1.02584 5.16564 120 97 112
-2.2539 -1.02709 5.17262 120 97 112
-2.24932 -0.901654 5.16036 122 92 113
-2.24807 -0.838976 5.15757 80 68 80
-2.24461 -0.86333 5.15667 100 74 83
-2.22005 0.161156 5.10726 58 29 31
-2.23938 -1.02179 5.16609 116 88 110
-2.22032 0.0505718 5.10993 86 69 87
-2.22492 -0.484711 5.13637 117 92 107
-2.22492 -1.27698 5.18061 102 78 92
-2.22566 -1.38219 5.19167 120 90 98
-2.18893 -0.151744 5.11203 113 81 97
-2.19058 -0.295662 5.12251 85 70 89
-2.17709 0.296481 5.07946 91 46 55
-2.20936 -1.31034 5.1844 61 43 54
-2.18037 -0.597372 5.13001 109 83 105
-2.16619 0.188912 5.08598 90 46 50
-2.16288 -0.277367 5.12148 146 115 131
-2.16986 -0.98283 5.15645 119 88 106
-2.1572 -0.694377 5.13083 124 96 115
-2.15758 -1.38536 5.18202 129 102 117
-2.14738 -1.27523 5.17042 120 101 121
-2.13417 -0.822306 5.13428 118 91 108
-2.11468 0.235948 5.07339 88 58 70
-2.12343 -0.325625 5.11492 131 100 114
-2.1378 -1.32536 5.16187 127 101 121
-2.12161 -0.335596 5.11495 134 106 121
-2.09715 0.202293 5.07162 70 29 34
-2.12484 -1.25661 5.16715 120 93 110
-2.10611 -0.344261 5.10908 137 106 121
-2.11523 -1.01584 5.14134 106 78 93
-2.10524 -0.317557 5.11289 137 110 127
-2.11491 -1.10654 5.15458 126 97 115
-2.05495 0.983296 4.98982 106 54 64
-2.05492 0.983392 4.99008 106 54 64
-2.078 -0.151872 5.10466 133 97 111
-2.08312 -0.709169 5.12086 119 93 107
-2.07996 -0.522514 5.11101 102 89 108
-2.09665 -1.40864 5.17746 126 96 108
-2.05373 0.309187 5.05638 76 34 48
-2.07843 -1.19486 5.16278 116 91 110
-2.04731 0.193988 5.05362 100 54 63
-2.05175 0.175725 5.07373 102 55 64
-2.07999 -1.38709 5.17418 106 80 89
-2.04938 0.196539 5.06602 100 55 63
-2.06198 -0.657327 5.1149 87 71 90
-2.05517 -0.690679 5.11648 107 89 109
-2.0624 -1.19292 5.15337 111 88 102
-2.03425 -0.678617 5.1107 110 83 100
-1.9881 0.694219 5.03319 58 26 27
-1.98809 0.693509 5.03356 58 26 27
-1.98294 0.150761 5.0626 114 66 78
-1.98131 -0.282272 5.08724 127 105 122
-1.97731 -0.149174 5.09177 93 41 49
-1.96003 0.561303 5.03492 72 33 36
-1.97451 -1.01066 5.12358 108 76 91
-1.95188 0.192861 5.04911 67 27 34
-1.94514 0.162512 5.06118 75 52 68
-1.94768 0.0349056 5.07102 75 42 52
-1.94768 0.0349656 5.07101 75 42 52
-1.95144 -0.269359 5.08499 126 101 118
-1.941 -0.798223 5.10297 111 81 96
-1.92579 0.164933 5.05296 66 32 42
-1.91384 0.569542 5.02762 80 41 50
-1.91477 0.271099 5.0521 67 36 42
-1.91986 -0.815569 5.10568 108 75 85
-1.90065 0.188941 5.04273 91 45 53
-1.89643 0.265334 5.03774 43 22 25
-1.90388 -0.332721 5.07538 122 95 112
-1.91884 -1.38905 5.13529 128 105 122
-1.89531 0.273618 5.04998 80 42 47
-1.89301 -0.668012 5.09398 95 74 96
-1.88011 -0.336079 5.07131 122 98 112
-1.87034 0.283123 5.0321 84 44 50
-1.87194 0.283725 5.04138 85 45 52
-1.8971 -1.4083 5.14546 114 89 112
-1.85904 0.273916 5.03922 85 42 48
-1.85747 0.266293 5.03642 60 25 27
-1.86238 -0.351629 5.07198 86 54 65
-1.84125 0.708706 5.01841 112 61 68
-1.84786 -0.0495834 5.04606 57 27 32
-1.83669 0.803438 5.00327 113 62 71
-1.84561 -0.0435839 5.04344 64 33 38
-1.84561 -0.0435839 5.04344 64 33 38
-1.86064 -1.37952 5.13719 91 86 108
-1.84686 -0.950115 5.08913 113 94 107
-1.84043 -0.358311 5.07438 116 91 112
-1.81828 -0.36076 5.06914 128 101 118
-1.81137 0.0340969 5.04926 67 46 55
-1.82039 -1.19616 5.12031 123 101 124
-1.78456 0.550379 5.01117 87 59 74
-1.7789 0.349908 5.02035 101 53 65
-1.78145 -0.0281918 5.03502 105 66 71
-1.78022 0.0265319 5.04144 70 29 33
-1.76987 0.440485 5.00733 71 30 36
-1.78493 -0.682872 5.07468 112 84 99
-1.78316 -0.674893 5.08105 107 75 91
-1.78398 -1.16343 5.10134 119 97 121
-1.78273 -1.17127 5.10222 115 93 119
-1.78273 -1.17127 5.10222 115 93 119
-1.78429 -1.35528 5.12623 120 98 119
-1.76747 -0.344556 5.04764 115 86 104
-1.75925 0.267172 5.01897 82 39 46
-1.77749 -1.36285 5.11325 73 59 85
-1.74452 0.684299 5.00989 127 74 83
-1.75182 -0.74549 5.07905 107 81 92
-1.75539 -1.34308 5.10933 118 102 129
-1.72208 0.96238 4.96673 67 32 34
-1.74331 -1.37894 5.11819 49 45 57
-1.74003 -1.21724 5.10221 103 88 119
-1.74003 -1.21754 5.10179 103 88 119
-1.72533 -0.371945 5.05078 101 66 74
-1.73328 -1.14754 5.08097 60 56 74
-1.7336 -1.14856 5.08452 60 56 74
-1.71625 0.0401122 5.01891 104 56 66
-1.69972 0.958444 4.96271 82 37 42
-1.71135 0.0558223 5.02007 93 51 61
-1.7116 0.0556149 5.02236 93 51 61
-1.69763 0.677011 4.97879 116 67 74
-1.72136 -1.18518 5.1028 122 104 129
-1.71599 -1.1194 5.09249 125 107 131
-1.7161 -1.19234 5.09654 99 84 112
-1.68956 0.436851 4.99994 102 56 64
-1.69741 -0.393255 5.04637 134 111 127
-1.69664 -0.684885 5.06657 108 91 107
-1.68139 0.256665 5.00143 89 44 48
-1.67509 0.00506474 5.0246 113 60 71
-1.66842 0.334821 4.99422 73 35 39
-1.66686 0.358383 5.00262 68 31 34
-1.65728 0.451838 5.00602 112 56 67
-1.66808 -0.524408 5.05216 106 87 106
-1.67026 -0.817599 5.06631 109 88 106
-1.66575 -0.504887 5.04717 104 80 100
-1.64928 0.307329 4.99929 80 40 45
-1.65551 -1.18318 5.08315 117 93 109
-1.65551 -1.18318 5.08315 117 93 109
-1.55507 0.927382 4.49877 72 32 33
-1.63528 -0.528897 5.04215 108 83 102
-1.54283 0.924043 4.50051 83 37 41
-1.61656 -0.687367 5.05325 109 82 97
-1.60593 -0.171277 5.01943 78 68 85
-1.60191 -0.274213 5.02343 111 80 90
-1.60462 -0.528538 5.03698 113 86 101
-1.58777 0.0106914 4.9971 121 66 74
-1.60048 -1.11407 5.07565 115 88 111
-1.58594 -0.274579 5.01687 113 81 94
-1.58239 -0.277287 5.01512 112 80 95
-1.58946 -1.00608 5.06697 60 46 67
-1.59185 -1.40971 5.0875 100 96 117
-1.56849 0.0123126 4.99237 128 72 86
-1.56849 0.0125086 4.99247 128 72 86
-1.57428 -1.18262 5.07098 120 94 118
-1.55957 -0.530022 5.03123 113 86 101
-1.49436 0.438335 4.54062 129 73 86
-1.53886 -0.180659 5.01288 120 82 96
-1.54312 -1.17165 5.06257 126 103 131
-1.53632 -0.976254 5.05663 100 82 104
-1.44779 0.326959 4.53269 89 51 65
-1.50866 -0.988236 5.0489 125 96 124
-1.5015 -0.666859 5.02991 124 93 108
-1.50062 -0.666546 5.02964 124 93 108
-1.50869 -1.37835 5.07563 115 102 123
-1.50067 -1.13151 5.05665 117 92 114
-1.42171 0.933406 4.46597 94 56 69
-1.4221 0.934358 4.46996 94 56 69
-1.48253 -0.679752 5.02017 125 94 109
-1.41768 0.847697 4.49263 111 69 83
-1.44115 0.221266 4.69338 67 30 34
-1.43171 0.199531 4.68969 97 56 65
-1.45791 -0.902064 5.03475 111 89 104
-1.45039 -0.882464 5.0329 112 81 94
-1.44847 -0.834727 5.03101 101 70 80
-1.4481 -0.905607 5.03324 101 84 96
-1.44925 -1.31433 5.0595 106 90 116
-1.44786 -1.32081 5.05453 114 94 121
-1.44292 -0.884797 5.02691 87 69 80
-1.43816 -0.942328 5.03333 89 74 97
-1.43933 -1.11655 5.04216 107 88 109
-1.44036 -1.37327 5.0602 106 80 99
-1.43505 -0.949793 5.03154 101 83 104
-1.43797 -1.34275 5.06065 100 83 101
-1.43351 -0.959821 5.03459 105 87 113
-1.364 0.934389 4.45636 78 39 40
-1.42174 -1.37493 5.049 76 62 87
-1.41105 -1.3656 5.05181 116 98 120
-1.34356 0.872689 4.47597 54 24 26
-1.39262 -0.151976 4.91006 88 47 56
-1.34343 0.305126 4.61085 71 38 43
-1.3219 0.935401 4.45377 70 39 44
-1.32495 0.40947 4.5175 103 56 64
-1.37096 -1.11111 5.03019 108 80 98
-1.36797 -1.0486 5.03311 112 81 99
-1.3186 0.385313 4.50967 81 54 68
-1.33575 -0.184603 4.73235 119 64 73
-1.29924 0.872522 4.46949 118 75 82
-1.29925 0.872677 4.46948 118 75 82
-1.29904 0.368607 4.50868 112 71 84
-1.31164 0.114553 4.69199 111 60 69
-1.29081 0.75225 4.47369 80 41 41
-1.2876 0.787517 4.47369 86 42 44
-1.30551 0.0970989 4.74341 108 59 64
-1.30591 -0.82289 5.00519 106 83 96
-1.27831 -0.0715341 4.77158 94 60 77
-1.29246 -0.978002 5.00793 105 83 96
-1.2429 0.336231 4.50278 71 44 55
-1.24263 0.351596 4.49732 79 50 65
-1.27568 -1.10591 5.01524 60 43 61
-1.26374 -0.671119 4.98042 99 80 108
-1.25477 -0.580512 4.98272 98 43 49
-1.25725 -0.973808 5.00381 91 74 100
-1.25725 -0.973808 5.00381 91 74 100
-1.24809 -0.670669 4.98002 108 81 96
-1.21438 0.483648 4.49228 84 44 49
-1.21774 0.303459 4.61334 93 53 59
-1.23458 -0.52631 4.97059 129 77 82
-1.2355 -1.26256 5.01763 113 88 110
-1.23078 -1.20678 5.01515 103 80 99
-1.2249 -0.807458 4.98485 91 70 90
-1.20486 0.0149818 4.78571 119 63 71
-1.22106 -1.33242 5.01965 88 73 94
-1.22021 -1.19126 5.01477 107 86 100
-1.219 -1.29014 5.01947 112 86 103
-1.219 -1.29014 5.01947 112 86 103
-1.20006 -0.0763393 4.76442 114 62 66
-1.17985 0.450806 4.48626 111 61 70
-1.20956 -1.19687 5.0103 105 80 96
-1.20501 -0.823337 4.99433 70 53 64
-1.20277 -1.36011 5.01755 110 92 115
-1.15887 0.338661 4.48953 125 68 79
-1.18794 -1.11538 4.99757 115 95 122
-1.16856 -1.19071 5.00087 103 93 120
-1.16187 -1.38566 5.0129 114 94 117
-1.15905 -1.40251 5.00977 111 93 118
-1.14186 -0.354821 4.71024 70 28 33
-1.14869 -0.822307 4.98331 60 45 61
-1.13284 0.119626 4.72093 64 38 49
-1.13296 0.121808 4.76959 65 39 51
-1.11266 0.13778 4.76342 66 40 54
-1.12167 -1.45896 5.00269 124 102 124
-1.1197 -1.18769 4.99396 118 96 108
-1.11934 -1.26091 4.99176 93 70 92
-1.0589 0.826763 3.62444 132 81 90
-1.09399 0.0722516 4.77712 129 74 84
-1.09455 -0.416362 4.7484 72 39 43
-1.10344 -1.43857 5.00213 113 95 117
-1.09713 -0.693998 4.96434 72 56 69
-1.08133 -1.36879 4.98934 85 73 85
-1.06519 -0.428695 4.76076 100 56 63
-1.07248 -1.38257 5.00278 92 82 102
-1.05944 -0.449138 4.75719 93 54 59
-1.04842 0.136269 4.75785 119 62 70
-1.05927 -1.40105 5.00599 115 103 129
-1.05927 -1.40105 5.00599 115 103 129
-1.03485 -0.478434 4.76281 61 30 35
-1.03092 -1.40386 4.99731 109 90 116
-1.01304 -0.0297172 4.75523 96 45 50
-1.01298 -0.0294447 4.75614 96 45 50
-0.997793 0.368362 4.45974 112 56 67
-0.997793 0.368362 4.45974 112 56 67
-0.998282 -1.01936 4.58923 94 79 94
-0.990795 -0.887507 4.68796 95 80 102
-0.988517 -0.655958 4.68355 105 80 95
-0.978421 -1.38741 4.97792 117 99 121
-0.956935 -0.069682 4.74064 118 62 69
-0.9538 -0.110702 4.74213 110 61 65
-0.951924 0.376953 4.45301 131 75 88
-0.937006 -1.39112 4.98338 102 88 114
-0.928178 0.0579565 4.73405 50 20 22
-0.929998 -1.37705 4.96797 113 101 128
-0.922828 -1.38641 4.97356 111 100 130
-0.916096 -0.0582094 4.68256 117 62 68
-0.905862 -1.35755 4.96681 106 100 128
-0.905857 -0.864339 4.69131 86 73 77
-0.912071 0.90915 3.40453 123 66 73
-0.875049 0.734466 3.45824 124 69 79
-0.84551 -0.612602 4.73673 67 48 53
-0.829305 0.445953 4.42668 137 85 98
-0.801136 0.126702 4.71381 117 60 68
-0.801631 -0.233102 4.73013 58 31 39
-0.772352 -0.563257 4.73852 61 45 57
-0.767814 0.30456 4.51355 129 75 88
-0.764508 0.305625 4.53979 129 75 88
-0.756536 -1.06953 4.66308 101 87 101
-0.747187 -0.0309688 4.70924 126 64 72
-0.743025 -0.622861 4.73399 63 47 58
-0.741238 -1.0853 4.64295 97 89 102
-0.732006 -0.174966 4.71156 123 64 71
-0.729683 0.106622 4.69754 116 59 65
-0.710277 -0.157256 4.71242 126 66 78
-0.770049 0.61511 3.44541 138 86 108
-0.698642 0.223686 4.54917 139 85 105
-0.680496 -0.500544 4.67297 98 47 56
-0.754799 0.631908 3.43986 105 47 61
-0.754631 0.469454 3.40371 120 71 90
-0.66178 0.362259 4.40453 138 80 95
-0.658009 -1.15132 4.53971 20 29 54
-0.640892 -0.0776611 4.58498 149 91 106
-0.623207 -0.412419 4.58161 84 54 59
-0.708133 0.624594 3.43816 137 76 90
-0.706707 0.684488 3.43246 141 79 92
-0.706963 0.684212 3.43111 141 79 92
-0.61883 -0.580665 4.59911 121 67 78
-0.62015 -0.578993 4.58144 121 67 78
-0.618418 -0.962122 4.53384 73 57 69
-0.696397 0.736987 3.42668 140 75 89
-0.602034 -0.0756133 4.5818 107 63 73
-0.694243 0.908819 3.371 153 118 139
-0.596481 -0.0122883 4.57391 121 76 94
-0.689 0.615135 3.43113 153 111 131
-0.592744 -0.138768 4.57528 133 98 120
-0.590709 -0.086206 4.58199 139 104 124
-0.595533 -1.05542 4.49784 115 99 119
-0.583888 -0.277424 4.58769 131 84 106
-0.67621 0.820251 3.42136 135 89 105
-0.566816 0.145198 4.56292 129 83 96
-0.573613 -0.734342 4.53993 73 67 77
-0.65994 0.69791 3.42289 139 92 113
-0.659199 0.735802 3.41984 133 86 97
-0.569181 0.527529 4.31585 132 78 94
-0.551928 0.304213 4.45121 135 87 101
-0.551928 0.304213 4.45121 135 87 101
-0.540809 -0.138517 4.57104 40 23 28
-0.541405 -0.139579 4.56917 40 23 28
-0.549104 -1.06014 4.51226 107 89 107
-0.532878 -0.351073 4.58523 66 46 53
-0.502515 -0.225787 4.5671 127 75 90
-0.51952 0.444411 4.37546 132 79 95
-0.508004 -0.960926 4.53084 72 60 74
-0.490755 -0.0826929 4.55959 108 75 96
-0.499926 -1.01253 4.49835 98 91 112
-0.499926 -1.01253 4.49835 98 91 112
-0.486197 -1.04796 4.50021 83 71 95
-0.449048 0.0719476 4.54118 132 84 98
-0.45087 0.34366 4.36954 138 85 108
-0.423122 0.0545446 4.51863 123 74 96
-0.399788 -0.325467 4.54755 132 77 88
-0.406543 -1.4619 4.49605 100 90 118
-0.400099 0.0663668 4.47627 143 90 110
-0.390901 -0.319627 4.5451 131 78 87
-0.389848 -0.350515 4.54916 122 76 86
-0.384951 -0.288875 4.54296 126 77 83
-0.375665 -0.497446 4.58854 110 68 77
-0.365118 -0.404326 4.55247 117 66 78
-0.353158 -0.162407 4.60877 153 113 137
-0.360781 -0.28918 4.54138 104 62 84
-0.360907 -0.28908 4.54079 104 62 84
-0.522186 0.910398 3.33758 105 63 77
-0.337261 -0.433393 4.55638 104 55 63
-0.500201 0.876362 3.36885 115 68 84
-0.329389 -0.520388 4.55863 97 52 59
-0.328278 -0.429823 4.55776 103 53 58
-0.345112 0.0168419 4.39656 107 64 75
-0.344346 0.0159274 4.39867 107 64 75
-0.479899 0.735323 3.39066 52 94 145
-0.304913 -0.740273 4.56596 59 39 51
-0.310593 -0.29026 4.45922 86 48 54
-0.30281 -0.372006 4.49392 81 45 49
-0.465909 0.798561 3.38368 165 125 151
-0.314914 0.359474 4.3458 155 114 132
-0.300519 -0.0828752 4.3947 94 53 62
-0.279963 -0.534442 4.53527 46 23 20
-0.454454 0.728887 3.38692 109 60 69
-0.298477 -0.06778 4.38554 109 56 69
-0.272875 -0.551658 4.53896 33 21 16
-0.269418 -0.325364 4.5278 82 45 50
-0.268985 -1.19972 4.48921 75 67 84
-0.266897 -1.21965 4.4864 98 94 115
-0.4407 0.875975 3.35772 114 61 69
-0.25055 -0.942008 4.52014 57 52 59
-0.240313 -0.356325 4.54843 62 35 34
-0.259641 -0.0762984 4.41571 93 48 55
-0.242257 -0.299558 4.51599 66 34 35
-0.242257 -0.299558 4.51599 66 34 35
-0.263662 -0.0726648 4.38149 106 61 68
-0.252041 -0.219442 4.45457 70 36 36
-0.264135 -0.0723313 4.37738 108 63 70
-0.267347 -0.0172535 4.34036 109 57 63
-0.245198 0.0981127 4.44915 108 55 65
-0.246442 -0.0561266 4.37783 80 33 39
-0.217618 -0.749969 4.54336 83 60 68
-0.213418 -0.833679 4.54591 86 65 70
-0.2068 -0.352246 4.54687 65 37 36
-0.432603 1.01695 3.19981 124 76 88
-0.192086 -0.349138 4.54564 64 36 35
-0.212616 -0.0428807 4.38747 103 56 64
-0.177824 -0.290282 4.53065 64 34 34
-0.196577 -1.45785 4.45325 107 89 103
-0.173154 -0.290652 4.52754 71 39 42
-0.389979 1.04704 3.2781 97 56 67
-0.151161 -0.748374 4.53019 79 57 64
-0.158972 -1.46137 4.45089 97 90 106
-0.175766 0.368165 4.31041 95 55 63
-0.172514 0.369833 4.31772 97 56 64
-0.136528 -0.899628 4.53057 81 61 67
-0.0989413 -0.705218 4.51781 65 51 60
-0.133161 0.442578 4.3089 106 58 72
-0.103749 0.0513322 4.40891 95 59 70
-0.103749 0.0513322 4.40891 95 59 70
-0.0976271 0.0328274 4.40542 103 60 76
-0.0928631 -1.02396 4.44464 88 73 89
-0.10556 0.489982 4.29891 102 70 90
-0.0621952 -0.64309 4.51867 106 62 69
-0.0648059 -0.641283 4.50755 106 62 69
-0.0750689 0.0591105 4.41896 106 70 90
-0.292183 0.82 3.35346 105 73 97
-0.292183 0.82 3.35346 105 73 97
-0.0470189 0.107552 4.45216 103 68 86
-0.279128 0.629288 3.36186 102 74 97
-0.08798 0.580251 4.23991 128 84 104
-0.0348091 -0.0624747 4.4761 98 57 64
-0.032465 -0.596905 4.49068 68 51 58
-0.0327516 0.215148 4.40578 104 72 96
-0.0138784 -0.07983 4.47396 98 57 65
-0.013636 -0.078917 4.4746 98 57 65
0.00269919 -0.41982 4.47153 53 37 42
-0.0133092 -1.0521 4.402 84 78 81
-0.238611 0.809231 3.34487 107 77 98
-0.238611 0.809231 3.34487 107 77 98
0.00470635 -0.986173 4.43247 88 80 87
0.0243413 -0.0776524 4.46941 78 50 62
0.0048424 -1.45713 4.39908 118 111 123
0.0306123 -0.226948 4.4737 89 48 57
0.0132986 -1.04636 4.39478 86 80 80
0.0108808 0.305537 4.35177 127 80 98
0.022162 -0.975372 4.40528 76 75 81
0.0453399 -0.367264 4.4718 97 63 74
0.0374276 -1.20854 4.43782 98 85 93
0.0545076 -0.236479 4.46486 104 63 68
0.0416685 -1.05279 4.38475 80 71 74
0.0302573 -1.40258 4.3279 106 101 108
-0.188664 0.642636 3.3447 106 74 98
0.0615452 -1.05569 4.39155 47 46 50
0.0860078 -0.298845 4.4688 76 52 65
0.0860078 -0.298845 4.4688 76 52 65
0.0879804 0.0548082 4.45091 123 72 87
0.0494562 0.360161 4.27896 120 76 96
0.104892 0.0745065 4.46285 128 83 100
0.0930231 -1.21202 4.42362 59 58 75
-0.179017 1.01324 3.27436 151 102 124
0.108298 -1.01295 4.39295 72 61 69
0.144505 -1.05116 4.38419 50 59 54
0.158935 -1.07816 4.37516 47 59 57
0.271636 -0.9006 4.54741 56 80 59
0.204765 0.34094 4.25856 163 113 135
-0.0575441 0.699049 3.32061 137 90 110
0.288834 0.119012 4.52342 151 102 123
0.327621 -0.244947 4.53165 62 44 49
0.314131 -1.13915 4.46779 76 77 72
-0.0138998 0.876083 3.28673 74 58 69
-0.0138998 0.876083 3.28673 74 58 69
0.35134 -0.0830481 4.47509 74 47 56
0.353726 -0.116204 4.47634 75 40 44
0.00130697 0.794713 3.30902 111 65 76
0.00121812 0.794387 3.30774 109 63 74
0.374411 -0.720898 4.52553 47 59 54
0.378781 -0.345668 4.53241 61 41 43
0.378457 -0.344732 4.53082 61 41 43
0.300287 0.354791 4.23612 106 68 79
0.0134623 0.808052 3.30363 114 67 79
0.395528 -0.0421526 4.51 97 57 62
0.393854 -0.171739 4.50619 84 52 57
0.0200203 0.726568 3.3041 118 68 79
0.0213486 0.739425 3.3038 123 72 82
0.322029 0.431463 4.22867 125 75 87
0.321977 0.431564 4.22855 125 75 87
0.401366 -0.108686 4.4395 79 44 48
0.438299 -0.262345 4.50736 67 47 49
0.0645826 0.875653 3.27683 130 83 99
0.0689296 0.517336 3.27143 127 84 101
0.0780963 0.861833 3.2821 122 76 88
0.393646 0.358356 4.22112 102 68 81
0.504339 -0.263266 4.50589 59 67 70
0.455259 -1.01796 4.36942 74 82 85
0.580299 -1.29993 4.70386 84 98 99
0.597741 -1.62863 4.72072 74 89 88
0.474296 -1.02586 4.33655 75 87 89
0.562962 -0.0618436 4.4788 82 85 110
0.642718 -1.37927 4.69407 73 88 85
0.646846 -1.37863 4.6969 76 91 90
0.652892 -1.39259 4.70108 79 94 91
0.593353 0.0467289 4.46431 85 89 115
0.683005 -1.55414 4.70538 75 84 90
0.685578 -1.52294 4.69823 67 77 89
0.685578 -1.52294 4.69823 67 77 89
0.686803 -1.47728 4.69419 68 79 92
0.531968 0.336588 4.20019 78 83 103
0.628799 -0.194372 4.45623 80 87 101
0.704296 -0.842512 4.66187 65 67 86
0.711308 -1.31544 4.68668 71 85 93
0.638648 -0.178506 4.45405 81 84 101
0.592116 0.314127 4.18794 87 90 112
0.602289 0.326488 4.17901 87 92 112
0.615458 0.426866 4.1761 79 84 104
0.798872 -0.868505 4.64533 64 69 91
0.805628 -1.01071 4.65372 61 63 84
0.818607 -1.32711 4.66722 55 62 81
0.837584 -1.39202 4.67026 67 74 92
0.652514 0.4671 4.17264 81 79 100
0.652466 0.467183 4.17255 81 79 100
0.839731 -0.542495 4.618 0 0 0
0.745697 -0.436966 4.3748 0 0 0
0.850224 -0.549681 4.61652 0 0 0
0.671799 0.42182 4.16639 0 0 0
0.85917 -0.532125 4.6143 0 0 0
0.687727 0.362762 4.17072 0 0 0
0.779461 0.162122 4.37557 0 0 0
0.886184 -0.81807 4.62252 0 0 0
0.902901 -1.56526 4.66953 0 0 0
0.757168 0.23472 4.27787 0 0 0
0.91104 -1.39919 4.65912 0 0 0
0.904306 -0.792223 4.62139 0 0 0
0.907821 -0.928668 4.6203 0 0 0
0.775607 0.222728 4.27972 0 0 0
0.799747 0.0947254 4.33304 0 0 0
0.800695 0.113777 4.32572 0 0 0
0.736072 0.450987 4.15909 0 0 0
0.871817 -0.109271 4.33893 0 0 0
0.854891 -0.22092 4.29407 0 0 0
0.998341 -0.858041 4.61199 0 0 0
0.854092 -0.309167 4.23885 0 0 0
1.04089 -1.62079 4.6433 0 0 0
1.04955 -0.856622 4.60291 0 0 0
0.865322 0.426769 4.13986 0 0 0
1.06998 -0.837796 4.59598 0 0 0
1.07376 -0.84547 4.59585 0 0 0
1.06921 -0.526919 4.57806 0 0 0
1.08438 -0.53511 4.57838 0 0 0
1.10369 -1.02814 4.60508 0 0 0
0.894717 0.810052 4.09597 0 0 0
1.12829 -0.858745 4.58495 0 0 0
1.13822 -1.04181 4.5966 0 0 0
0.914228 0.79309 4.09417 0 0 0
1.12932 0.101722 4.53323 0 0 0
1.15608 -1.01883 4.59719 0 0 0
1.16851 -1.05989 4.58475 0 0 0
1.17466 -1.15877 4.59703 0 0 0
0.932581 0.917009 4.06849 0 0 0
1.19813 -1.02421 4.58485 0 0 0
1.19451 -0.735367 4.57023 0 0 0
1.18111 0.204223 4.51402 0 0 0
1.19054 0.125369 4.52655 0 0 0
1.22165 -1.03523 4.5815 0 0 0
1.21752 0.222727 4.50928 0 0 0
1.00675 0.565366 4.07772 0 0 0
1.26405 -0.687159 4.55905 0 0 0
1.28108 -1.16373 4.57588 0 0 0
1.27478 -0.696606 4.55771 0 0 0
1.28484 -0.90119 4.56369 0 0 0
1.25775 0.270797 4.4948 0 0 0
1.27684 -0.43695 4.53377 0 0 0
1.28783 -0.372284 4.54489 0 0 0
1.28926 -0.265663 4.52856 0 0 0
1.31565 -1.32887 4.58621 0 0 0
1.28063 0.216578 4.49226 0 0 0
1.28753 0.231258 4.49771 0 0 0
1.28662 0.265086 4.48981 0 0 0
1.3007 -0.352324 4.51901 0 0 0
1.34178 -1.71794 4.59344 0 0 0
1.31001 0.200602 4.49008 0 0 0
1.34204 -1.18255 4.56513 0 0 0
1.34204 -1.18255 4.56513 0 0 0
1.31243 0.403318 4.48989 0 0 0
1.33643 -0.863478 4.54855 0 0 0
1.32603 0.240368 4.50162 0 0 0
1.32238 0.227677 4.49179 0 0 0
1.32129 0.126004 4.49076 0 0 0
1.33065 0.269808 4.48577 0 0 0
1.33074 0.353079 4.4783 0 0 0
1.34732 0.0871789 4.49942 0 0 0
1.36335 -0.395965 4.51493 0 0 0
1.39025 -1.02964 4.5549 0 0 0
1.40533 -1.22337 4.55577 0 0 0
1.40363 -0.531891 4.51557 0 0 0
1.39311 0.250306 4.48136 0 0 0
1.40458 0.152855 4.47039 0 0 0
1.40915 0.411931 4.46276 0 0 0
1.44755 -0.864353 4.53624 0 0 0
1.44755 -0.864353 4.53624 0 0 0
1.42265 0.234803 4.47333 0 0 0
1.42265 0.234803 4.47333 0 0 0
1.43046 0.205939 4.46584 0 0 0
1.46182 -0.863341 4.52742 0 0 0
1.46367 -0.696813 4.52446 0 0 0
1.4426 0.266661 4.44726 0 0 0
1.44425 0.265409 4.44983 0 0 0
1.48113 -0.850287 4.52378 0 0 0
1.44697 0.55677 4.44777 0 0 0
1.4392 0.901005 4.42905 0 0 0
1.4392 0.901005 4.42905 0 0 0
1.48774 -1.1711 4.53428 0 0 0
1.47088 -0.176594 4.48161 0 0 0
1.47088 -0.176594 4.48161 0 0 0
1.49643 -1.11053 4.53177 0 0 0
1.49639 -1.11052 4.53172 0 0 0
1.49612 -1.18151 4.52926 0 0 0
1.453 0.828944 4.42791 0 0 0
1.50049 -1.19688 4.53115 0 0 0
1.5092 -1.29121 4.54206 0 0 0
1.50135 -0.768507 4.51424 0 0 0
1.502 -0.690085 4.51434 0 0 0
1.47131 0.627331 4.43016 0 0 0
1.47826 0.686864 4.43198 0 0 0
1.53028 -0.545961 4.49424 0 0 0
1.50718 0.290974 4.44449 0 0 0
1.50718 0.290974 4.44449 0 0 0
1.49827 0.753859 4.42387 0 0 0
1.5075 0.83488 4.42546 0 0 0
1.53014 -0.00445108 4.46602 0 0 0
1.51638 0.670022 4.43408 0 0 0
1.54097 -0.41161 4.48292 0 0 0
1.57189 -1.34324 4.53247 0 0 0
1.52272 0.805747 4.41806 0 0 0
1.56511 -0.481934 4.48556 0 0 0
1.57971 -1.03883 4.50907 0 0 0
1.5631 -0.0272883 4.46966 0 0 0
1.56099 0.0443038 4.45916 0 0 0
1.58099 -0.855575 4.5021 0 0 0
1.59532 -1.22212 4.52301 0 0 0
1.57191 -0.171168 4.46809 0 0 0
1.57983 0.00986741 4.45122 0 0 0
1.59943 -0.184651 4.47839 0 0 0
1.57534 0.453508 4.42961 0 0 0
1.59631 -0.167723 4.45669 0 0 0
1.59297 0.475073 4.42415 0 0 0
1.63487 -1.03511 4.49595 0 0 0
1.62383 0.262803 4.42327 0 0 0
1.63746 0.265493 4.43902 0 0 0
1.67765 -1.02943 4.49569 0 0 0
1.66621 -0.179494 4.45944 0 0 0
1.66621 -0.179494 4.45944 0 0 0
1.71649 -0.850192 4.48034 0 0 0
1.6892 0.218206 4.42522 0 0 0
1.73529 -0.852095 4.47637 0 0 0
1.7188 0.228059 4.42183 0 0 0
1.74924 -0.870241 4.48078 0 0 0
1.74778 -0.373583 4.4528 0 0 0
1.76781 -0.687886 4.45805 0 0 0
1.77379 -0.895882 4.46939 0 0 0
1.76502 0.411377 4.40717 0 0 0
1.76502 0.411377 4.40717 0 0 0
1.7517 0.707637 4.37374 0 0 0
1.77431 0.265184 4.40607 0 0 0
1.80854 -0.351679 4.43851 0 0 0
1.83208 -1.13181 4.46709 0 0 0
1.81317 -0.200012 4.42843 0 0 0
1.8062 -0.0430649 4.41422 0 0 0
1.82082 -0.319473 4.4336 0 0 0
1.83641 -1.03681 4.46407 0 0 0
1.83594 -1.10394 4.46121 0 0 0
1.80462 0.285767 4.39748 0 0 0
1.81955 -0.218556 4.42448 0 0 0
1.81955 -0.218556 4.42448 0 0 0
1.82791 -0.257925 4.42883 0 0 0
1.82299 0.0278882 4.41659 0 0 0
1.81593 0.853834 4.37708 0 0 0
1.83924 0.0450645 4.40771 0 0 0
1.83924 0.0450645 4.40771 0 0 0
1.81888 0.814814 4.36055 0 0 0
1.87828 -0.690572 4.4409 0 0 0
1.84462 0.752854 4.36726 0 0 0
1.8716 -0.188231 4.41477 0 0 0
1.87392 -0.188085 4.41741 0 0 0
1.84733 0.824371 4.36769 0 0 0
1.86386 0.407598 4.38307 0 0 0
1.86386 0.407598 4.38307 0 0 0
1.87154 0.854592 4.35892 0 0 0
1.90688 0.55916 4.36551 0 0 0
1.90979 0.592375 4.36434 0 0 0
1.91188 0.54193 4.35395 0 0 0
1.96575 -1.06062 4.44264 0 0 0
1.94676 -0.350005 4.40432 0 0 0
1.96416 -0.329011 4.40085 0 0 0
1.93416 0.837855 4.34455 0 0 0
1.96296 0.418982 4.35907 0 0 0
1.98327 -0.0313047 4.38375 0 0 0
1.94875 1.00183 4.2443 0 0 0
2.04594 0.836644 4.32124 0 0 0
2.10104 0.932975 4.27571 0 0 0
2.06341 1.03876 4.22351 0 0 0
2.06341 1.03876 4.22351 0 0 0
-2.67536 1.06711 5.04012 157 98 118
-2.68029 0.942056 5.1165 50 27 31
-2.67594 0.942626 5.11208 47 24 30
-2.65925 0.986488 5.08632 115 67 75
-2.67871 0.864052 5.12518 69 33 37
-2.6657 0.89437 5.11058 69 36 41
-2.60785 1.07666 5.02255 106 53 61
-2.655 0.954694 5.11798 60 28 32
-2.66081 0.701792 5.13458 119 66 79
-2.66081 0.701792 5.13458 119 66 79
-2.60698 1.02633 5.03361 80 45 60
-2.65512 0.034473 5.14142 124 98 121
-2.63993 0.736764 5.12555 114 68 79
-2.64621 0.454516 5.15939 64 28 41
-2.63317 0.669262 5.1391 83 31 42
-2.64754 0.0645675 5.17163 122 96 118
-2.63771 0.376757 5.15372 57 22 29
-2.64767 0.0640485 5.17393 119 95 117
-2.63632 0.612132 5.15502 115 57 72
-2.60914 0.965275 5.11672 69 33 37
-2.63029 0.257821 5.16456 38 20 26
-2.64723 -0.504674 5.20892 113 85 96
-2.64206 -1.0914 5.23588 121 97 118
-2.62476 -0.452982 5.20496 115 84 100
-2.64808 -1.55176 5.25909 112 88 111
-2.62488 -0.602515 5.22407 125 94 112
-2.56979 0.822857 5.11941 119 67 80
-2.63729 -1.55756 5.26452 118 91 110
-2.5244 1.00724 5.04588 49 27 30
-2.50709 1.0354 5.0182 45 23 25
-2.63426 -1.71065 5.27727 165 181 232
-2.62252 -1.347 5.25382 121 93 108
-2.61311 -1.12153 5.23675 118 91 108
-2.63136 -1.73646 5.27601 165 181 232
-2.61967 -1.70913 5.26899 163 179 231
-2.61766 -1.70848 5.26845 164 180 232
-2.62187 -1.83851 5.27998 164 180 231
-2.6089 -1.59627 5.26758 128 109 128
-2.59568 -1.40668 5.25204 118 96 114
-2.54345 0.0456989 5.15803 85 51 58
-2.54295 0.0457095 5.15715 85 51 58
-2.54295 0.0457095 5.15715 85 51 58
-2.56612 -1.28803 5.23858 109 85 108
-2.45982 0.993759 5.03776 60 39 47
-2.54761 -1.29836 5.23763 120 92 109
-2.54643 -1.29765 5.2354 120 92 109
-2.54399 -1.70379 5.25742 166 182 234
-2.53376 -1.553 5.25163 103 83 104
-2.53239 -1.55245 5.24958 103 83 104
-2.44827 0.248924 5.12692 72 37 43
-2.44718 0.248775 5.12484 72 37 43
-2.48729 -1.30871 5.2291 112 87 108
-2.48882 -1.88179 5.26882 161 177 229
-2.48882 -1.88179 5.26882 161 177 229
-2.45383 -1.17768 5.21996 122 99 118
-2.42846 -1.32513 5.22678 126 95 111
-2.43412 -1.72014 5.24198 165 181 233
-2.39348 -0.409605 5.16212 109 86 107
-2.40766 -1.17354 5.20793 114 96 112
-2.41005 -1.54703 5.22817 110 102 133
-2.39075 -1.31551 5.21814 125 98 114
-2.40083 -1.84341 5.24474 163 179 231
-2.3223 0.694243 5.07578 122 71 85
-2.38052 -1.27369 5.2154 120 95 114
-2.37746 -1.32921 5.20984 121 90 109
-2.38543 -1.86501 5.23955 162 178 229
-2.3364 -0.37253 5.14602 127 103 117
-2.30281 0.692165 5.07726 126 79 95
-2.30281 0.692165 5.07726 126 79 95
-2.36778 -1.55025 5.22173 102 85 114
-2.37154 -1.88258 5.23713 162 178 228
-2.34829 -0.811953 5.19059 73 65 87
-2.36612 -1.84109 5.23086 164 180 232
-2.33452 -1.55922 5.21666 110 99 124
-2.3035 -0.794223 5.16207 105 95 122
-2.3051 -0.82442 5.17244 115 91 107
-2.32034 -1.84459 5.22382 162 178 230
-2.30463 -1.17428 5.18994 109 91 108
-2.30675 -1.55775 5.20637 123 102 121
-2.29745 -1.53479 5.20971 128 99 119
-2.30089 -1.83358 5.22671 162 178 230
-2.28674 -1.84289 5.21918 162 178 230
-2.28674 -1.84289 5.21918 162 178 230
-2.18469 0.443418 5.07261 89 42 53
-2.2051 -0.356277 5.12813 138 112 125
-2.22748 -1.38241 5.19222 83 63 75
-2.22748 -1.38241 5.19222 83 63 75
-2.17874 0.190581 5.09002 81 40 46
-2.16085 0.367189 5.07018 105 61 79
-2.18634 -1.25455 5.17714 129 102 117
-2.18892 -1.5613 5.1875 128 106 127
-2.141 -0.497672 5.11679 115 99 120
-2.11733 0.265132 5.06853 96 61 73
-2.11733 0.265132 5.06853 96 61 73
-2.11586 0.337752 5.06798 78 43 49
-2.11598 0.235443 5.07617 53 27 37
-2.14732 -1.27491 5.16933 121 93 107
-2.13273 -1.30937 5.17162 108 76 86
-2.10593 -0.344808 5.1082 116 88 98
-2.11991 -0.970826 5.14409 100 77 86
-2.06201 0.359198 5.06162 65 27 33
-2.11483 -1.57197 5.20092 108 94 125
-2.09442 -1.40662 5.17035 114 96 115
-2.07289 -0.81667 5.1298 88 76 100
-2.0752 -1.69512 5.18514 166 182 234
-2.01622 0.435203 5.05401 99 48 55
-2.06433 -1.70784 5.18166 166 182 234
-2.00782 0.149626 5.07359 72 37 43
-2.00568 -0.513594 5.10401 123 92 107
-1.99884 -0.989546 5.13148 112 91 108
-1.95444 0.190003 5.05196 64 33 35
-1.99355 -1.74489 5.19293 160 176 227
-1.9387 -0.798378 5.0945 127 105 120
-1.94044 -0.822139 5.1083 122 94 111
-1.91269 0.448458 5.03599 118 64 77
-1.91276 -0.0760698 5.06059 78 51 57
-1.90156 0.161831 5.04447 69 37 37
-1.90089 -0.331755 5.07505 114 90 114
-1.88232 0.263744 5.04725 122 72 82
-1.88028 0.149289 5.04722 64 33 38
-1.91235 -1.73281 5.16686 165 179 231
-1.90322 -1.48898 5.14326 117 93 109
-1.89026 -1.56274 5.14584 123 101 119
-1.88976 -1.5624 5.14485 123 101 119
-1.86011 -1.70437 5.14904 163 179 230
-1.85073 -1.72535 5.1531 165 181 232
-1.82071 -1.71816 5.13179 162 176 228
-1.822 -1.72005 5.13548 162 176 228
-1.79035 -0.8195 5.08966 111 89 102
-1.78379 -0.525849 5.07411 79 59 83
-1.78306 -1.17117 5.10534 124 98 123
-1.79029 -1.56835 5.13615 94 75 87
-1.77654 -1.36303 5.11331 112 91 103
-1.77392 -1.72225 5.13611 161 177 229
-1.74154 -1.36826 5.11271 108 97 117
-1.69416 -1.7175 5.12425 158 174 225
-1.66636 -0.50916 5.05794 104 80 96
-1.67232 -1.51046 5.10005 111 84 100
-1.64109 -1.11504 5.07387 100 76 99
-1.65486 -1.71942 5.1181 161 175 227
-1.59948 -1.11524 5.07476 112 94 118
-1.60352 -1.72062 5.10793 167 184 235
-1.59583 -1.82034 5.10879 160 176 226
-1.58439 -1.81207 5.10944 160 176 228
-1.57118 -1.15176 5.06791 112 86 111
-1.43297 0.305272 4.6246 69 31 35
-1.55493 -1.71187 5.10244 160 175 226
-1.39592 -0.289627 4.62009 134 114 131
-1.51343 -0.683316 5.02926 126 94 107
-1.38946 -0.276995 4.61993 119 88 105
-1.51606 -1.16755 5.05877 120 95 121
-1.3797 -0.295298 4.6267 135 112 132
-1.47925 -1.70882 5.08834 162 176 226
-1.34493 -0.319827 4.6424 91 72 97
-1.42698 -0.510876 4.99641 121 100 119
-1.4398 -1.37356 5.05556 84 58 77
-1.41876 -1.18891 5.05169 123 107 133
-1.41899 -1.71438 5.07263 160 176 225
-1.39036 -0.536815 4.99709 115 85 95
-1.39815 -1.09558 5.03388 112 92 119
-1.39514 -1.09453 5.02702 112 92 120
-1.39483 -1.18633 5.04405 127 112 138
-1.37436 -0.685159 5.00876 111 82 92
-1.33472 -1.09896 5.03032 108 85 106
-1.17985 0.451367 4.48566 158 138 127
-1.15368 0.44757 4.47799 136 109 96
-1.29772 -1.7199 5.05328 162 178 229
-1.28448 -1.69098 5.04872 159 175 224
-1.20662 0.0170321 4.78289 118 66 77
-1.23935 -1.72731 5.04735 159 175 224
-1.22229 -1.24559 5.01485 117 98 126
-1.22203 -1.26304 5.0186 116 96 121
-1.20416 -0.822204 4.99353 76 54 72
-1.07833 0.449127 4.47218 59 28 31
-1.0739 0.374811 4.48303 123 68 74
-1.19808 -1.70411 5.03264 154 172 220
-1.17906 -1.62711 5.02235 110 116 148
-1.08635 0.0679422 4.76288 114 72 90
-1.00027 0.553428 4.3878 89 59 25
-1.00027 0.553428 4.3878 89 59 25
-0.995415 0.378786 4.45823 115 63 75
-1.03831 -0.0488662 4.74988 98 48 59
-0.952267 0.377312 4.45518 115 62 74
-0.978233 -1.03439 4.59689 108 90 112
-0.938967 -0.645568 4.67401 88 75 89
-0.93559 -0.872415 4.68112 85 68 83
-0.866098 0.550055 4.36426 189 189 181
-0.676132 0.819255 3.41925 126 70 81
-0.983323 -1.72636 4.99879 156 173 222
-0.949712 -1.72635 4.98957 155 172 218
-0.941756 -1.74561 4.98952 156 173 219
-0.94074 -1.71368 4.98825 158 175 221
-0.927729 -1.69876 4.9774 159 176 222
-0.912446 -1.71968 4.98937 155 171 220
-0.902603 -1.72925 4.98138 154 170 219
-0.845302 -0.612853 4.73848 91 75 94
-0.885839 -1.72736 4.98573 153 170 216
-0.804382 -0.0678297 4.71381 91 63 78
-0.764357 0.303965 4.49236 72 48 62
-0.763782 0.304172 4.49029 72 48 62
-0.52153 0.74888 3.3935 133 79 92
-0.662649 0.361442 4.39769 95 47 55
-0.680653 0.220397 4.55078 129 74 87
-0.66409 -1.60171 4.60447 159 173 218
-0.632254 -1.35344 4.49462 113 100 126
-0.635407 -0.939273 4.53473 87 68 87
-0.631468 0.0620249 4.57566 134 83 99
-0.612731 -1.45704 4.44685 111 128 166
-0.618009 -1.20327 4.54637 123 108 137
-0.58872 0.360871 4.39319 104 50 64
-0.603842 -0.392662 4.57591 129 70 82
-0.587024 -0.873984 4.49833 88 77 95
-0.573427 -0.725476 4.51494 110 93 109
-0.573427 -0.725476 4.51494 110 93 109
-0.542725 -1.05559 4.50289 157 174 243
-0.539331 -0.297368 4.58841 104 61 68
-0.505513 0.471432 4.37317 133 74 88
-0.505412 -0.914594 4.53519 102 86 97
-0.488618 -0.505464 4.56578 86 64 66
-0.488618 -0.505464 4.56578 86 64 66
-0.454325 -0.554077 4.50225 57 51 53
-0.445958 0.0739378 4.54834 133 81 98
-0.434005 -1.45415 4.50262 107 89 111
-0.428463 -1.03824 4.52943 73 68 91
-0.424064 -0.534305 4.50517 66 54 58
-0.424531 -0.615849 4.5866 104 64 73
-0.414296 -1.47036 4.48969 101 100 125
-0.406491 -1.45893 4.48963 106 93 111
-0.392738 -1.3499 4.43877 106 95 125
-0.401936 -0.325289 4.54678 59 36 41
-0.39493 -0.666293 4.58009 67 51 57
-0.371754 0.429104 4.35674 108 65 75
-0.38451 -0.28803 4.544 66 41 48
-0.376223 -1.4594 4.48593 102 92 115
-0.379593 -0.272668 4.54495 127 71 81
-0.365178 -0.401962 4.55054 122 70 83
-0.357137 -0.7115 4.56825 61 47 60
-0.342353 0.067669 4.432 117 79 102
-0.343414 -1.45678 4.47857 112 103 124
-0.333868 -0.72807 4.56268 50 48 59
-0.315184 -0.317064 4.46586 121 73 77
-0.315184 -0.317064 4.46586 121 73 77
-0.313189 -0.529157 4.54882 129 92 101
-0.302076 -0.411529 4.55801 104 57 72
-0.221165 0.732814 3.33991 147 98 118
-0.221265 0.696482 3.34698 147 105 123
-0.2182 0.789214 3.34277 153 105 122
-0.290174 -0.37319 4.49223 145 109 127
-0.293089 -0.461481 4.54196 105 61 79
-0.284833 -0.287865 4.46563 146 104 124
-0.277669 -0.252354 4.45905 130 87 107
-0.27026 -0.0343258 4.34115 100 60 67
-0.261902 0.0292698 4.35604 116 69 77
-0.268682 -1.20025 4.48998 114 107 138
-0.266488 -1.2194 4.48427 104 103 129
-0.267427 -0.344589 4.5116 130 88 108
-0.246087 -0.0560081 4.37781 97 59 70
-0.24492 0.103328 4.42977 116 69 85
-0.228893 0.0186495 4.35742 111 100 141
-0.222321 -0.235159 4.4677 137 90 112
-0.224328 -0.145217 4.54296 142 95 113
-0.223387 -0.153309 4.53717 141 91 112
-0.218754 -0.13689 4.54802 111 59 72
-0.206776 -0.0459923 4.39091 109 58 70
-0.211272 -0.83382 4.5449 73 59 72
-0.210655 -0.148323 4.5527 109 58 65
-0.207214 -0.157698 4.54578 108 59 65
-0.197968 -0.0614632 4.39773 111 60 67
-0.196437 -1.45824 4.455 83 73 98
-0.198934 -0.550706 4.5543 88 51 56
-0.192795 -0.167616 4.55934 107 54 60
-0.182443 -0.179052 4.57026 111 55 64
-0.17011 0.442172 4.31521 114 58 67
-0.166225 -0.237338 4.50462 96 49 52
-0.158718 -1.45786 4.44202 109 88 104
-0.158128 -0.000621451 4.43668 105 54 63
-0.150526 -0.748731 4.53475 91 71 81
-0.136098 0.0166798 4.42295 76 40 42
-0.136874 -0.710866 4.53221 92 62 67
-0.133108 -1.46686 4.4475 105 97 113
-0.131742 -0.466156 4.52854 79 45 46
-0.117391 0.0427509 4.4245 110 64 73
-0.103931 0.0516279 4.40971 83 41 43
-0.060419 0.732686 3.31229 78 43 49
-0.0758408 0.0273164 4.42037 96 56 63
-0.0633764 -0.637291 4.50889 78 60 75
-0.0608935 -1.35471 4.38491 97 86 103
-0.0505685 0.0797873 4.47105 112 64 77
-0.0414167 -1.05998 4.40008 75 59 74
-0.038123 0.0891198 4.45685 116 63 76
-0.0320149 -0.591729 4.49411 66 51 54
-0.0294312 -1.0092 4.40583 105 85 96
-0.0173187 -0.363799 4.48919 123 71 87
-0.0168892 -0.0862235 4.47622 80 36 47
-0.015075 0.364215 4.27608 85 61 77
-0.014768 0.365342 4.29436 88 64 80
-0.00560773 -0.227267 4.47874 94 69 85
-0.00527709 0.0545642 4.46755 81 54 68
-0.000700587 -1.00795 4.40569 92 82 98
0.0133841 0.0605467 4.46289 100 72 95
0.012883 0.807033 3.29984 127 95 119
0.0199581 -0.608138 4.49728 92 53 58
0.0214602 -0.398685 4.46268 103 61 72
0.0214602 -0.398685 4.46268 103 61 72
0.0244773 -0.355278 4.4868 124 77 95
0.0251748 -0.0771154 4.47371 127 74 91
0.0288477 -0.0198701 4.4659 124 73 86
0.030759 -0.0798047 4.47529 126 75 92
0.046847 -0.365341 4.4762 123 75 89
0.039113 0.54062 3.27058 104 77 104
0.0554977 -0.235875 4.47106 98 70 91
0.0597646 0.139218 4.45224 107 75 99
0.059898 -1.05157 4.37924 97 88 93
0.061305 -0.248492 4.46361 111 74 92
0.0716868 -1.05374 4.39455 105 91 96
0.081097 -1.20659 4.42778 98 92 96
0.0872186 -0.299165 4.47146 123 75 90
0.0970891 -0.965863 4.39367 85 79 81
0.076571 0.864199 3.28138 148 99 120
0.076571 0.864199 3.28138 148 99 120
0.109324 -0.941121 4.39584 48 47 52
0.0803647 0.885094 3.24327 153 105 127
0.0878885 0.537949 3.27845 129 88 104
0.124517 -0.228561 4.45749 69 50 66
0.131089 -1.04992 4.36962 85 73 83
0.106225 0.864374 3.28359 153 103 122
0.151699 -0.540651 4.39097 96 61 74
0.172214 -1.58547 4.4539 76 89 106
0.129414 0.787182 3.3286 123 90 116
0.173492 -0.557512 4.39239 104 63 71
0.131384 0.540949 3.31861 108 79 102
0.144403 0.789344 3.34774 160 115 138
0.190659 0.354931 4.26112 106 77 104
0.162697 0.735422 3.36369 144 96 118
0.211555 0.316255 4.32437 107 79 102
0.230796 -1.40029 4.36325 52 62 64
0.186327 0.75402 3.37531 122 92 118
0.257054 -0.0581313 4.53389 138 90 112
0.257477 -0.0457342 4.52491 143 96 116
0.216138 0.731758 3.4018 157 111 131
0.21825 0.701565 3.40511 137 89 105
0.21825 0.701565 3.40511 137 89 105
0.27355 0.441181 4.23604 139 93 113
0.278126 0.345935 4.24813 139 95 116
0.228238 0.617567 3.41854 139 95 115
0.229277 0.818792 3.40598 156 111 132
0.232274 0.753745 3.41228 156 111 133
0.338127 -1.63524 4.76329 70 81 78
0.25915 0.737642 3.43485 178 132 161
0.356736 -0.0410851 4.50466 146 98 120
0.273116 0.735921 3.44405 162 113 133
0.273116 0.735921 3.44405 162 113 133
0.273116 0.735921 3.44405 162 113 133
0.365656 -0.555906 4.53971 80 53 58
0.372346 -0.261394 4.51767 78 41 49
0.388875 -0.107101 4.44287 106 60 70
0.396588 -0.0348422 4.51604 110 68 76
0.400064 -0.407926 4.53774 114 68 78
0.308847 0.756123 3.46707 141 103 119
0.308847 0.756123 3.46707 141 103 119
0.402593 -0.431528 4.49824 89 58 64
0.396248 -0.0891662 4.43948 104 61 70
0.410779 -0.300101 4.51531 105 63 73
0.412093 -0.159131 4.50042 100 64 76
0.321755 0.742166 3.47656 124 80 93
0.323121 0.794475 3.48211 112 72 93
0.419029 -0.123534 4.47699 101 63 75
0.423424 -0.877296 4.45045 68 74 88
0.423424 -0.877296 4.45045 68 74 88
0.438994 -0.262494 4.51068 115 69 82
0.439065 -0.262751 4.51564 115 69 82
0.460935 0.0428939 4.50458 116 68 80
0.465535 -0.038859 4.49245 119 72 88
0.462888 -0.646719 4.44534 68 73 88
0.481026 -0.0875961 4.48594 112 72 87
0.481877 -0.0739744 4.49205 111 69 83
0.481887 -0.0739702 4.4916 111 69 83
0.48404 -0.113805 4.49003 106 66 78
0.37924 0.699007 3.51472 105 62 69
0.479115 -1.02392 4.33809 68 77 86
0.501887 -0.263169 4.49627 102 71 85
0.386114 0.920767 3.45567 139 95 113
0.543727 -1.4009 4.7138 70 78 88
0.543323 -0.041629 4.489 69 74 94
0.582598 -1.64267 4.72395 73 85 99
0.580619 0.122121 4.47228 92 95 126
0.625589 -1.31943 4.68916 60 69 81
0.653147 -1.39224 4.70151 63 70 88
0.660311 -1.50217 4.69924 59 69 85
0.585759 0.932301 4.10272 102 102 126
0.603616 0.732321 4.14755 99 100 128
0.690713 -1.03279 4.6801 77 84 103
0.690713 -1.03279 4.6801 77 84 103
0.69787 -1.46032 4.69187 64 66 89
0.619457 0.730815 4.14745 94 99 118
0.698151 -1.04942 4.67284 78 86 104
0.670035 0.102194 4.46285 80 85 105
0.615483 0.953181 4.09266 96 98 118
0.623805 0.589386 4.12691 87 93 111
0.621874 1.02464 4.08459 95 102 113
0.637599 0.70459 4.14767 96 102 121
0.721963 -1.20504 4.6764 78 86 99
0.640035 0.819018 4.14127 94 99 118
0.647871 0.72379 4.14719 86 97 117
0.74273 -1.04019 4.66483 83 88 108
0.660382 0.820508 4.13886 90 101 119
0.662723 0.757662 4.13818 92 98 120
0.754294 -1.45529 4.67932 67 76 87
0.754294 -1.45529 4.67932 67 76 87
0.673325 0.422275 4.17099 86 93 112
0.68249 0.790736 4.13123 93 102 120
0.77437 -1.55553 4.68073 67 76 94
0.695096 0.565358 4.11272 91 98 116
0.789562 -1.31778 4.66573 76 88 100
0.726717 0.775953 4.13349 89 96 116
0.726349 0.739052 4.13036 88 93 115
0.822336 -1.47191 4.66608 80 86 108
0.822336 -1.47191 4.66608 80 86 108
0.735805 0.855546 4.12144 91 99 120
0.768389 0.21116 4.29256 88 94 114
0.837531 -1.39132 4.66683 79 85 105
0.746631 0.36734 4.15863 94 102 113
0.769669 0.259898 4.27996 86 92 113
0.743728 0.72269 4.12898 84 93 118
0.844359 -1.02205 4.64638 79 89 106
0.844359 -1.02205 4.64638 79 89 106
0.849973 -1.29652 4.65339 76 86 104
0.846278 -0.677774 4.62374 81 90 112
0.875911 -1.40262 4.66081 76 87 105
0.875911 -1.40262 4.66081 76 87 105
0.880556 -0.53292 4.60758 77 84 104
0.790326 0.486718 4.13293 83 94 118
0.90247 -1.56508 4.66928 0 0 0
0.895618 -0.771461 4.62192 0 0 0
0.911554 -1.29021 4.64926 0 0 0
0.812901 0.917541 4.088 0 0 0
0.926338 -1.39375 4.64632 0 0 0
0.931346 -1.30561 4.64154 0 0 0
0.853119 -0.2974 4.23743 0 0 0
0.851663 -0.304772 4.22767 0 0 0
0.882469 0.148062 4.31187 0 0 0
0.849184 0.655791 4.10856 0 0 0
0.849184 0.655791 4.10856 0 0 0
0.863174 0.420704 4.13611 0 0 0
0.859765 0.908188 4.08879 0 0 0
0.874994 0.43433 4.1354 0 0 0
0.887198 0.335139 4.13917 0 0 0
0.887269 0.351908 4.13563 0 0 0
0.99698 -0.524188 4.58468 0 0 0
1.00241 0.186543 4.54251 0 0 0
1.02161 0.0972094 4.54941 0 0 0
1.02147 0.097075 4.54849 0 0 0
1.02161 0.0972094 4.54941 0 0 0
1.05319 -0.0122996 4.55768 0 0 0
1.06154 0.00606978 4.55455 0 0 0
1.09155 -1.38328 4.62396 0 0 0
1.09155 -1.38328 4.62396 0 0 0
1.10073 -0.206978 4.55141 0 0 0
1.11476 -1.01987 4.60293 0 0 0
1.10958 -0.387586 4.56109 0 0 0
1.12366 -1.53609 4.61776 0 0 0
1.12782 -0.387143 4.55704 0 0 0
1.12718 -0.160259 4.54704 0 0 0
1.12817 -0.187385 4.54622 0 0 0
1.11568 0.89609 4.48445 0 0 0
1.13588 -0.518407 4.56223 0 0 0
1.12492 0.821848 4.49842 0 0 0
1.12431 0.890673 4.48266 0 0 0
1.13295 0.3931 4.50436 0 0 0
1.15368 -0.350439 4.55163 0 0 0
1.1505 -0.212767 4.54126 0 0 0
1.16008 -0.529759 4.567 0 0 0
1.16008 -0.530064 4.56738 0 0 0
1.16918 -1.07467 4.59173 0 0 0
1.14979 0.379751 4.50588 0 0 0
1.14408 0.896686 4.47997 0 0 0
1.14669 0.789305 4.48585 0 0 0
1.15424 0.448552 4.50479 0 0 0
1.15408 0.44844 4.50393 0 0 0
1.1693 -0.382922 4.5613 0 0 0
1.17733 -0.847959 4.58202 0 0 0
1.1657 0.414182 4.50938 0 0 0
1.1628 0.79874 4.485 0 0 0
1.18935 -1.06008 4.58655 0 0 0
1.16971 0.67222 4.49417 0 0 0
1.16905 0.671533 4.48951 0 0 0
1.19775 -0.826344 4.58182 0 0 0
1.178 0.440818 4.50005 0 0 0
1.18135 0.532402 4.49649 0 0 0
1.1831 0.453494 4.49922 0 0 0
1.18349 0.68051 4.49243 0 0 0
1.18354 0.810159 4.48326 0 0 0
1.1914 0.539284 4.50044 0 0 0
1.19057 0.699782 4.48995 0 0 0
1.19057 0.699782 4.48995 0 0 0
1.19513 0.690875 4.49545 0 0 0
1.20019 0.415125 4.5035 0 0 0
1.2001 0.700555 4.49083 0 0 0
1.19409 0.907331 4.46718 0 0 0
1.19912 0.719275 4.4849 0 0 0
1.22669 -1.0807 4.57647 0 0 0
1.2061 0.528386 4.49563 0 0 0
1.23612 -1.30432 4.59234 0 0 0
1.23545 -1.04959 4.57889 0 0 0
1.24446 -1.323 4.59233 0 0 0
1.22016 0.400429 4.49835 0 0 0
1.24782 -1.23493 4.58702 0 0 0
1.23801 -0.374551 4.54253 0 0 0
1.25453 -1.29767 4.59368 0 0 0
1.25408 -0.0257032 4.52017 0 0 0
1.24579 0.669151 4.48254 0 0 0
1.26939 -0.837944 4.56325 0 0 0
1.28357 -0.540252 4.55113 0 0 0
1.27947 -0.46768 4.53438 0 0 0
1.29363 -1.26694 4.57514 0 0 0
1.2713 0.669074 4.48193 0 0 0
