ply
format ascii 1.0 
element vertex 1425
property float32 x 
property float32 y 
property float32 z
property uchar red  
property uchar green
property uchar blue
element face 0
property list uchar int vertex_indices
end_header
0.634065 -1.69585 4.70902 62 69 88
0.649505 -1.38912 4.70217 64 69 89
0.648438 -1.39772 4.69336 61 68 85
0.653315 -1.59385 4.7074 56 62 84
0.587658 0.297362 4.19273 52 43 91
0.658731 -1.37443 4.69485 64 69 89
0.665621 -1.52067 4.69685 59 69 85
0.598014 0.416172 4.18244 91 94 123
0.676299 -1.67406 4.70168 63 68 88
0.676299 -1.67406 4.70168 63 68 88
0.643523 -0.191039 4.45413 80 85 107
0.643523 -0.191039 4.45413 80 85 107
0.679696 -1.5942 4.70346 75 89 90
0.605576 0.297854 4.18677 86 91 111
0.686079 -1.52631 4.69902 59 65 89
0.686466 -1.47846 4.69441 57 63 83
0.688108 -1.57324 4.70315 67 73 86
0.687699 -1.51811 4.69662 58 65 87
0.687578 -1.40774 4.69095 66 71 95
0.655675 0.110351 4.46391 81 86 107
0.693982 -1.43806 4.69214 77 96 116
0.693858 -1.43795 4.69186 77 96 116
0.628687 0.334466 4.17839 81 87 109
0.628601 0.43149 4.17651 92 94 115
0.709223 -1.50184 4.68733 67 72 92
0.713718 -1.52515 4.68693 71 78 97
0.71566 -1.33226 4.68251 66 75 92
0.718687 -0.973264 4.65678 80 86 108
0.735184 -1.42422 4.68404 68 73 95
0.739058 -1.5924 4.69278 63 70 88
0.733206 -0.699753 4.64269 80 88 107
0.734918 -0.862871 4.64908 81 86 106
0.73461 -0.863305 4.64837 81 86 106
0.743091 -1.52612 4.68194 69 72 91
0.74273 -1.52589 4.68113 69 72 91
0.665201 0.426765 4.17375 85 93 114
0.74792 -1.41661 4.68208 74 81 93
0.748559 -1.31393 4.67554 76 82 103
0.669983 0.337696 4.17453 84 94 113
0.76058 -1.57751 4.68482 61 69 87
0.761238 -1.42287 4.67957 77 82 102
0.679147 0.421334 4.17295 84 95 114
0.756394 -0.855536 4.6473 77 85 101
0.76175 -1.33787 4.6766 73 81 100
0.758979 -1.07286 4.65779 82 87 107
0.761749 -1.22989 4.67024 80 85 105
0.761749 -1.22989 4.67024 80 85 105
0.699553 0.280133 4.25785 84 91 110
0.746716 -0.00763764 4.44678 82 78 101
0.747192 -0.00754207 4.44828 82 78 101
0.791715 -0.860875 4.65042 71 82 100
0.796004 -1.42389 4.67349 74 78 99
0.794572 -1.19777 4.65635 82 88 102
0.794098 -0.991206 4.65025 78 86 102
0.797457 -1.00906 4.64667 77 86 103
0.798547 -0.902217 4.64742 81 89 103
0.798506 -0.961227 4.64567 69 79 87
0.805785 -1.67054 4.68584 67 78 96
0.734358 0.261932 4.25599 91 96 118
0.734358 0.261932 4.25599 91 96 118
0.805572 -1.2302 4.66109 71 82 96
0.804373 -1.1984 4.6515 82 89 102
0.814105 -1.59263 4.6826 75 87 101
0.745571 0.23629 4.2868 92 99 117
0.816019 -1.57679 4.67512 77 85 103
0.8161 -1.53361 4.67004 75 86 108
0.822932 -1.46984 4.66631 77 84 110
0.728392 0.825117 4.12942 85 95 120
0.822883 -1.34471 4.66426 86 96 109
0.734289 0.344185 4.16488 90 96 118
0.735139 0.344419 4.16657 90 96 118
0.825117 -1.42288 4.67118 77 83 103
0.825385 -1.42322 4.67266 77 83 103
0.754036 0.286007 4.24417 92 99 125
0.754036 0.286007 4.24417 92 99 125
0.831981 -1.41596 4.66553 74 81 101
0.744043 0.648369 4.13326 90 92 119
0.784201 0.173389 4.33031 89 97 119
0.836792 -0.650141 4.6198 73 85 108
0.845324 -1.33265 4.66169 76 87 107
0.74842 0.786302 4.12645 86 93 121
0.851589 -0.692739 4.62385 81 90 112
0.863677 -1.60379 4.66939 75 81 101
0.506939 0.305579 3.55004 88 96 115
0.805008 0.15346 4.33337 92 99 125
0.858747 -0.531964 4.60906 72 76 106
0.872277 -1.14346 4.64979 84 97 113
0.868364 -0.695709 4.61984 81 87 110
0.868364 -0.695709 4.61984 81 87 110
0.877917 -1.52488 4.66259 73 78 101
0.877917 -1.52488 4.66259 73 78 101
0.780696 0.716729 4.12704 86 93 116
0.780869 0.846911 4.11963 91 99 108
0.821818 0.116712 4.32825 89 100 126
0.824579 0.0924721 4.33473 90 97 120
0.885417 -1.161 4.64413 85 97 114
0.887217 -1.05667 4.64566 74 85 105
0.794356 0.357072 4.15418 86 91 114
0.794555 0.357083 4.15476 86 91 114
0.8883 -0.84609 4.62804 71 79 98
0.892114 -0.834109 4.62341 70 80 98
0.795842 0.733299 4.12077 90 98 119
0.810744 0.343572 4.15132 0 0 0
0.905455 -0.832208 4.62114 0 0 0
0.905455 -0.832208 4.62114 0 0 0
0.909994 -1.15486 4.63712 0 0 0
0.909504 -1.1531 4.6326 0 0 0
0.909202 -0.807585 4.62043 0 0 0
0.908816 -0.710653 4.61733 0 0 0
0.908816 -0.710653 4.61733 0 0 0
0.907709 -0.53558 4.60267 0 0 0
0.920096 -1.42911 4.66147 0 0 0
0.915666 -1.16824 4.6366 0 0 0
0.914906 -0.549636 4.60642 0 0 0
0.923077 -0.851128 4.61876 0 0 0
0.925161 -0.829876 4.61886 0 0 0
0.930863 -0.696183 4.61667 0 0 0
0.936195 -1.32291 4.63954 0 0 0
0.938178 -1.00225 4.62115 0 0 0
0.835854 0.785883 4.11104 0 0 0
0.944007 -1.28521 4.64106 0 0 0
0.941593 -1.08052 4.628 0 0 0
0.950053 -1.24302 4.63699 0 0 0
0.952614 -0.851473 4.61157 0 0 0
0.893942 0.0680277 4.32522 0 0 0
0.895291 -0.143692 4.32627 0 0 0
0.959473 -1.17245 4.63111 0 0 0
0.962831 -1.32948 4.63647 0 0 0
0.962532 -1.32938 4.63597 0 0 0
0.957897 -0.548187 4.596 0 0 0
0.863917 0.706539 4.11561 0 0 0
0.862483 0.816039 4.10538 0 0 0
0.862483 0.816039 4.10538 0 0 0
0.970092 -0.852112 4.57985 0 0 0
0.977222 -0.857646 4.61192 0 0 0
0.979958 -0.843556 4.61295 0 0 0
0.991562 -1.17934 4.62177 0 0 0
0.991562 -1.17934 4.62177 0 0 0
0.995761 -1.32775 4.63165 0 0 0
0.89217 0.456865 4.13529 0 0 0
0.995275 -0.98278 4.61066 0 0 0
0.873553 1.02483 4.04577 0 0 0
1.00341 -0.874202 4.61132 0 0 0
1.007 -1.17372 4.6183 0 0 0
1.00542 -0.981548 4.6084 0 0 0
0.90337 0.304393 4.14072 0 0 0
1.00597 -0.527494 4.58123 0 0 0
1.02121 -1.33419 4.62714 0 0 0
0.904577 0.911845 4.07833 0 0 0
0.915428 0.426171 4.12613 0 0 0
1.02052 -0.5426 4.59623 0 0 0
1.02849 -1.23057 4.62157 0 0 0
1.02849 -1.23057 4.62157 0 0 0
1.02857 -0.855866 4.60841 0 0 0
1.0333 -1.20433 4.61406 0 0 0
1.02933 -0.695771 4.59443 0 0 0
0.92819 0.333291 4.13295 0 0 0
1.04015 -1.19532 4.6112 0 0 0
0.933534 0.411312 4.12687 0 0 0
0.928157 0.603811 4.10291 0 0 0
0.928299 0.6039 4.10328 0 0 0
0.921994 0.555599 4.07079 0 0 0
1.04011 -0.538755 4.57753 0 0 0
0.930268 0.809256 4.09422 0 0 0
1.0459 -0.682385 4.58903 0 0 0
1.06603 -1.61156 4.64248 0 0 0
0.94995 0.328959 4.12507 0 0 0
0.950592 0.329081 4.12622 0 0 0
1.06635 -1.33602 4.61785 0 0 0
0.95549 0.340689 4.12705 0 0 0
1.07679 -1.42121 4.62657 0 0 0
1.07679 -1.42121 4.62657 0 0 0
1.07791 -1.40383 4.6202 0 0 0
1.07545 -0.699369 4.58295 0 0 0
1.07426 0.0936497 4.54875 0 0 0
1.08339 -0.00705472 4.54634 0 0 0
1.10394 -1.54205 4.62017 0 0 0
1.09642 -0.536271 4.57149 0 0 0
1.10029 -0.0264743 4.54966 0 0 0
1.10621 0.0909212 4.53335 0 0 0
1.13136 -1.41981 4.62074 0 0 0
1.13259 -1.33598 4.61131 0 0 0
1.1419 -1.63184 4.61982 0 0 0
1.13404 -0.54826 4.56814 0 0 0
1.14046 -0.859918 4.58779 0 0 0
1.14118 -0.532593 4.56329 0 0 0
1.15536 -1.33893 4.59954 0 0 0
1.15539 -1.33891 4.59922 0 0 0
1.16413 -1.46246 4.61394 0 0 0
1.16379 -1.04869 4.60677 0 0 0
1.16376 -1.16247 4.59582 0 0 0
1.17156 -1.49777 4.61439 0 0 0
1.17552 -1.43253 4.6117 0 0 0
1.16632 -0.849399 4.57012 0 0 0
1.1761 -1.07735 4.58824 0 0 0
1.15769 0.244691 4.51258 0 0 0
1.18164 -1.05973 4.59049 0 0 0
1.18164 -1.05973 4.59049 0 0 0
1.16795 0.100818 4.53483 0 0 0
1.18772 -1.56445 4.60965 0 0 0
1.18725 -1.56423 4.60879 0 0 0
1.1893 -1.59035 4.61446 0 0 0
1.18753 -1.57803 4.60702 0 0 0
1.16831 0.298303 4.51312 0 0 0
1.17338 -0.0351769 4.53077 0 0 0
1.19373 -1.42822 4.60725 0 0 0
1.18128 -0.533143 4.55932 0 0 0
1.17484 -0.195755 4.53371 0 0 0
1.17623 0.0899345 4.53137 0 0 0
1.19221 -1.09412 4.58433 0 0 0
1.17432 0.290619 4.51155 0 0 0
1.18807 -0.168101 4.53715 0 0 0
1.20394 -1.17652 4.58839 0 0 0
1.19358 -0.400961 4.54794 0 0 0
1.20215 -0.854028 4.57871 0 0 0
1.18595 0.19339 4.51454 0 0 0
1.19179 -0.199544 4.53291 0 0 0
1.18667 0.298379 4.51289 0 0 0
1.20597 -1.07032 4.58072 0 0 0
1.20704 -0.763415 4.56803 0 0 0
1.19289 0.247566 4.5091 0 0 0
1.19289 0.247566 4.5091 0 0 0
1.21326 -0.711197 4.58061 0 0 0
1.21661 -1.3405 4.59168 0 0 0
1.21512 -0.854194 4.57388 0 0 0
1.21512 -0.854194 4.57388 0 0 0
1.20038 0.220771 4.51631 0 0 0
1.20502 -0.035278 4.52917 0 0 0
1.2052 -0.0352779 4.52961 0 0 0
1.22402 -1.51936 4.59972 0 0 0
1.22402 -1.51936 4.59972 0 0 0
1.2062 0.0845205 4.52212 0 0 0
1.22074 -0.725311 4.56903 0 0 0
1.20913 -0.0932104 4.5253 0 0 0
1.22598 -1.23964 4.58836 0 0 0
1.20379 0.376897 4.4964 0 0 0
1.20833 0.291679 4.50774 0 0 0
1.20833 0.291679 4.50774 0 0 0
1.22422 -0.751498 4.56341 0 0 0
1.2294 -1.0397 4.57616 0 0 0
1.21683 -0.193826 4.53043 0 0 0
1.22147 -0.0605144 4.52624 0 0 0
1.22147 -0.0605144 4.52624 0 0 0
1.24419 -1.58253 4.60504 0 0 0
1.23841 -1.17652 4.58157 0 0 0
1.23841 -1.17652 4.58157 0 0 0
1.21822 0.421584 4.5017 0 0 0
1.21822 0.421584 4.5017 0 0 0
1.22523 -0.0941511 4.52528 0 0 0
1.21766 0.74614 4.48368 0 0 0
1.25079 -1.59659 4.60082 0 0 0
1.22462 0.496276 4.49633 0 0 0
1.22801 0.404081 4.50062 0 0 0
1.22613 0.675096 4.48711 0 0 0
1.22613 0.675096 4.48711 0 0 0
1.22485 0.861907 4.47206 0 0 0
1.25505 -1.18133 4.57947 0 0 0
1.2419 -0.179915 4.52615 0 0 0
1.23327 0.512681 4.49331 0 0 0
1.25531 -1.07796 4.57279 0 0 0
1.2624 -1.58472 4.60011 0 0 0
1.23584 0.291291 4.49975 0 0 0
1.25934 -1.2443 4.58391 0 0 0
1.25627 -0.712545 4.56434 0 0 0
1.23545 0.66263 4.48708 0 0 0
1.24296 0.0822868 4.51501 0 0 0
1.24422 0.101726 4.51429 0 0 0
1.24906 0.241404 4.50616 0 0 0
1.25443 -0.292263 4.52544 0 0 0
1.26689 -1.06659 4.56945 0 0 0
1.2723 -1.23553 4.58341 0 0 0
1.24696 0.447278 4.48948 0 0 0
1.26343 -0.380787 4.54313 0 0 0
1.27729 -1.42193 4.58909 0 0 0
1.25654 -0.0243743 4.51297 0 0 0
1.27564 -1.18439 4.57277 0 0 0
1.27603 -0.869961 4.56877 0 0 0
1.28047 -1.44757 4.58418 0 0 0
1.26346 -0.184037 4.51959 0 0 0
1.26187 0.0864605 4.51358 0 0 0
1.25259 0.85249 4.47981 0 0 0
1.25165 0.87148 4.47514 0 0 0
1.28874 -1.58633 4.59791 0 0 0
1.28571 -1.34709 4.58267 0 0 0
1.28571 -1.34709 4.58267 0 0 0
1.2576 0.838222 4.47361 0 0 0
1.2576 0.838222 4.47361 0 0 0
1.29049 -1.48133 4.58385 0 0 0
1.2659 0.248959 4.497 0 0 0
1.26526 0.248744 4.49551 0 0 0
1.26623 0.372791 4.48723 0 0 0
1.28972 -1.06818 4.56846 0 0 0
1.28972 -1.06818 4.56846 0 0 0
1.28021 -0.355006 4.53167 0 0 0
1.28956 -0.917306 4.56294 0 0 0
1.27886 -0.288478 4.52583 0 0 0
1.298 -1.28423 4.57348 0 0 0
1.26988 0.849538 4.47222 0 0 0
1.29636 -0.892993 4.56308 0 0 0
1.29805 -1.18967 4.56862 0 0 0
1.29805 -1.18967 4.56862 0 0 0
1.28448 -0.236009 4.52034 0 0 0
1.27304 0.526446 4.47922 0 0 0
1.30604 -1.61724 4.59492 0 0 0
1.30575 -1.61814 4.59428 0 0 0
1.27602 0.39293 4.48878 0 0 0
1.29515 -0.857004 4.55122 0 0 0
1.30894 -1.60139 4.59722 0 0 0
1.30336 -1.23551 4.57607 0 0 0
1.28098 0.238384 4.49683 0 0 0
1.30487 -1.45591 4.57754 0 0 0
1.30295 -1.0498 4.56592 0 0 0
1.30295 -1.0498 4.56592 0 0 0
1.30537 -1.20448 4.56597 0 0 0
1.28535 0.229579 4.49864 0 0 0
1.29494 -0.278528 4.52983 0 0 0
1.28545 0.316728 4.4964 0 0 0
1.28547 0.316687 4.49649 0 0 0
1.27465 0.289616 4.45716 0 0 0
1.28153 0.290787 4.48103 0 0 0
1.28153 0.290787 4.48103 0 0 0
1.30797 -1.22007 4.56916 0 0 0
1.29884 -0.32494 4.5261 0 0 0
1.29859 -0.301698 4.52211 0 0 0
1.31975 -1.58381 4.59192 0 0 0
1.31367 -1.1801 4.56825 0 0 0
1.28881 0.511395 4.47648 0 0 0
1.30312 -0.228385 4.52214 0 0 0
1.30691 -0.287803 4.53282 0 0 0
1.30628 -0.288793 4.53116 0 0 0
1.31843 -1.17115 4.57298 0 0 0
1.29032 0.564479 4.47259 0 0 0
1.28769 0.749437 4.4618 0 0 0
1.30629 -0.247845 4.52526 0 0 0
1.31886 -1.05266 4.5638 0 0 0
1.30076 0.29175 4.50113 0 0 0
1.30957 -0.338388 4.52309 0 0 0
1.33119 -1.59379 4.59366 0 0 0
1.33115 -1.59367 4.59359 0 0 0
1.32748 -1.32828 4.57649 0 0 0
1.32763 -1.4635 4.57566 0 0 0
1.29714 0.861604 4.46922 0 0 0
1.3041 0.368305 4.49137 0 0 0
1.3079 0.244684 4.503 0 0 0
1.31405 -0.200265 4.52191 0 0 0
1.30077 0.837795 4.46858 0 0 0
1.31075 0.153314 4.49251 0 0 0
1.32377 -0.396451 4.5347 0 0 0
1.32377 -0.396451 4.5347 0 0 0
1.30686 0.653451 4.47286 0 0 0
1.33674 -1.23231 4.57446 0 0 0
1.34052 -1.46916 4.58004 0 0 0
1.31803 0.381937 4.49328 0 0 0
1.31348 0.67364 4.46971 0 0 0
1.31183 0.519227 4.46461 0 0 0
1.32924 -0.376733 4.51494 0 0 0
1.32989 -0.281272 4.51494 0 0 0
1.32481 0.367435 4.49206 0 0 0
1.32481 0.367435 4.49206 0 0 0
1.34625 -1.20099 4.56342 0 0 0
1.35097 -1.41996 4.57767 0 0 0
1.35 -1.17329 4.56318 0 0 0
1.32714 0.352489 4.4822 0 0 0
1.33435 0.0680555 4.50158 0 0 0
1.33932 -0.198505 4.51619 0 0 0
1.31738 0.815456 4.44017 0 0 0
1.3288 0.650193 4.47806 0 0 0
1.32538 0.820057 4.4646 0 0 0
1.35876 -1.4702 4.57183 0 0 0
1.35886 -1.21991 4.56751 0 0 0
1.34494 0.0892495 4.49809 0 0 0
1.37205 -1.59867 4.58489 0 0 0
1.36709 -1.48446 4.56653 0 0 0
1.36709 -1.48446 4.56653 0 0 0
1.36047 -0.86422 4.54521 0 0 0
1.3653 -1.21272 4.5616 0 0 0
1.34159 0.527783 4.4734 0 0 0
1.34522 0.165367 4.4853 0 0 0
1.35595 -0.222334 4.51037 0 0 0
1.35102 0.148508 4.48752 0 0 0
1.36355 -0.590417 4.52905 0 0 0
1.3471 0.600309 4.4711 0 0 0
1.34689 0.629117 4.4701 0 0 0
1.34689 0.629117 4.4701 0 0 0
1.35763 -0.0176799 4.50431 0 0 0
1.35754 -0.0354541 4.4981 0 0 0
1.35743 0.0485498 4.49575 0 0 0
1.36751 -0.567772 4.52757 0 0 0
1.36821 -0.568394 4.52872 0 0 0
1.35036 0.560209 4.47049 0 0 0
1.35039 0.560202 4.47055 0 0 0
1.34709 0.872404 4.45212 0 0 0
1.36157 -0.00761011 4.49986 0 0 0
1.36157 -0.00761011 4.49986 0 0 0
1.34991 0.829799 4.46066 0 0 0
1.34526 0.895404 4.44384 0 0 0
1.38183 -1.23384 4.56054 0 0 0
1.38106 -1.23365 4.55925 0 0 0
1.36352 0.0175554 4.49853 0 0 0
1.37679 -0.880214 4.54163 0 0 0
1.37851 -0.866242 4.54347 0 0 0
1.36801 -0.20222 4.50729 0 0 0
1.35699 0.621638 4.46564 0 0 0
1.38738 -1.38403 4.56442 0 0 0
1.38738 -1.38403 4.56442 0 0 0
1.35716 0.64505 4.46523 0 0 0
1.38687 -1.17966 4.55919 0 0 0
1.36817 -0.0247928 4.49746 0 0 0
1.36865 0.0897042 4.49891 0 0 0
1.37943 -0.387943 4.52089 0 0 0
1.37076 0.0508995 4.48921 0 0 0
1.38228 -0.611175 4.52512 0 0 0
1.36591 0.660662 4.46982 0 0 0
1.39258 -1.06826 4.55276 0 0 0
1.39051 -0.705774 4.53584 0 0 0
1.39045 -0.705739 4.53558 0 0 0
1.39759 -1.27393 4.55126 0 0 0
1.39972 -1.21638 4.55389 0 0 0
1.38454 -0.228798 4.50117 0 0 0
1.39151 -0.550228 4.52247 0 0 0
1.38454 -0.0376939 4.49968 0 0 0
1.3972 -0.862445 4.53637 0 0 0
1.36695 0.896611 4.4378 0 0 0
1.36695 0.896611 4.4378 0 0 0
1.36831 0.885946 4.44017 0 0 0
1.40154 -0.881541 4.53757 0 0 0
1.41159 -1.52794 4.5685 0 0 0
1.39566 -0.213571 4.50455 0 0 0
1.41751 -1.42817 4.56795 0 0 0
1.38554 0.552371 4.45778 0 0 0
1.41893 -1.42401 4.56054 0 0 0
1.38849 0.823417 4.44396 0 0 0
1.39257 0.58764 4.45331 0 0 0
1.40445 0.0872565 4.48904 0 0 0
1.40668 -0.0330016 4.49437 0 0 0
1.42843 -1.49784 4.56199 0 0 0
1.39805 0.577993 4.45301 0 0 0
1.39805 0.577993 4.45301 0 0 0
1.43782 -1.61572 4.57753 0 0 0
1.43376 -1.41875 4.56117 0 0 0
1.41122 -0.0206981 4.48643 0 0 0
1.40937 0.141769 4.47144 0 0 0
1.40586 0.621929 4.45058 0 0 0
1.40586 0.621929 4.45058 0 0 0
1.42582 -0.385869 4.50974 0 0 0
1.42072 0.0855978 4.48263 0 0 0
1.42298 -0.0318301 4.4891 0 0 0
1.41457 0.503421 4.45813 0 0 0
1.41869 0.498621 4.45858 0 0 0
1.42159 0.519155 4.45489 0 0 0
1.43799 -0.206504 4.50322 0 0 0
1.44928 -1.03541 4.54049 0 0 0
1.42182 0.663141 4.45077 0 0 0
1.45486 -1.34555 4.55129 0 0 0
1.45666 -1.04753 4.54699 0 0 0
1.458 -1.05801 4.54587 0 0 0
1.42566 0.788794 4.43792 0 0 0
1.46406 -1.05668 4.53845 0 0 0
1.43311 0.821136 4.43693 0 0 0
1.4396 0.369947 4.45643 0 0 0
1.43891 0.533981 4.45338 0 0 0
1.43218 0.842812 4.42967 0 0 0
1.46665 -1.15823 4.53646 0 0 0
1.44821 0.0886414 4.47872 0 0 0
1.44957 0.152794 4.4689 0 0 0
1.45445 -0.0320319 4.48327 0 0 0
1.45577 -0.0990409 4.48485 0 0 0
1.47646 -1.35018 4.54418 0 0 0
1.47784 -1.2371 4.54143 0 0 0
1.48327 -1.07425 4.54073 0 0 0
1.45566 0.664635 4.44592 0 0 0
1.45754 0.53252 4.44985 0 0 0
1.4631 0.160652 4.46378 0 0 0
1.46324 0.387388 4.46273 0 0 0
1.46486 0.137788 4.46727 0 0 0
1.46486 0.138419 4.46728 0 0 0
1.47292 -0.201426 4.48993 0 0 0
1.47292 -0.201426 4.48993 0 0 0
1.45632 0.315351 4.43699 0 0 0
1.46057 0.678415 4.44295 0 0 0
1.46218 0.256069 4.44546 0 0 0
1.45596 0.85864 4.42584 0 0 0
1.461 0.336877 4.44106 0 0 0
1.46342 0.281211 4.44313 0 0 0
1.49344 -1.16972 4.5345 0 0 0
1.49581 -1.20118 4.53511 0 0 0
1.47867 -0.178161 4.4819 0 0 0
1.50016 -1.40525 4.54656 0 0 0
1.47228 0.229337 4.46225 0 0 0
1.46465 0.844965 4.4389 0 0 0
1.48746 -0.549619 4.50414 0 0 0
1.49546 -0.864185 4.52418 0 0 0
1.49228 -0.53451 4.51107 0 0 0
1.49419 -0.872783 4.51526 0 0 0
1.49067 -0.714613 4.50659 0 0 0
1.50722 -1.42021 4.5487 0 0 0
1.50429 -1.2498 4.53853 0 0 0
1.47679 0.219317 4.45266 0 0 0
1.48252 0.0859489 4.46987 0 0 0
1.50215 -1.21275 4.5259 0 0 0
1.50357 -1.07124 4.52849 0 0 0
1.49648 -0.514549 4.49874 0 0 0
1.48306 0.208229 4.45343 0 0 0
1.50907 -1.26592 4.53184 0 0 0
1.48438 0.397512 4.45733 0 0 0
1.51034 -1.04595 4.52904 0 0 0
1.50167 -0.436386 4.50299 0 0 0
1.5058 -0.704487 4.51255 0 0 0
1.47881 0.841146 4.43219 0 0 0
1.48374 0.247453 4.44411 0 0 0
1.49785 -0.175371 4.48172 0 0 0
1.50231 -0.198296 4.48601 0 0 0
1.48525 0.610202 4.43537 0 0 0
1.48772 0.518652 4.4423 0 0 0
1.49108 0.548548 4.44468 0 0 0
1.49413 0.264287 4.45247 0 0 0
1.52035 -1.06599 4.51575 0 0 0
1.51078 -0.395768 4.48623 0 0 0
1.49055 0.868038 4.42125 0 0 0
1.49013 0.808986 4.41984 0 0 0
1.49341 0.857607 4.42179 0 0 0
1.53487 -1.23505 4.54085 0 0 0
1.52082 -0.531312 4.49529 0 0 0
1.50677 0.394727 4.45197 0 0 0
1.51947 -0.366877 4.48558 0 0 0
1.50033 0.796911 4.42063 0 0 0
1.50033 0.796911 4.42063 0 0 0
1.50287 0.746016 4.42487 0 0 0
1.51519 0.0121994 4.45953 0 0 0
1.51845 0.0121275 4.46749 0 0 0
1.50753 0.842475 4.42743 0 0 0
1.51056 0.598198 4.43412 0 0 0
1.52829 -0.381242 4.48607 0 0 0
1.51352 0.606265 4.43311 0 0 0
1.55645 -1.40763 4.52909 0 0 0
1.53477 -0.0460872 4.46505 0 0 0
1.53477 -0.0460872 4.46505 0 0 0
1.51785 0.89567 4.41436 0 0 0
1.52751 0.536545 4.44211 0 0 0
1.52751 0.536545 4.44211 0 0 0
1.54705 -0.548216 4.49881 0 0 0
1.55858 -1.20503 4.52768 0 0 0
1.54645 -0.212194 4.48051 0 0 0
1.55677 -1.04829 4.51088 0 0 0
1.52791 0.678933 4.42488 0 0 0
1.57338 -1.59376 4.54899 0 0 0
1.52769 0.870257 4.41409 0 0 0
1.56517 -1.22075 4.52369 0 0 0
1.56468 -1.2206 4.52293 0 0 0
1.57 -1.44921 4.52999 0 0 0
1.5459 0.0395612 4.45863 0 0 0
1.54286 0.173987 4.44875 0 0 0
1.55937 -0.484474 4.48699 0 0 0
1.57731 -1.35042 4.52979 0 0 0
1.57761 -1.3508 4.53092 0 0 0
1.55879 -0.18677 4.47545 0 0 0
1.56668 -0.700202 4.49634 0 0 0
1.5823 -1.34269 4.53683 0 0 0
1.55091 0.210857 4.44074 0 0 0
1.58845 -1.65472 4.54726 0 0 0
1.58331 -1.29756 4.53031 0 0 0
1.58481 -1.4658 4.53251 0 0 0
1.57639 -1.03107 4.506 0 0 0
1.57111 -0.554375 4.49251 0 0 0
1.58562 -1.31043 4.52934 0 0 0
1.55543 0.200325 4.44082 0 0 0
1.56403 -0.0205985 4.46479 0 0 0
1.58457 -1.23581 4.52301 0 0 0
1.5479 0.833798 4.41662 0 0 0
1.54484 0.801623 4.40816 0 0 0
1.56372 -0.00117377 4.46048 0 0 0
1.5891 -1.54894 4.53221 0 0 0
1.56909 -0.201417 4.47515 0 0 0
1.57472 -0.525373 4.4882 0 0 0
1.57472 -0.525373 4.4882 0 0 0
1.59035 -1.41828 4.53265 0 0 0
1.56452 0.0606136 4.45732 0 0 0
1.58781 -1.22582 4.52238 0 0 0
1.58813 -1.22605 4.52355 0 0 0
1.57256 -0.220028 4.47766 0 0 0
1.59484 -1.40499 4.53143 0 0 0
1.59396 -1.3197 4.52732 0 0 0
1.57667 -0.235681 4.4728 0 0 0
1.59647 -1.45218 4.52471 0 0 0
1.604 -1.60073 4.54327 0 0 0
1.604 -1.60073 4.54327 0 0 0
1.55916 0.845228 4.41559 0 0 0
1.59189 -1.06382 4.50498 0 0 0
1.56834 0.428174 4.43582 0 0 0
1.5652 0.657258 4.42571 0 0 0
1.5652 0.657258 4.42571 0 0 0
1.60618 -1.61617 4.53836 0 0 0
1.56916 0.533712 4.43268 0 0 0
1.60304 -1.38989 4.52592 0 0 0
1.60304 -1.38989 4.52592 0 0 0
1.58131 0.0701722 4.45057 0 0 0
1.60143 -1.04989 4.50386 0 0 0
1.60807 -1.43192 4.52308 0 0 0
1.61318 -1.63118 4.53566 0 0 0
1.5857 -0.00235086 4.45359 0 0 0
1.59552 -0.399948 4.47845 0 0 0
1.60561 -0.700485 4.49235 0 0 0
1.57736 0.850888 4.41317 0 0 0
1.60559 -0.557908 4.49089 0 0 0
1.60559 -0.557908 4.49089 0 0 0
1.59444 -0.0457277 4.45985 0 0 0
1.58241 0.654279 4.41937 0 0 0
1.59179 0.230333 4.44377 0 0 0
1.58142 0.847444 4.41125 0 0 0
1.59108 0.386953 4.43445 0 0 0
1.59399 0.399522 4.44241 0 0 0
1.6025 -0.0165625 4.46308 0 0 0
1.59232 0.498535 4.43116 0 0 0
1.59601 0.243607 4.44062 0 0 0
1.60397 -0.181232 4.46238 0 0 0
1.60169 -0.00359727 4.45109 0 0 0
1.63105 -1.41677 4.52745 0 0 0
1.63105 -1.41677 4.52745 0 0 0
1.62318 -1.04474 4.50482 0 0 0
1.59681 0.431496 4.4283 0 0 0
1.61144 -0.162216 4.45913 0 0 0
1.60806 0.0174557 4.44651 0 0 0
1.63919 -1.59966 4.53005 0 0 0
1.5991 0.655784 4.41437 0 0 0
1.56772 0.968622 4.32556 0 0 0
1.56786 0.968524 4.32601 0 0 0
1.6046 0.536153 4.42746 0 0 0
1.63821 -1.43106 4.51841 0 0 0
1.61743 -0.170514 4.4587 0 0 0
1.6086 0.226734 4.43292 0 0 0
1.6086 0.226734 4.43292 0 0 0
1.60774 0.548047 4.42165 0 0 0
1.60868 0.451347 4.41987 0 0 0
1.6299 -0.376781 4.47373 0 0 0
1.61918 0.0140998 4.44423 0 0 0
1.63983 -1.05168 4.49585 0 0 0
1.62131 0.00610794 4.44557 0 0 0
1.61892 0.524894 4.43375 0 0 0
1.61938 0.19733 4.42999 0 0 0
1.5814 0.968236 4.32268 0 0 0
1.62519 0.395933 4.4354 0 0 0
1.61587 0.711841 4.40244 0 0 0
1.62896 0.0845413 4.43722 0 0 0
1.63556 -0.0305405 4.45133 0 0 0
1.6351 0.243186 4.43328 0 0 0
1.64471 -0.0436338 4.441 0 0 0
1.67423 -1.42179 4.51217 0 0 0
1.67423 -1.42179 4.51217 0 0 0
1.67865 -1.60071 4.52406 0 0 0
1.64181 0.553248 4.42311 0 0 0
1.63896 0.526337 4.40703 0 0 0
1.63827 0.823917 4.40189 0 0 0
1.67364 -0.886766 4.49621 0 0 0
1.65472 -0.0207711 4.44138 0 0 0
1.64752 0.286322 4.42154 0 0 0
1.63958 0.865997 4.39864 0 0 0
1.6544 0.085844 4.43564 0 0 0
1.64994 0.597066 4.41537 0 0 0
1.65 0.597138 4.4155 0 0 0
1.64818 0.844541 4.40846 0 0 0
1.68675 -1.45427 4.51025 0 0 0
1.68679 -1.4543 4.51038 0 0 0
1.65783 0.057906 4.43255 0 0 0
1.68311 -1.04621 4.49625 0 0 0
1.65146 0.633486 4.41093 0 0 0
1.65146 0.633486 4.41093 0 0 0
1.68323 -0.900094 4.49553 0 0 0
1.69374 -1.42029 4.51308 0 0 0
1.67188 0.240822 4.43254 0 0 0
1.70263 -1.40832 4.51261 0 0 0
1.66973 0.404694 4.42408 0 0 0
1.66341 0.624467 4.40594 0 0 0
1.69732 -1.04753 4.49493 0 0 0
1.6972 -0.957976 4.48976 0 0 0
1.69797 -0.990535 4.4912 0 0 0
1.69745 -0.86994 4.48631 0 0 0
1.68727 -0.392335 4.46014 0 0 0
1.70303 -0.882241 4.48889 0 0 0
1.70182 -0.881862 4.4866 0 0 0
1.68202 0.0354932 4.43108 0 0 0
1.6704 0.812215 4.38996 0 0 0
1.68524 0.396057 4.42649 0 0 0
1.68217 0.297948 4.41692 0 0 0
1.67415 0.861464 4.38941 0 0 0
1.70588 -0.696961 4.47201 0 0 0
1.71321 -0.893255 4.49083 0 0 0
1.6932 0.233765 4.43099 0 0 0
1.6932 0.233765 4.43099 0 0 0
1.68483 0.43724 4.40822 0 0 0
1.68479 0.437243 4.40808 0 0 0
1.71538 -1.0531 4.48383 0 0 0
1.70328 -0.0102431 4.43149 0 0 0
1.70328 -0.0102431 4.43149 0 0 0
1.70321 -0.0197012 4.43063 0 0 0
1.7093 -0.198914 4.44389 0 0 0
1.72571 -0.678795 4.47622 0 0 0
1.73068 -0.91735 4.47758 0 0 0
1.73068 -0.91735 4.47758 0 0 0
1.70284 0.546769 4.40598 0 0 0
1.69662 0.863442 4.3892 0 0 0
1.71801 -0.0302477 4.431 0 0 0
1.73681 -0.696844 4.46932 0 0 0
1.71739 0.434942 4.40572 0 0 0
1.70943 0.792348 4.38196 0 0 0
1.70932 0.884051 4.37968 0 0 0
1.71197 0.868454 4.38163 0 0 0
1.7623 -1.42148 4.50507 0 0 0
1.74827 -0.913624 4.46939 0 0 0
1.73693 -0.203728 4.43651 0 0 0
1.73693 -0.203728 4.43651 0 0 0
1.75292 -0.901328 4.47588 0 0 0
1.73522 0.24503 4.42632 0 0 0
1.72548 0.6388 4.39567 0 0 0
1.74664 -0.536812 4.44696 0 0 0
1.73544 0.231312 4.41781 0 0 0
1.75275 -0.556131 4.45353 0 0 0
1.73361 0.525693 4.40613 0 0 0
1.73444 0.526245 4.40888 0 0 0
1.72424 0.857666 4.37985 0 0 0
1.73321 0.540962 4.39798 0 0 0
1.73926 0.399458 4.4089 0 0 0
1.7443 -0.00476802 4.42188 0 0 0
1.76895 -1.02498 4.47574 0 0 0
1.78237 -1.60034 4.50704 0 0 0
1.7754 -0.917824 4.46869 0 0 0
1.77856 -1.03564 4.47171 0 0 0
1.78745 -1.53234 4.49323 0 0 0
1.76116 0.228498 4.41421 0 0 0
1.74691 0.812987 4.37481 0 0 0
1.7768 -0.208235 4.4303 0 0 0
1.80141 -1.41203 4.49081 0 0 0
1.7917 -0.90892 4.46749 0 0 0
1.7917 -0.90892 4.46749 0 0 0
1.75724 0.867263 4.37422 0 0 0
1.77544 0.0861401 4.41666 0 0 0
1.77422 0.208076 4.40323 0 0 0
1.79935 -0.682847 4.45403 0 0 0
1.8196 -1.40774 4.49736 0 0 0
1.80595 -0.354131 4.43679 0 0 0
1.80457 -0.268733 4.43144 0 0 0
1.80457 -0.313932 4.43146 0 0 0
1.81743 -0.868826 4.46149 0 0 0
1.81743 -0.868826 4.46149 0 0 0
1.78184 0.869156 4.36608 0 0 0
1.81842 -0.697583 4.45277 0 0 0
1.83727 -1.5904 4.49581 0 0 0
1.8172 -0.375181 4.43749 0 0 0
1.79741 0.538183 4.38539 0 0 0
1.81781 -0.212001 4.42912 0 0 0
1.81557 0.00345385 4.42114 0 0 0
1.80794 0.276334 4.39658 0 0 0
1.82651 -0.539869 4.43811 0 0 0
1.83962 -1.05275 4.46194 0 0 0
1.84667 -1.32338 4.47886 0 0 0
1.84057 -1.12052 4.46078 0 0 0
1.80201 0.810278 4.36654 0 0 0
1.83879 -0.901122 4.45563 0 0 0
1.84409 -1.04995 4.46685 0 0 0
1.82278 0.0642558 4.41263 0 0 0
1.81736 0.235978 4.39452 0 0 0
1.83855 -0.246016 4.42375 0 0 0
1.8222 0.65335 4.38385 0 0 0
1.83163 -0.0270127 4.39457 0 0 0
1.84077 -0.027159 4.41647 0 0 0
1.84948 -0.202446 4.42875 0 0 0
1.82384 0.807337 4.36255 0 0 0
1.82921 0.638445 4.37356 0 0 0
1.84445 0.00777227 4.40879 0 0 0
1.84445 0.00777227 4.40879 0 0 0
1.872 -1.22752 4.47336 0 0 0
1.872 -1.22752 4.47336 0 0 0
1.87002 -1.24367 4.46814 0 0 0
1.85074 -0.0616019 4.41013 0 0 0
1.85074 -0.0616019 4.41013 0 0 0
1.84969 -0.0554195 4.40808 0 0 0
1.87476 -1.26231 4.46531 0 0 0
1.85081 0.0688746 4.40583 0 0 0
1.85004 0.068494 4.40448 0 0 0
1.83926 0.839829 4.36165 0 0 0
1.86049 -0.0198913 4.40495 0 0 0
1.84669 0.649214 4.37263 0 0 0
1.8661 -0.283382 4.41688 0 0 0
1.8661 -0.283382 4.41688 0 0 0
1.84209 0.888163 4.3566 0 0 0
1.86268 -0.0507992 4.40171 0 0 0
1.86483 0.0867397 4.40406 0 0 0
1.84661 0.87187 4.35899 0 0 0
1.85509 0.848263 4.36469 0 0 0
1.85509 0.848263 4.36469 0 0 0
1.89938 -1.23869 4.45851 0 0 0
1.88398 0.0450307 4.39415 0 0 0
1.87106 0.837133 4.35565 0 0 0
1.90825 -0.893086 4.43968 0 0 0
1.89782 -0.0701862 4.39779 0 0 0
1.93514 -1.59963 4.47935 0 0 0
1.93514 -1.59963 4.47935 0 0 0
1.88934 0.839884 4.35974 0 0 0
1.88752 0.839216 4.35701 0 0 0
1.91893 0.524093 4.3729 0 0 0
1.9136 0.834106 4.35067 0 0 0
1.94212 -0.39357 4.40802 0 0 0
1.92452 0.645571 4.35839 0 0 0
1.95397 -0.725719 4.42131 0 0 0
1.94331 -0.0697451 4.38975 0 0 0
1.93558 0.843402 4.35015 0 0 0
1.96661 -0.580175 4.4115 0 0 0
1.96173 0.0606744 4.38315 0 0 0
1.94794 0.801374 4.34156 0 0 0
1.96088 0.390308 4.36217 0 0 0
1.95039 0.844486 4.33803 0 0 0
1.91446 0.980977 4.25785 0 0 0
1.9156 1.08678 4.25522 0 0 0
1.97559 -0.0211298 4.38397 0 0 0
1.96127 0.816988 4.3397 0 0 0
1.92249 1.00493 4.25437 0 0 0
1.99765 -0.576478 4.40516 0 0 0
1.96826 0.836251 4.33857 0 0 0
1.9306 0.987625 4.25385 0 0 0
1.93154 1.07811 4.25245 0 0 0
1.98091 0.440081 4.35487 0 0 0
1.99876 -0.0642971 4.38308 0 0 0
1.94735 1.06587 4.24601 0 0 0
2.04269 -1.26285 4.43641 0 0 0
1.99054 0.894712 4.32075 0 0 0
1.95965 0.977675 4.24724 0 0 0
2.04832 -1.36338 4.43669 0 0 0
2.05196 -1.46078 4.44447 0 0 0
2.0224 0.196903 4.36011 0 0 0
2.02873 -0.0644495 4.37195 0 0 0
2.01849 0.601658 4.33567 0 0 0
2.01849 0.601658 4.33567 0 0 0
2.04843 -0.443628 4.39454 0 0 0
1.99211 0.999583 4.24481 0 0 0
2.02402 0.904095 4.2996 0 0 0
2.05641 0.544682 4.33224 0 0 0
2.01584 1.0035 4.23945 0 0 0
2.01512 1.00306 4.23831 0 0 0
2.01567 1.0654 4.2252 0 0 0
2.01567 1.0654 4.2252 0 0 0
2.02274 1.10184 4.21507 0 0 0
2.06166 1.10101 4.22109 0 0 0
2.05845 0.982179 4.19983 0 0 0
2.07007 0.986997 4.22331 0 0 0
2.08599 0.954621 4.22952 0 0 0
2.0941 0.979683 4.22018 0 0 0
2.10416 1.08383 4.21336 0 0 0
2.11934 1.09211 4.20755 0 0 0
-2.45879 -1.1917 5.21347 89 64 74
-2.39534 0.68284 5.10221 121 53 60
-2.39826 0.453956 5.11483 139 87 96
-2.41358 -1.34165 5.21479 126 101 123
-2.40149 -1.19335 5.21223 113 94 113
-2.35442 0.938006 5.08539 80 40 45
-2.37739 -0.421266 5.16028 128 105 124
-2.33829 0.963995 5.05425 112 59 71
-2.35667 0.158391 5.12931 42 22 28
-2.36947 -1.2919 5.2094 101 74 89
-2.36946 -1.3495 5.21216 122 97 117
-2.36382 -1.19403 5.2041 118 95 115
-2.35605 -1.32111 5.21208 110 88 106
-2.3539 -1.31226 5.20909 109 94 117
-2.3539 -1.31226 5.20909 109 94 117
-2.33094 -0.355123 5.15977 119 93 112
-2.29899 0.683298 5.0877 53 25 25
-2.31381 -1.27249 5.20264 110 88 107
-2.30258 -0.8515 5.16736 106 82 96
-2.29584 -0.810127 5.16577 125 101 115
-2.2833 -0.359495 5.1521 121 93 105
-2.2942 -1.19241 5.1875 83 66 76
-2.25407 0.645619 5.08695 83 44 49
-2.2659 0.0289223 5.13034 44 23 27
-2.27995 -1.181 5.18584 94 77 86
-2.28229 -1.31958 5.19655 106 92 110
-2.24195 0.846379 5.07169 64 32 37
-2.22886 0.944386 5.05324 64 30 33
-2.25299 -0.708615 5.15287 107 90 110
-2.25299 -0.708615 5.15287 107 90 110
-2.00214 1.04938 4.20705 69 36 42
-2.25485 -0.854678 5.16066 97 70 77
-2.25485 -0.854678 5.16066 97 70 77
-2.23807 0.0316305 5.12682 45 33 40
-2.206 0.984367 5.02214 83 39 44
-2.24282 -0.510303 5.15305 75 54 61
-2.21823 0.706774 5.08065 81 45 56
-2.24346 -1.04291 5.16022 120 97 112
-2.24624 -1.04552 5.17438 120 97 112
-2.24187 -0.920523 5.1624 122 92 113
-2.24071 -0.856371 5.16027 80 68 80
-2.23736 -0.88132 5.15985 100 74 83
-2.21328 0.148623 5.10935 58 29 31
-2.23195 -1.04056 5.16894 116 88 110
-2.21403 0.0374991 5.11498 86 69 87
-2.21799 -0.500733 5.13971 117 92 107
-2.2172 -1.29695 5.1829 102 78 92
-2.21782 -1.40266 5.19374 120 90 98
-2.18242 -0.165946 5.11663 113 81 97
-2.1826 -0.309773 5.1193 85 70 89
-2.17104 0.284949 5.08354 91 46 55
-2.20161 -1.33046 5.18659 61 43 54
-2.1731 -0.613694 5.132 109 83 105
-2.15955 0.17659 5.08785 90 46 50
-2.1561 -0.292135 5.12477 146 115 131
-2.16256 -1.00167 5.16093 119 88 106
-2.1498 -0.711346 5.13258 124 96 115
-2.14975 -1.4058 5.184 129 102 117
-2.13968 -1.29515 5.17263 120 101 121
-2.12769 -0.840862 5.14136 118 91 108
-2.1089 0.223992 5.07977 88 58 70
-2.11605 -0.33996 5.11409 131 100 114
-2.13006 -1.34548 5.16397 127 101 121
-2.11447 -0.350635 5.11584 134 106 121
-2.09048 0.189758 5.07247 70 29 34
-2.11715 -1.27644 5.16937 120 93 110
-2.09937 -0.359485 5.11317 137 106 121
-2.10746 -1.03412 5.14163 106 78 93
-2.09852 -0.332649 5.11704 137 110 127
-2.10714 -1.12539 5.15546 126 97 115
-2.04996 0.976807 4.9993 106 54 64
-2.04996 0.976807 4.9993 106 54 64
-2.07143 -0.166053 5.1091 133 97 111
-2.07574 -0.725903 5.121 119 93 107
-2.07345 -0.538945 5.11816 102 89 108
-2.0888 -1.42915 5.17932 126 96 108
-2.04795 0.298356 5.06499 76 34 48
-2.07168 -1.21591 5.17076 116 91 110
-2.04448 0.182498 5.07395 100 54 63
-2.04551 0.163453 5.07882 102 55 64
-2.07217 -1.40749 5.17607 106 80 89
-2.04317 0.184406 5.07115 100 55 63
-2.05518 -0.674423 5.12001 87 71 90
-2.04822 -0.707921 5.12063 107 89 109
-2.05424 -1.21157 5.15191 111 88 102
-2.02712 -0.695817 5.11352 110 83 100
-1.98232 0.684412 5.0396 58 26 27
-1.98232 0.684412 5.0396 58 26 27
-1.97632 0.138203 5.06413 114 66 78
-1.97429 -0.296944 5.08956 127 105 122
-1.9707 -0.163304 5.09609 93 41 49
-1.9549 0.552103 5.04652 72 33 36
-1.96722 -1.02944 5.12728 108 76 91
-1.94591 0.180333 5.05596 67 27 34
-1.93884 0.150191 5.06609 75 52 68
-1.94127 0.0217907 5.07613 75 42 52
-1.94127 0.0217907 5.07613 75 42 52
-1.94473 -0.284114 5.08903 126 101 118
-1.93359 -0.815605 5.1042 111 81 96
-1.91953 0.15267 5.05812 66 32 42
-1.90763 0.559417 5.03101 80 41 50
-1.90866 0.259852 5.05756 67 36 42
-1.91288 -0.833953 5.11344 108 75 85
-1.8944 0.176954 5.0478 91 45 53
-1.89022 0.25366 5.04279 43 22 25
-1.89731 -0.347708 5.081 122 95 112
-1.91108 -1.40932 5.13701 128 105 122
-1.88909 0.261959 5.05505 80 42 47
-1.88587 -0.68477 5.09671 95 74 96
-1.87286 -0.349898 5.06837 122 98 112
-1.86798 0.272794 5.05791 84 44 50
-1.86607 0.272327 5.0495 85 45 52
-1.8893 -1.42867 5.1471 114 89 112
-1.8528 0.262285 5.04441 85 42 48
-1.85111 0.254539 5.03999 60 25 27
-1.85558 -0.366777 5.07575 86 54 65
-1.83531 0.698722 5.02031 112 61 68
-1.84119 -0.0630679 5.0483 57 27 32
-1.83095 0.794733 5.00831 113 62 71
-1.8388 -0.0570069 5.04483 64 33 38
-1.8388 -0.0570069 5.04483 64 33 38
-1.85289 -1.39973 5.13885 91 86 108
-1.83998 -0.968922 5.09586 113 94 107
-1.83344 -0.374097 5.07944 116 91 112
-1.81112 -0.375666 5.06955 128 101 118
-1.80484 0.0210471 5.05318 67 46 55
-1.8128 -1.21554 5.12208 123 101 124
-1.77854 0.540437 5.01663 87 59 74
-1.7727 0.338759 5.02541 101 53 65
-1.77494 -0.0415125 5.03933 105 66 71
-1.77374 0.0134953 5.04585 70 29 33
-1.76383 0.429876 5.01226 71 30 36
-1.77779 -0.699701 5.07728 112 84 99
-1.77606 -0.691692 5.08406 107 75 91
-1.77646 -1.18264 5.10329 119 97 121
-1.77512 -1.19014 5.10345 115 93 119
-1.77512 -1.19014 5.10345 115 93 119
-1.77657 -1.37534 5.12785 120 98 119
-1.76127 -0.359917 5.05773 115 86 104
-1.75289 0.25529 5.0211 82 39 46
-1.76979 -1.38291 5.11486 73 59 85
-1.73809 0.673603 5.01532 127 74 83
-1.74458 -0.762785 5.08082 107 81 92
-1.74771 -1.36303 5.11095 118 102 129
-1.7164 0.95508 4.97291 67 32 34
-1.73559 -1.39906 5.11971 49 45 57
-1.73247 -1.23662 5.10407 103 88 119
-1.73247 -1.23662 5.10407 103 88 119
-1.71864 -0.387284 5.05419 101 66 74
-1.7258 -1.16655 5.08298 60 56 74
-1.7258 -1.16655 5.08298 60 56 74
-1.70992 0.0274097 5.02443 104 56 66
-1.69388 0.950768 4.96709 82 37 42
-1.70513 0.0427876 5.02674 93 51 61
-1.70513 0.0427876 5.02674 93 51 61
-1.6918 0.667551 4.9846 116 67 74
-1.71386 -1.20451 5.10522 122 104 129
-1.70837 -1.138 5.09261 125 107 131
-1.70851 -1.21156 5.09757 99 84 112
-1.68358 0.426653 5.00727 102 56 64
-1.69046 -0.408354 5.04801 134 111 127
-1.68954 -0.701683 5.06945 108 91 107
-1.67509 0.245021 5.00617 89 44 48
-1.66856 -0.00804745 5.02883 113 60 71
-1.66215 0.323712 4.99871 73 35 39
-1.66045 0.345002 5.00132 68 31 34
-1.65097 0.441138 5.00928 112 56 67
-1.66111 -0.540746 5.05653 106 87 106
-1.66297 -0.834776 5.06791 109 88 106
-1.65928 -0.521252 5.06005 104 80 100
-1.64307 0.296097 5.00255 80 40 45
-1.64801 -1.20234 5.08498 117 93 109
-1.64801 -1.20234 5.08498 117 93 109
-1.55001 0.921135 4.50465 72 32 33
-1.62815 -0.545109 5.0463 108 83 102
-1.5376 0.919013 4.51238 83 37 41
-1.60948 -0.704035 5.05587 109 82 97
-1.59924 -0.185339 5.0234 78 68 85
-1.59515 -0.288815 5.02701 111 80 90
-1.5977 -0.544453 5.04052 113 86 101
-1.5813 -0.00250737 4.99917 121 66 74
-1.59296 -1.13328 5.07859 115 88 111
-1.57909 -0.289078 5.01878 113 81 94
-1.57569 -0.292056 5.01974 112 80 95
-1.58218 -1.02486 5.0711 60 46 67
-1.58418 -1.42985 5.0888 100 96 117
-1.56197 -0.000677051 4.99648 128 72 86
-1.56197 -0.000677051 4.99648 128 72 86
-1.56677 -1.20245 5.07507 120 94 118
-1.5525 -0.545919 5.03519 113 86 101
-1.48894 0.433357 4.55363 129 73 86
-1.53219 -0.194521 5.01492 120 82 96
-1.53574 -1.19112 5.06587 126 103 131
-1.52911 -0.994145 5.05626 100 82 104
-1.44219 0.316954 4.5374 89 51 65
-1.50128 -1.006 5.04911 125 96 124
-1.49188 -0.680147 5.0091 124 93 108
-1.49352 -0.682938 5.03148 124 93 108
-1.50108 -1.39829 5.07689 115 102 123
-1.49317 -1.14971 5.05695 117 92 114
-1.41795 0.930096 4.4846 94 56 69
-1.41701 0.928169 4.47586 94 56 69
-1.47548 -0.696373 5.02281 125 94 109
-1.41246 0.84093 4.4982 111 69 83
-1.43521 0.210224 4.69784 67 30 34
-1.42575 0.188376 4.6941 97 56 65
-1.45069 -0.919773 5.03691 111 89 104
-1.44321 -0.900339 5.03616 112 81 94
-1.44125 -0.851908 5.03482 101 70 80
-1.44087 -0.923326 5.03538 101 84 96
-1.44171 -1.33394 5.06083 106 90 116
-1.44033 -1.34044 5.05585 114 94 121
-1.43562 -0.901704 5.02528 87 69 80
-1.43092 -0.959803 5.03554 89 74 97
-1.43189 -1.13514 5.04332 107 88 109
-1.43279 -1.39314 5.0614 106 80 99
-1.42769 -0.967697 5.03315 101 83 104
-1.43042 -1.36249 5.0619 100 83 101
-1.4261 -0.977534 5.03804 105 87 113
-1.35884 0.928253 4.462 78 39 40
-1.41419 -1.39476 5.05019 76 62 87
-1.4035 -1.3854 5.053 116 98 120
-1.33832 0.866146 4.48142 54 24 26
-1.38149 -0.171557 4.95393 88 47 56
-1.33763 0.294775 4.61536 71 38 43
-1.31692 0.928634 4.45741 70 39 44
-1.31935 0.400044 4.51961 103 56 64
-1.36371 -1.12845 5.02776 108 80 98
-1.36065 -1.06667 5.032 112 81 99
-1.31299 0.375695 4.51431 81 54 68
-1.32945 -0.197974 4.73592 119 64 73
-1.29398 0.866246 4.47545 118 75 82
-1.29398 0.866246 4.47545 118 75 82
-1.29343 0.358797 4.51169 112 71 84
-1.30558 0.10281 4.69526 111 60 69
-1.28546 0.744915 4.47893 80 41 41
-1.28227 0.780398 4.47898 86 42 44
-1.29936 0.0856863 4.74304 108 59 64
-1.29879 -0.839698 5.00484 106 83 96
-1.272 -0.084402 4.77525 94 60 77
-1.28506 -0.997135 5.01424 105 83 96
-1.23723 0.32766 4.50881 71 44 55
-1.2367 0.341852 4.50638 79 50 65
-1.26859 -1.12415 5.01535 60 43 61
-1.25663 -0.689501 4.99416 99 80 108
-1.24779 -0.597567 4.98551 98 43 49
-1.25018 -0.991537 5.00382 91 74 100
-1.25018 -0.991537 5.00382 91 74 100
-1.24109 -0.687106 4.98237 108 81 96
-1.20882 0.473926 4.49493 84 44 49
-1.21187 0.293079 4.61768 93 53 59
-1.22768 -0.54202 4.97321 129 77 82
-1.22811 -1.28138 5.01794 113 88 110
-1.22346 -1.22591 5.01612 103 80 99
-1.21757 -0.825312 4.99078 91 70 90
-1.19862 0.00206244 4.78652 119 63 71
-1.21364 -1.35194 5.02067 88 73 94
-1.21287 -1.21034 5.01639 107 86 100
-1.2116 -1.30936 5.02046 112 86 103
-1.2116 -1.30936 5.02046 112 86 103
-1.19373 -0.0892135 4.76798 114 62 66
-1.17424 0.441614 4.49084 111 61 70
-1.20223 -1.21578 5.01158 105 80 96
-1.19798 -0.840133 4.99678 70 53 64
-1.19534 -1.37974 5.0185 110 92 115
-1.15367 0.32829 4.4863 125 68 79
-1.18098 -1.1338 4.99632 115 95 122
-1.16146 -1.21018 5.00109 103 93 120
-1.15444 -1.40537 5.01375 114 94 117
-1.15162 -1.42228 5.0106 111 93 118
-1.13546 -0.369007 4.71326 70 28 33
-1.14145 -0.839861 4.98782 60 45 61
-1.13129 0.111265 4.85617 64 38 49
-1.12703 0.109519 4.77148 65 39 51
-1.10674 0.125702 4.7646 66 40 54
-1.11424 -1.47894 5.00336 124 102 124
-1.11243 -1.2065 4.99515 118 96 108
-1.11204 -1.27984 4.99221 93 70 92
-1.05478 0.822224 3.6295 132 81 90
-1.08751 0.0613769 4.78447 129 74 84
-1.08809 -0.430408 4.75025 72 39 43
-1.09603 -1.45845 5.00281 113 95 117
-1.09015 -0.710481 4.96645 72 56 69
-1.07398 -1.38835 4.99014 85 73 85
-1.05867 -0.443374 4.76351 100 56 63
-1.06511 -1.4022 5.00352 92 82 102
-1.05298 -0.463832 4.75877 93 54 59
-1.04217 0.124557 4.76157 119 62 70
-1.05189 -1.42076 5.00668 115 103 129
-1.05189 -1.42076 5.00668 115 103 129
-1.02812 -0.493222 4.76691 61 30 35
-1.02356 -1.42355 4.99797 109 90 116
-1.00671 -0.0423184 4.75862 96 45 50
-1.00671 -0.0423184 4.75862 96 45 50
-0.992105 0.358743 4.46395 112 56 67
-0.992105 0.358743 4.46395 112 56 67
-0.991755 -1.03644 4.59103 94 79 94
-0.984148 -0.903923 4.68998 95 80 102
-0.982011 -0.671552 4.68587 105 80 95
-0.971127 -1.40697 4.97856 117 99 121
-0.950859 -0.0827806 4.7407 118 62 69
-0.948468 -0.122298 4.73813 110 61 65
-0.946173 0.367505 4.45787 131 75 88
-0.929722 -1.4107 4.98395 102 88 114
-0.921907 0.0458782 4.73748 50 20 22
-0.922747 -1.39654 4.96857 113 101 128
-0.915567 -1.40594 4.97413 111 100 130
-0.909642 -0.0709366 4.6867 117 62 68
-0.897997 -1.37815 4.97136 106 100 128
-0.899258 -0.88092 4.69314 86 73 77
-0.908288 0.905596 3.4089 123 66 73
-0.870927 0.729344 3.4633 124 69 79
-0.838959 -0.627929 4.73878 67 48 53
-0.823841 0.436935 4.42997 137 85 98
-0.795799 0.114193 4.71119 117 60 68
-0.795336 -0.246918 4.73209 58 31 39
-0.765828 -0.578504 4.74064 61 45 57
-0.761948 0.294409 4.51731 129 75 88
-0.761948 0.294409 4.51731 129 75 88
-0.749894 -1.08661 4.66456 101 87 101
-0.74087 -0.0430427 4.71251 126 64 72
-0.735646 -0.638037 4.74003 63 47 58
-0.734675 -1.10273 4.64425 97 89 102
-0.725601 -0.188367 4.71486 123 64 71
-0.725177 0.0936803 4.69077 116 59 65
-0.703945 -0.170408 4.71518 126 66 78
-0.765899 0.6097 3.44991 138 86 108
-0.692683 0.212984 4.55268 139 85 105
-0.674595 -0.514643 4.67165 98 47 56
-0.750653 0.626614 3.44436 105 47 61
-0.75048 0.463275 3.40802 120 71 90
-0.656208 0.352535 4.40744 138 80 95
-0.651608 -1.16877 4.54091 20 29 54
-0.634777 -0.0900704 4.58789 149 91 106
-0.616993 -0.426519 4.58394 84 54 59
-0.703876 0.619669 3.44313 137 76 90
-0.702819 0.679254 3.43563 141 79 92
-0.702819 0.679254 3.43563 141 79 92
-0.616835 -0.588509 4.54786 121 67 78
-0.613885 -0.593904 4.58348 121 67 78
-0.611646 -0.979001 4.538 73 57 69
-0.692464 0.732114 3.43025 140 75 89
-0.595926 -0.0880033 4.58465 107 63 73
-0.689767 0.906309 3.37829 153 118 139
-0.590405 -0.0243265 4.57688 121 76 94
-0.684896 0.6093 3.43508 153 111 131
-0.586736 -0.152268 4.57745 133 98 120
-0.584599 -0.0986514 4.58481 139 104 124
-0.589249 -1.07233 4.49917 115 99 119
-0.577713 -0.290862 4.59018 131 84 106
-0.672106 0.816157 3.42601 135 89 105
-0.560802 0.134025 4.56611 129 83 96
-0.566302 -0.750103 4.54769 73 67 77
-0.655782 0.69305 3.42739 139 92 113
-0.655058 0.731183 3.42438 133 86 97
-0.563877 0.519246 4.3189 132 78 94
-0.546182 0.294686 4.45441 135 87 101
-0.546182 0.294686 4.45441 135 87 101
-0.535412 -0.152624 4.57126 40 23 28
-0.535412 -0.152624 4.57126 40 23 28
-0.542482 -1.07765 4.51542 107 89 107
-0.526455 -0.365163 4.5889 66 46 53
-0.496397 -0.238907 4.56958 127 75 90
-0.513856 0.435388 4.37919 132 79 95
-0.501738 -0.977467 4.53217 72 60 74
-0.484578 -0.0952063 4.56289 108 75 96
-0.493695 -1.02922 4.49962 98 91 112
-0.493695 -1.02922 4.49962 98 91 112
-0.479961 -1.06481 4.50141 83 71 95
-0.439223 0.0607189 4.5584 132 84 98
-0.444775 0.334302 4.37509 138 85 108
-0.416719 0.0436191 4.52365 123 74 96
-0.393696 -0.339029 4.54975 132 77 88
-0.400254 -1.48047 4.49649 100 90 118
-0.394313 0.054771 4.47892 143 90 110
-0.384817 -0.333153 4.54729 131 78 87
-0.383727 -0.364027 4.55138 122 76 86
-0.378879 -0.302242 4.54519 126 77 83
-0.369484 -0.511947 4.59038 110 68 77
-0.359098 -0.417835 4.55403 117 66 78
-0.347032 -0.175305 4.6111 153 113 137
-0.354844 -0.302441 4.543 104 62 84
-0.354844 -0.302441 4.543 104 62 84
-0.518129 0.90707 3.34218 105 63 77
-0.331153 -0.4475 4.5583 104 55 63
-0.496077 0.872725 3.3734 115 68 84
-0.323252 -0.535031 4.56046 97 52 59
-0.323639 -0.443043 4.55434 103 53 58
-0.338479 0.00407864 4.40177 107 64 75
-0.338479 0.00407864 4.40177 107 64 75
-0.475694 0.730744 3.39502 52 94 145
-0.298744 -0.755847 4.56733 59 39 51
-0.304656 -0.303416 4.46143 86 48 54
-0.296812 -0.385653 4.49596 81 45 49
-0.461901 0.794263 3.38745 165 125 151
-0.30956 0.349458 4.34818 155 114 132
-0.294875 -0.0945512 4.39664 94 53 62
-0.273886 -0.548974 4.53697 46 23 20
-0.450001 0.724676 3.39217 109 60 69
-0.29253 -0.0796413 4.3888 109 56 69
-0.266795 -0.566279 4.54062 33 21 16
-0.264153 -0.336926 4.5265 82 45 50
-0.262853 -1.21713 4.48989 75 67 84
-0.260765 -1.23715 4.48705 98 94 115
-0.436556 0.872352 3.3622 114 61 69
-0.243151 -0.958913 4.5262 57 52 59
-0.234266 -0.370027 4.55035 62 35 34
-0.253815 -0.0882574 4.41824 93 48 55
-0.236266 -0.312898 4.51803 66 34 35
-0.236266 -0.312898 4.51803 66 34 35
-0.261587 -0.0841142 4.36221 106 61 68
-0.246141 -0.232228 4.45683 70 36 36
-0.258362 -0.0841704 4.37995 108 63 70
-0.261633 -0.0287105 4.34305 109 57 63
-0.237155 0.0888107 4.45763 108 55 65
-0.240675 -0.067883 4.3804 80 33 39
-0.211327 -0.765502 4.54536 83 60 68
-0.206026 -0.85054 4.55206 86 65 70
-0.199458 -0.367239 4.55399 65 37 36
-0.429042 1.01401 3.20255 124 76 88
-0.186064 -0.362792 4.5475 64 36 35
-0.206846 -0.0545937 4.39 103 56 64
-0.171837 -0.303609 4.5326 64 34 34
-0.1905 -1.47623 4.45348 107 89 103
-0.167174 -0.303972 4.52949 71 39 42
-0.385955 1.04472 3.28272 97 56 67
-0.145122 -0.763867 4.53137 79 57 64
-0.152928 -1.47974 4.45107 97 90 106
-0.170931 0.358495 4.30966 95 55 63
-0.166907 0.360502 4.32088 97 56 64
-0.130553 -0.916209 4.53131 81 61 67
-0.0925535 -0.720678 4.52042 65 51 60
-0.12758 0.433667 4.31213 106 58 72
-0.0982682 0.0401105 4.41047 95 59 70
-0.0982682 0.0401105 4.41047 95 59 70
-0.0920599 0.0217515 4.40726 103 60 76
-0.0886873 -1.03971 4.43953 88 73 89
-0.100026 0.481428 4.3021 102 70 90
-0.0620302 -0.653923 4.49244 106 62 69
-0.0581449 -0.657003 4.51104 106 62 69
-0.0693104 0.047841 4.42143 106 70 90
-0.287955 0.816003 3.35773 105 73 97
-0.287955 0.816003 3.35773 105 73 97
-0.0412326 0.0964454 4.45463 103 68 86
-0.274846 0.624105 3.3659 102 74 97
-0.0825083 0.572292 4.24334 128 84 104
-0.0289789 -0.0745176 4.47826 98 57 64
-0.0264589 -0.610802 4.49221 68 51 58
-0.0275879 0.204791 4.40665 104 72 96
-0.00805798 -0.0919549 4.47606 98 57 65
-0.00805798 -0.0919549 4.47606 98 57 65
0.00853756 -0.433609 4.47309 53 37 42
-0.0076394 -1.06852 4.40222 84 78 81
-0.234387 0.805162 3.34902 107 77 98
-0.234387 0.805162 3.34902 107 77 98
0.0105443 -1.00245 4.4332 88 80 87
0.0301387 -0.0897541 4.47147 78 50 62
0.0106807 -1.47531 4.39914 118 111 123
0.0364238 -0.239804 4.47552 89 48 57
0.0180881 -1.06269 4.39246 86 80 80
0.0165057 0.295741 4.35455 127 80 98
0.0279519 -0.991539 4.40604 76 75 81
0.0520882 -0.380163 4.47557 97 63 74
0.043235 -1.22549 4.43799 98 85 93
0.0602961 -0.249358 4.46663 104 63 68
0.0474252 -1.06924 4.38539 80 71 74
0.035981 -1.42037 4.32812 106 101 108
-0.184218 0.637745 3.34912 106 74 98
0.0659636 -1.07107 4.3881 47 46 50
0.0917878 -0.312036 4.47042 76 52 65
0.0917878 -0.312036 4.47042 76 52 65
0.0937183 0.0434274 4.4531 123 72 87
0.0549149 0.350819 4.28165 120 76 96
0.110636 0.0631946 4.46503 128 83 100
0.10136 -1.2311 4.43148 59 58 75
-0.174676 1.01093 3.27929 151 102 124
0.114007 -1.02923 4.39355 72 61 69
0.151494 -1.06834 4.38842 50 59 54
0.164585 -1.09466 4.37562 47 59 57
0.277385 -0.916703 4.54772 56 80 59
0.210501 0.331793 4.26202 163 113 135
-0.0532528 0.694355 3.32452 137 90 110
0.294554 0.107759 4.52533 151 102 123
0.333317 -0.258018 4.53293 62 44 49
0.319742 -1.15606 4.4678 76 77 72
-0.00965696 0.872547 3.29079 74 58 69
-0.00965696 0.872547 3.29079 74 58 69
0.356913 -0.0952934 4.47668 74 47 56
0.359328 -0.128553 4.47782 75 40 44
0.00480997 0.789947 3.31047 111 65 76
0.00549946 0.790289 3.3117 109 63 74
0.380248 -0.736221 4.52652 47 59 54
0.379856 -0.358023 4.51877 61 41 43
0.383862 -0.358922 4.53129 61 41 43
0.305621 0.345649 4.23854 106 68 79
0.0174666 0.804024 3.30697 114 67 79
0.401156 -0.05418 4.51151 97 57 62
0.3993 -0.184154 4.50706 84 52 57
0.0244038 0.722139 3.30818 118 68 79
0.0256359 0.735002 3.30768 123 72 82
0.327398 0.422638 4.2313 125 75 87
0.327398 0.422638 4.2313 125 75 87
0.406172 -0.12085 4.43917 79 44 48
0.443521 -0.275237 4.50797 67 47 49
0.0688365 0.872121 3.28082 130 83 99
0.0732057 0.511679 3.27503 127 84 101
0.0823608 0.858197 3.28606 122 76 88
0.398973 0.349149 4.22355 102 68 81
0.509503 -0.276433 4.50606 59 67 70
0.459858 -1.03289 4.36764 74 82 85
0.585843 -1.31791 4.7028 84 98 99
0.603239 -1.64788 4.71907 74 89 88
0.479602 -1.04195 4.33671 75 87 89
0.568427 -0.0738856 4.48007 82 85 110
0.648156 -1.39751 4.69281 73 88 85
0.652282 -1.39688 4.69562 76 91 90
0.658321 -1.41089 4.69977 79 94 91
0.598787 0.035257 4.46571 85 89 115
0.688372 -1.57304 4.70375 75 84 90
0.690938 -1.5417 4.69666 67 77 89
0.690938 -1.5417 4.69666 67 77 89
0.692164 -1.49587 4.6927 68 79 92
0.539256 0.327707 4.20688 78 83 103
0.634167 -0.206991 4.45723 80 87 101
0.709698 -0.858518 4.66142 65 67 86
0.710476 -1.32854 4.66897 71 85 93
0.64384 -0.191061 4.45472 81 84 101
0.597644 0.304699 4.19078 87 90 112
0.60979 0.317749 4.18547 87 92 112
0.620621 0.418113 4.17835 79 84 104
0.804796 -0.884975 4.64615 64 69 91
0.810857 -1.02736 4.65286 61 63 84
0.823112 -1.34473 4.66466 55 62 81
0.842758 -1.41018 4.66876 67 74 92
0.657608 0.458648 4.1748 81 79 100
0.657608 0.458648 4.1748 81 79 100
0.844973 -0.557083 4.61789 0 0 0
0.750834 -0.4505 4.37539 0 0 0
0.85545 -0.564295 4.61639 0 0 0
0.676916 0.413058 4.16856 0 0 0
0.864387 -0.546655 4.61418 0 0 0
0.690949 0.353485 4.16905 0 0 0
0.784365 0.15232 4.37638 0 0 0
0.891717 -0.833987 4.62272 0 0 0
0.907882 -1.58401 4.66762 0 0 0
0.762381 0.22478 4.27968 0 0 0
0.91395 -1.41594 4.6533 0 0 0
0.909413 -0.80787 4.62078 0 0 0
0.913199 -0.944871 4.62007 0 0 0
0.78073 0.212616 4.28134 0 0 0
0.805884 0.0842066 4.33613 0 0 0
0.805824 0.102995 4.32709 0 0 0
0.741143 0.442389 4.16122 0 0 0
0.873801 -0.122069 4.33449 0 0 0
0.859869 -0.233239 4.29491 0 0 0
1.00305 -0.873907 4.61068 0 0 0
0.858999 -0.32176 4.23965 0 0 0
1.0449 -1.63933 4.63986 0 0 0
1.05277 -0.871848 4.59915 0 0 0
0.870275 0.418074 4.14178 0 0 0
1.07389 -0.853129 4.59338 0 0 0
1.07847 -0.861211 4.59473 0 0 0
1.07411 -0.541301 4.57768 0 0 0
1.09074 -0.549628 4.58055 0 0 0
1.10766 -1.04434 4.60245 0 0 0
0.899687 0.803532 4.09842 0 0 0
1.13315 -0.874726 4.58421 0 0 0
1.14273 -1.05804 4.59509 0 0 0
0.919179 0.786475 4.09657 0 0 0
1.13428 0.090315 4.53378 0 0 0
1.16073 -1.03527 4.59588 0 0 0
1.17311 -1.07645 4.58339 0 0 0
1.17923 -1.17573 4.59547 0 0 0
0.937523 0.911149 4.07105 0 0 0
1.20269 -1.04062 4.58349 0 0 0
1.19916 -0.750585 4.56934 0 0 0
1.18603 0.193355 4.51466 0 0 0
1.19646 0.114239 4.52882 0 0 0
