ply
format ascii 1.0 
element vertex 1002
property float32 x 
property float32 y 
property float32 z
property uchar red  
property uchar green
property uchar blue
element face 0
property list uchar int vertex_indices
end_header
-1.35372 0.805278 2.77674 200 200 190
-1.34146 0.78716 2.78829 105 100 94
-1.34173 0.600959 2.81318 197 198 192
-1.33951 0.560075 2.82764 87 88 74
-1.32103 0.659132 2.81021 180 177 170
-1.32328 0.575932 2.81753 110 106 95
-1.30781 0.745628 2.81593 188 179 172
-1.30949 0.521126 2.86788 140 142 139
-1.33257 -0.429141 2.99166 108 109 104
-1.26122 0.728688 2.83617 129 128 126
-1.31601 -0.581901 2.99205 223 227 239
-1.2507 0.657627 2.84556 114 114 104
-1.24256 0.792715 2.83931 99 98 94
-1.27594 0.47409 2.92707 213 209 206
-1.23389 0.784346 2.84406 110 111 105
-1.29738 -0.547648 3.01785 108 113 109
-1.29189 -0.461525 3.01322 120 122 121
-1.2764 -0.703541 2.97828 220 226 238
-1.27926 -0.109579 2.98833 119 121 107
-1.27926 -0.109579 2.98833 119 121 107
-1.28475 -0.582271 3.01235 218 228 238
-1.2767 -0.381869 2.99403 17 20 13
-1.24932 0.474284 2.9571 216 216 216
-1.24822 0.37044 2.96356 245 246 241
-1.20897 0.571724 2.87207 50 46 43
-1.20897 0.571724 2.87207 50 46 43
-1.1997 0.792612 2.8605 130 129 125
-2.63068 -1.84765 18.0935 58 60 55
-1.19482 0.638804 2.87672 210 210 208
-1.24645 -0.357264 3.01666 33 33 31
-1.23981 -0.39526 2.99573 47 49 44
-1.19562 0.564442 2.89777 30 30 28
-2.51358 -2.15096 17.8335 32 32 30
-1.18662 0.570576 2.88261 30 35 28
-1.23088 -0.394611 3.00265 43 43 41
-1.2239 -0.00718317 3.01813 107 103 92
-1.2341 -0.196739 3.04818 187 190 183
-1.21195 0.294649 2.99922 214 214 206
-1.21909 -0.535895 3.01319 109 113 112
-1.20704 0.464675 2.98625 216 215 211
-1.21741 -0.641069 3.02283 219 225 237
-1.21257 -0.520704 3.03114 112 112 112
-1.1621 0.562793 2.9139 32 39 31
-1.1621 0.562793 2.9139 32 39 31
-1.20183 -0.507087 3.01962 145 147 146
-2.52261 -2.75731 18.1575 145 147 146
-1.20237 -0.339926 3.02857 29 29 27
-1.20237 -0.339926 3.02857 29 29 27
-2.4334 -2.56747 18.0164 132 136 137
-1.19736 -0.468983 3.01999 132 136 137
-1.19939 -0.497259 3.0324 141 143 142
-1.14285 0.561375 2.92526 48 50 47
-1.19999 -0.361726 3.07355 11 12 7
-1.14311 -0.314272 2.94483 9 11 6
-1.14311 -0.314272 2.94483 9 11 6
-1.1745 -0.495959 3.03294 144 145 147
-1.1611 0.294162 3.0251 225 229 214
-1.17856 -0.519395 3.08454 148 150 149
-1.11099 0.784448 2.90382 152 153 155
-1.11383 0.570604 2.9122 213 214 209
-1.16324 -0.347069 3.05518 25 25 25
-1.15474 -0.644295 3.03833 219 225 237
-1.15829 -0.177838 3.05037 210 210 208
-1.17308 -0.36523 3.10012 29 29 27
-1.19506 -0.343501 3.15077 25 27 24
-1.13238 0.469782 3.00524 211 206 202
-1.09167 0.739778 2.91855 164 165 167
-1.13602 -0.413774 3.0516 44 46 43
-1.13055 0.0769091 3.04269 220 220 218
-1.07665 0.765314 2.92321 178 180 179
-1.12788 -0.359351 3.06475 34 34 34
-1.12555 -0.333975 3.06403 22 25 18
-1.0776 0.575059 2.92959 113 111 99
-1.07513 0.569106 2.9397 131 131 123
-1.11496 -0.39398 3.05886 44 44 42
-1.11277 -0.244533 3.07668 130 134 133
-1.10486 -0.642486 3.0694 216 224 235
-1.18921 -0.0094278 3.30371 157 159 158
-1.10302 -0.565794 3.06769 104 106 105
-1.1017 -0.00829818 3.0666 160 162 161
-1.05041 0.564352 2.95301 213 214 209
-1.09363 -0.624653 3.08245 217 223 235
-1.02721 0.568242 2.95202 124 124 122
-1.04801 0.49882 3.01839 204 205 199
-1.04823 0.499317 3.01998 204 205 199
-1.05937 0.397403 3.05223 219 218 214
-1.06072 0.449969 3.05817 162 162 154
-1.0613 0.226484 3.06581 219 220 215
-1.05619 0.358625 3.05595 220 221 216
-1.0558 0.347545 3.0585 224 225 220
-1.06188 -0.190199 3.09524 199 199 199
-1.06798 -0.442423 3.11435 98 106 109
-1.06798 -0.442423 3.11435 98 106 109
-1.06892 -0.573353 3.12543 163 163 163
-1.01246 0.614838 2.96453 213 208 204
-1.01077 0.558359 2.97924 211 212 206
-0.979921 0.565364 2.98139 210 211 205
-1.01411 -0.400563 3.21949 48 47 43
-0.996211 0.286681 3.17276 205 204 202
-0.99463 0.285183 3.17333 208 207 205
-0.995566 -0.576401 3.24076 206 207 202
-0.985639 -0.564928 3.24483 204 205 200
-0.871632 -0.571915 3.28909 206 203 196
-0.859698 -0.602724 3.2904 131 123 112
-0.858303 -0.566094 3.28823 209 208 204
-0.748707 -0.576568 3.34301 210 207 200
-0.708795 -0.595445 3.354 211 211 203
-0.699553 -0.308861 3.34085 20 22 17
-0.682959 -0.595224 3.36833 208 209 203
-0.666194 -0.577505 3.37624 200 197 190
-0.666194 -0.577505 3.37624 200 197 190
-0.664053 -0.610372 3.3728 209 208 203
-0.655856 -0.638338 3.35768 205 202 195
-0.659101 -0.568749 3.40193 204 201 196
-0.631087 -0.393272 3.41425 28 30 27
-0.57162 -0.817272 3.45105 208 209 204
-0.559087 -0.231993 3.39989 165 165 165
-0.558594 -0.59748 3.42286 209 208 204
-0.547006 0.257031 3.36951 221 222 224
-0.545304 0.447955 3.36473 27 27 19
-0.552507 -0.871881 3.44333 207 204 197
-0.546887 -0.410007 3.41771 58 60 59
-0.584723 -1.8214 3.66156 13 16 7
-0.540613 -0.214368 3.41263 185 185 185
-0.525818 -0.639222 3.41318 211 210 205
-0.522802 -0.418874 3.4274 40 42 39
-0.522508 -0.565517 3.44321 199 201 198
-0.515627 -0.647106 3.41632 212 211 206
-0.513289 -0.413028 3.44818 34 34 34
-0.511236 -0.429017 3.43638 40 42 39
-0.50997 -0.581113 3.45254 207 208 203
-0.507307 -0.538535 3.44554 149 151 148
-0.505172 -0.597758 3.43968 211 210 206
-0.499553 -0.367145 3.42696 22 24 19
-0.491126 -0.254029 3.42517 147 147 147
-0.488725 -0.580078 3.45807 207 208 203
-0.490342 -0.775 3.47969 212 213 208
-0.482232 -0.780373 3.46631 214 213 208
-0.475129 -0.256331 3.44134 145 145 145
-0.475129 -0.256331 3.44134 145 145 145
-0.474438 -0.639861 3.43811 212 211 207
-0.466994 0.411971 3.39231 18 19 11
-0.46966 -0.728907 3.45894 207 212 208
-0.464098 -0.741796 3.45901 219 218 213
-0.460893 -0.24289 3.4393 153 153 153
-0.463893 -1.53747 3.47198 123 124 119
-0.464871 -1.52971 3.48633 91 90 86
-0.455549 -0.681369 3.43685 202 199 194
-0.450042 0.433244 3.40536 13 18 12
-0.447215 -1.55461 3.48432 20 20 18
-0.291312 -1.64405 3.28238 1 13 9
-0.442472 0.0162615 4.99077 174 176 171
-0.294637 0.0113191 3.33319 174 176 171
-0.289111 -1.62099 3.30049 63 78 75
-0.284038 -1.62748 3.29387 152 140 140
-0.255952 0.159077 3.11915 99 102 93
-0.24991 0.350184 3.10504 11 16 9
-0.251184 0.444354 3.06699 38 38 26
-0.242711 0.545822 3.0867 37 37 25
-0.240197 0.513407 3.09506 38 38 26
-0.237583 0.71139 3.07575 13 16 7
-0.236696 0.746178 3.07238 17 20 13
-0.231683 0.742631 3.07618 14 17 10
-0.223471 0.527198 3.07476 31 32 18
-0.214911 0.000444463 3.21756 178 177 172
-0.195632 0.12464 3.14987 226 228 225
-0.195632 0.12464 3.14987 226 228 225
-0.185429 0.538207 3.12001 37 38 24
-0.163905 0.65169 3.11746 50 50 38
-0.166948 0.650082 3.09233 50 50 38
-0.154906 0.0571603 3.14177 188 190 187
-0.144408 0.150451 3.1722 231 232 227
-0.0980164 0.450609 3.17351 19 22 13
-0.0980164 0.450609 3.17351 19 22 13
-0.0788127 0.214589 3.19939 220 221 216
-0.0829688 -1.4974 3.38783 17 17 7
-0.0783643 -1.80154 3.44488 21 22 16
-0.0695153 -1.50609 3.37856 59 58 53
-0.0423858 0.129331 3.19406 227 228 222
-0.0390524 -1.74341 3.44874 58 60 49
-0.0273894 0.202529 3.2298 219 220 215
-0.024136 0.753811 3.17338 13 16 9
-0.0224064 -1.48475 3.37801 164 160 149
-0.0211884 -1.77199 3.45967 52 48 37
-0.0247588 0.133638 3.20104 209 208 203
0.00227168 0.212336 3.24027 220 219 214
0.00227168 0.212336 3.24027 220 219 214
0.0348261 -1.84429 3.50369 44 46 35
0.0467379 0.235846 3.27053 192 196 199
0.0544669 -0.00675106 3.33069 162 159 150
0.0544669 -0.00675106 3.33069 162 159 150
0.0627547 -1.78832 3.50688 50 46 37
0.062163 0.565448 3.23708 18 19 13
0.062163 0.565448 3.23708 18 19 13
0.0780248 -1.83597 3.52061 62 55 45
0.0797185 -1.74602 3.51029 41 35 23
0.0804076 0.213243 3.28318 152 153 147
0.0903215 -1.78944 3.52264 70 66 54
0.0912512 -1.72408 3.51391 63 57 43
0.14337 0.323257 3.30581 128 129 131
0.144966 0.22758 3.31253 171 172 167
0.152534 0.407508 3.30002 109 117 120
0.148416 0.23206 3.28929 160 161 156
0.163111 -1.63725 3.51935 25 26 20
0.169585 0.200273 3.32831 156 157 151
0.169585 0.200273 3.32831 156 157 151
0.175784 0.192102 3.32604 42 35 29
0.218306 -1.91773 3.78147 72 49 41
0.281767 -1.96362 3.75799 126 131 135
0.281541 -1.9637 3.7567 126 131 135
0.35893 -1.96311 3.85732 88 88 80
0.369923 -1.73872 3.97235 26 23 14
0.368168 -1.7311 3.95397 26 23 14
0.370752 -1.76034 3.96978 68 66 54
0.371892 -1.69363 3.95255 105 103 91
0.373474 -1.70016 3.96959 105 103 91
0.377533 -1.74642 3.97255 101 101 91
0.379922 -1.68075 3.9698 70 67 60
0.387707 -1.6597 3.97021 63 66 59
0.388539 -1.7392 3.97962 53 52 47
0.416617 -1.71494 3.99099 77 74 67
0.430859 -1.76528 4.00767 71 73 62
0.433343 -1.78236 4.00708 67 66 61
0.435317 -1.74869 4.00304 62 65 56
0.43515 -1.73502 4.00169 75 74 69
0.423772 -1.96745 3.89274 100 96 85
0.445854 -1.80855 4.01261 66 66 56
0.449645 -1.65914 4.00046 73 69 60
0.449947 -1.65964 4.00172 73 69 60
0.458686 -1.99805 3.90163 104 100 91
0.524684 -1.99889 3.93315 120 116 107
0.524745 -2.04317 3.89528 118 111 101
0.564397 -1.63888 4.05283 25 24 20
0.557487 -2.02507 3.94372 114 110 101
0.575559 -1.83563 4.06748 56 55 50
0.556021 -2.04444 3.91043 118 109 100
0.556021 -2.04444 3.91043 118 109 100
0.619656 -1.51302 4.10185 169 162 152
0.683728 -1.53445 4.11082 161 157 146
0.685421 -1.98663 4.00301 82 81 77
0.709207 -1.41921 4.10296 112 108 99
0.716502 -1.80876 4.14489 139 135 124
0.716502 -1.80876 4.14489 139 135 124
0.706934 -1.47629 4.08733 130 127 118
0.697634 -1.96725 4.01908 79 75 72
0.712093 -1.48256 4.08559 124 120 111
0.712366 -2.02273 4.00783 69 70 65
0.704112 -2.07405 3.9552 76 77 72
0.73487 -1.7777 4.12583 149 142 134
0.738918 -1.78881 4.14982 149 142 134
0.739589 -1.80994 4.15207 129 125 116
0.739589 -1.80994 4.15207 129 125 116
0.729871 -1.50342 4.08933 104 94 84
0.743738 -1.7437 4.15082 134 130 121
0.740057 -1.72227 4.12597 134 135 127
0.76319 -1.79087 4.14058 123 114 105
0.747108 -1.96826 4.04509 69 55 52
0.770688 -1.77368 4.16588 141 132 123
0.758561 -1.44342 4.0855 140 141 135
0.743979 -2.07536 3.97553 69 70 65
0.782159 -1.68783 4.16414 94 96 91
0.782826 -1.85446 4.15084 99 99 91
0.783633 -1.69272 4.14193 112 113 108
0.790719 -1.74787 4.17389 95 98 91
0.790719 -1.74787 4.17389 95 98 91
0.770612 -1.96979 4.05593 100 87 81
0.781702 -1.96766 4.06265 148 141 131
0.775675 -2.04573 4.01599 70 71 66
0.776054 -2.0465 4.01716 70 71 66
0.81014 -1.96871 4.07532 125 126 118
0.832685 -1.79397 4.18335 112 112 104
0.830729 -1.51567 4.13631 108 111 104
0.833768 -1.46059 4.14224 126 125 120
0.832857 -1.53942 4.12326 113 115 110
0.837166 -1.55065 4.1223 99 101 96
0.832185 -1.9683 4.08357 103 102 97
0.855537 -1.55619 4.12606 122 123 117
0.867223 -1.97113 4.1046 108 107 102
0.916525 -1.51352 4.22868 99 98 93
0.915362 -1.5129 4.22505 99 98 93
0.920348 -1.84029 4.22909 109 111 106
0.89209 -2.02171 4.09301 93 82 76
0.927133 -1.8257 4.2423 107 106 102
0.921278 -2.04629 4.08783 48 53 49
0.954547 -1.49841 4.21184 118 117 112
0.938597 -1.96231 4.12544 108 108 100
0.939187 -2.02727 4.1245 100 100 92
0.955947 -1.98566 4.12957 108 109 104
0.99103 -1.84815 4.27527 128 129 123
1.00666 -1.72117 4.24731 106 107 101
1.01841 -1.78524 4.28148 97 98 92
1.0274 -1.77494 4.28837 114 117 108
1.01839 -1.74484 4.25474 135 135 125
1.04053 -1.71187 4.28935 102 101 97
1.01714 -1.96255 4.16414 85 85 75
1.05866 -1.62492 4.30374 105 106 100
1.05952 -1.71192 4.29489 112 113 107
1.06243 -1.72803 4.30189 105 106 100
1.05837 -1.59739 4.27608 113 114 106
1.06237 -1.65257 4.29175 123 124 118
1.07353 -1.69633 4.30265 137 138 132
1.08091 -1.80938 4.31103 100 101 95
1.09766 -1.657 4.31113 104 103 98
1.0933 -1.56284 4.28633 104 106 101
1.1051 -1.73977 4.31726 119 120 114
1.09004 -2.04975 4.1719 108 108 100
1.11341 -1.99546 4.22323 101 101 93
1.11341 -1.99546 4.22323 101 101 93
1.11992 -1.96289 4.21006 80 77 68
1.12781 -1.96818 4.22733 93 93 81
1.15493 -1.96847 4.23875 107 97 85
1.18615 -1.1872 4.31816 123 117 105
1.16671 -1.98501 4.24124 111 103 90
1.19569 -1.79895 4.33825 114 107 97
1.20711 -1.79238 4.37347 115 107 96
1.20512 -1.76965 4.3679 124 115 106
1.2119 -1.73215 4.37451 118 110 99
1.1815 -1.95762 4.26615 110 101 92
1.25569 -0.692741 4.51669 131 122 113
1.18518 -1.97348 4.25723 101 97 85
1.2266 -1.81709 4.38695 105 98 88
1.22212 -1.76989 4.3719 97 87 78
1.2639 -0.708583 4.51678 128 120 109
1.24567 -2.40204 4.43712 86 83 74
1.24898 -1.50874 4.37215 117 111 99
1.26753 -2.41038 4.43474 94 92 80
1.22094 -1.97122 4.26958 108 102 90
1.25352 -1.6438 4.37991 115 109 97
1.25579 -1.64706 4.38556 115 109 97
1.25579 -1.64706 4.38556 115 109 97
1.30014 -1.49422 4.39592 124 116 105
1.31062 0.506486 4.42651 99 99 91
1.33336 -2.40385 4.48144 78 78 68
1.33336 -2.40385 4.48144 78 78 68
1.24999 -2.08045 4.16833 104 100 88
1.33662 -1.56147 4.42009 111 104 94
1.32248 -0.668535 4.33915 100 96 87
1.35561 -1.78129 4.43575 117 113 101
1.31734 -0.721904 4.30932 85 86 81
1.28791 -2.02834 4.21269 100 98 86
1.29534 -1.97078 4.23669 111 107 96
1.35275 -1.88607 4.3907 0 0 0
1.37432 -1.17644 4.4032 0 0 0
1.41523 -2.40508 4.51311 0 0 0
1.38343 -1.59363 4.38371 0 0 0
1.37265 -1.59781 4.3386 0 0 0
1.39346 -1.11168 4.39085 0 0 0
1.4307 -2.41174 4.50727 0 0 0
1.38668 -1.67735 4.36207 0 0 0
1.39496 -0.933774 4.37718 0 0 0
1.39385 -1.56031 4.37262 0 0 0
1.45252 -2.40632 4.52978 0 0 0
1.45252 -2.40632 4.52978 0 0 0
1.41522 -0.955239 4.37163 0 0 0
1.4143 -0.728724 4.34495 0 0 0
1.42292 -0.797706 4.35749 0 0 0
1.43451 -1.54352 4.38846 0 0 0
1.39656 0.497092 4.26698 0 0 0
1.43941 -1.56054 4.39047 0 0 0
1.47519 -2.40358 4.48944 0 0 0
1.40342 0.487407 4.26916 0 0 0
1.4487 -1.54659 4.39482 0 0 0
1.43395 -0.129226 4.34752 0 0 0
1.4323 -0.227322 4.33511 0 0 0
1.44253 -0.29003 4.35404 0 0 0
1.45857 -1.51237 4.38944 0 0 0
1.4289 -1.7668 4.29632 0 0 0
1.44313 -0.0581216 4.32659 0 0 0
1.44443 0.156017 4.3153 0 0 0
1.46457 -1.52236 4.36251 0 0 0
1.44885 0.267666 4.31258 0 0 0
1.38566 -2.07867 4.1151 0 0 0
1.392 -2.06735 4.12267 0 0 0
1.45603 0.396891 4.30958 0 0 0
1.45832 0.37573 4.31246 0 0 0
1.43174 -1.96944 4.19785 0 0 0
1.47339 -1.89788 4.29602 0 0 0
1.53742 -1.45741 4.30982 0 0 0
1.48423 -1.9711 4.08953 0 0 0
1.51811 -1.91237 4.15985 0 0 0
1.54625 -1.86366 4.23184 0 0 0
1.49265 -1.98981 4.08019 0 0 0
1.54652 -1.81173 4.22955 0 0 0
1.47999 -2.04436 4.04255 0 0 0
1.54854 -1.87314 4.20136 0 0 0
1.51732 -1.96717 4.10027 0 0 0
1.5433 -1.54693 4.14959 0 0 0
1.56193 0.706455 4.15783 0 0 0
1.59588 -1.496 4.20916 0 0 0
1.64523 -1.88922 4.28439 0 0 0
1.72312 -2.3899 4.40369 0 0 0
1.59752 0.0261879 4.0226 0 0 0
1.6031 0.0733547 4.01859 0 0 0
1.61008 0.0642398 4.0153 0 0 0
1.67846 -2.03603 4.18689 0 0 0
1.6401 0.0868794 4.07249 0 0 0
1.7365 -1.84828 4.3222 0 0 0
1.61913 0.47673 3.99592 0 0 0
1.8037 -2.40045 4.43687 0 0 0
1.71559 -1.96979 4.20009 0 0 0
1.62371 0.694355 3.97454 0 0 0
1.63131 0.45954 3.99 0 0 0
1.66342 0.704584 4.02604 0 0 0
1.64377 0.516926 3.98633 0 0 0
1.84906 -2.39445 4.47706 0 0 0
1.80141 -1.84303 4.34655 0 0 0
1.76797 -1.97669 4.23696 0 0 0
1.79223 -1.97458 4.22581 0 0 0
1.72564 0.162757 4.06657 0 0 0
1.72564 0.162757 4.06657 0 0 0
1.76882 -0.0330979 4.15734 0 0 0
1.79479 -2.04429 4.1949 0 0 0
1.79479 -2.04429 4.1949 0 0 0
1.82291 -2.02451 4.23702 0 0 0
1.89188 -1.46367 4.38045 0 0 0
1.60759 -1.85388 3.71689 0 0 0
1.87622 -1.41034 4.33479 0 0 0
1.84079 -2.1096 4.23165 0 0 0
1.84222 -2.07923 4.18735 0 0 0
1.83629 0.684212 4.06488 0 0 0
1.91494 0.164959 4.22006 0 0 0
2.00696 0.154148 4.2092 0 0 0
2.34328 -0.392328 4.78197 0 0 0
2.09979 0.46176 4.21433 0 0 0
2.10222 0.675718 4.19249 0 0 0
2.44059 -0.616112 4.84302 0 0 0
2.5187 -0.590706 4.87334 0 0 0
2.51879 -1.02155 4.87913 0 0 0
2.52201 -0.151385 4.86889 0 0 0
2.52201 -0.151385 4.86889 0 0 0
2.5298 -0.451174 4.87351 0 0 0
2.5298 -0.451174 4.87351 0 0 0
2.5586 -0.91915 4.91813 0 0 0
2.53045 -0.905865 4.87091 0 0 0
2.56267 -0.807135 4.88424 0 0 0
2.53245 -0.761878 4.82685 0 0 0
2.56757 -0.416076 4.88033 0 0 0
2.55641 -0.495202 4.86296 0 0 0
2.55402 -0.319914 4.84383 0 0 0
2.56506 -0.446241 4.86152 0 0 0
2.58565 -0.540128 4.85974 0 0 0
2.59254 -0.657964 4.86626 0 0 0
2.58555 -0.501624 4.84495 0 0 0
2.5959 -0.558997 4.82332 0 0 0
2.59633 -0.66281 4.82227 0 0 0
2.60346 -0.506081 4.80846 0 0 0
2.61095 -0.446559 4.82246 0 0 0
2.68096 -0.933776 4.94045 0 0 0
2.63525 0.139122 4.85225 0 0 0
2.63177 -0.409762 4.84532 0 0 0
2.61226 0.354787 4.80984 0 0 0
2.62735 -0.636043 4.83569 0 0 0
2.6534 -0.479491 4.87642 0 0 0
2.62074 -0.289518 4.81622 0 0 0
2.61623 0.38151 4.80452 0 0 0
2.64589 0.347132 4.85 0 0 0
2.63139 -0.107909 4.8215 0 0 0
2.63173 -0.511834 4.82156 0 0 0
2.62311 -0.0486735 4.80444 0 0 0
2.63606 -0.176335 4.82356 0 0 0
2.62722 -0.0228246 4.80063 0 0 0
2.64644 -0.434113 4.83454 0 0 0
2.63319 0.246285 4.80908 0 0 0
2.643 -0.190852 4.8244 0 0 0
2.67306 -0.406982 4.85888 0 0 0
2.6631 -0.498753 4.84014 0 0 0
2.6631 -0.498753 4.84014 0 0 0
2.67575 -0.676882 4.85626 0 0 0
2.66538 -0.669962 4.84371 0 0 0
2.60809 0.664044 4.72414 0 0 0
2.66057 -0.48206 4.8169 0 0 0
2.66057 -0.48206 4.8169 0 0 0
2.6659 0.344562 4.81665 0 0 0
2.67515 -0.613342 4.83127 0 0 0
2.68291 -0.616774 4.84656 0 0 0
2.684 -0.406232 4.84566 0 0 0
2.66232 0.311463 4.79372 0 0 0
2.64001 0.387067 4.75266 0 0 0
2.63217 0.400413 4.73025 0 0 0
2.63852 0.433205 4.74123 0 0 0
2.513 0.400063 4.50551 0 0 0
2.62774 0.419686 4.71031 0 0 0
2.66509 0.2816 4.77805 0 0 0
2.71074 -0.176899 4.85797 0 0 0
2.708 -0.406294 4.85535 0 0 0
2.63716 0.657536 4.70767 0 0 0
2.73344 -0.406368 4.86355 0 0 0
2.63175 0.621421 4.67699 0 0 0
2.66592 0.373637 4.73284 0 0 0
2.80501 -0.825937 4.98017 0 0 0
2.64281 0.640634 4.66775 0 0 0
2.76581 -0.468937 4.86871 0 0 0
2.77536 -0.700471 4.87961 0 0 0
2.80904 0.0765738 4.90784 0 0 0
2.79502 -0.476776 4.87636 0 0 0
2.79454 0.245147 4.86588 0 0 0
2.81844 -0.67458 4.89877 0 0 0
2.8618 -0.766271 4.96475 0 0 0
2.83141 -0.163054 4.889 0 0 0
2.87418 -0.710979 4.94444 0 0 0
2.87031 -0.0230082 4.92327 0 0 0
2.84436 0.0181195 4.88325 0 0 0
2.85107 0.242669 4.88491 0 0 0
2.85387 0.155417 4.87283 0 0 0
2.89256 0.652131 4.79652 0 0 0
2.9816 0.43646 4.85288 0 0 0
3.43844 0.400631 5.33838 0 0 0
3.45429 0.401746 5.33031 0 0 0
3.4598 0.648065 5.29522 0 0 0
4.58307 -3.72908 7.01354 0 0 0
3.45519 0.599449 5.2857 0 0 0
3.45519 0.599449 5.2857 0 0 0
4.62459 -3.65102 7.03402 0 0 0
4.63901 -3.71729 7.04487 0 0 0
4.62434 -3.716 7.00088 0 0 0
4.7091 -3.29427 7.05697 0 0 0
4.66365 -3.71142 6.97786 0 0 0
4.62261 -3.73638 6.86928 0 0 0
4.62261 -3.73638 6.86928 0 0 0
4.75543 -3.68522 7.0344 0 0 0
4.71326 -3.11614 6.82057 0 0 0
4.71326 -3.11614 6.82057 0 0 0
4.73992 -2.8928 6.80167 0 0 0
4.73351 -2.70808 6.78645 0 0 0
4.74185 -3.1251 6.78949 0 0 0
4.74219 -2.80717 6.77079 0 0 0
4.74219 -2.80717 6.77079 0 0 0
4.83045 -2.97217 6.85288 0 0 0
4.81208 -3.05294 6.77506 0 0 0
4.15937 0.425422 5.79345 0 0 0
4.85048 -2.22871 6.72516 0 0 0
4.84977 -2.2247 6.70588 0 0 0
-1.35488 0.782859 2.80567 100 93 83
-1.34944 0.768553 2.90264 188 179 172
-1.3568 -0.628365 3.02482 220 226 238
-1.34873 -0.430277 3.02558 88 86 74
-1.2554 0.606058 2.85212 130 130 128
-1.2554 0.606058 2.85212 130 130 128
-1.33463 -0.364892 3.04064 108 112 115
-1.25129 0.53619 2.87651 200 195 192
-1.23879 0.793038 2.84945 118 119 113
-1.23603 0.784154 2.84897 110 111 105
-1.24341 0.538966 2.88112 205 204 199
-1.29595 -0.169697 3.02854 125 122 115
-1.29492 -0.708151 3.03085 220 226 238
-1.28919 -0.648257 3.02453 222 226 238
-1.2906 -0.162672 3.02996 122 122 112
-1.2775 0.0498735 3.01375 212 212 210
-1.25548 0.369873 2.98098 245 246 241
-1.26003 -0.454467 3.02682 118 120 119
-1.24619 0.266129 2.99629 220 216 213
-1.26075 -0.325563 3.03744 87 87 85
-1.2372 0.273712 2.99847 216 213 208
-1.2372 0.273712 2.99847 216 213 208
-1.27656 -0.362394 3.1201 24 24 22
-1.22452 0.219708 3.00911 225 216 211
-1.30506 -0.383433 3.25117 30 32 29
-1.22549 -0.176503 3.05512 157 152 148
-1.22184 -0.523085 3.04762 112 112 112
-1.21546 -0.414856 3.03268 44 45 39
-1.21145 -0.246225 3.06228 120 124 127
-1.20107 -0.645996 3.05049 218 224 236
-1.13159 0.787663 2.88461 145 143 146
-1.19541 -0.453167 3.05414 122 126 127
-1.24444 -0.861535 3.18065 215 221 233
-1.1926 -0.245486 3.06866 127 133 133
-1.17946 -0.286982 3.07754 12 17 11
-1.10891 0.568399 2.9033 213 214 209
-1.17486 -0.247327 3.07635 131 133 132
-1.16551 -0.335445 3.07292 25 27 24
-1.13943 0.470714 3.0069 108 105 96
-1.09642 0.555063 2.9303 128 119 112
-1.15671 -0.266263 3.14205 130 131 135
-1.13633 -0.385559 3.08987 44 46 45
-1.11476 -0.080341 3.07422 33 34 29
-1.06586 0.555867 2.93991 15 18 11
-1.11936 -0.216222 3.09908 178 173 170
-1.12037 -0.00969431 3.10386 176 176 176
-1.10226 -0.00861876 3.06767 157 159 158
-1.07659 0.467632 3.03535 160 162 161
-1.08658 0.07646 3.06731 210 209 205
-1.03708 0.620832 2.9294 221 221 219
-1.10896 0.604805 3.13984 215 214 209
-1.09547 -0.151745 3.13626 223 224 219
-1.05195 0.481426 3.02955 221 221 219
-1.00329 -0.579228 3.25719 214 213 208
-0.995122 -0.581328 3.33408 206 207 202
-0.973069 -0.608059 3.26245 207 208 203
-1.02547 -0.263149 3.45963 205 204 199
-0.90451 -0.578793 3.28967 142 146 147
-0.886882 -0.614423 3.28718 202 198 189
-0.887651 -0.577183 3.30183 197 190 180
-0.881309 -0.62504 3.3436 201 201 193
-0.851078 -0.614457 3.29697 119 119 111
-0.827472 -0.568252 3.31933 155 157 156
-0.810154 -0.637865 3.29338 118 112 100
-0.768402 -0.591032 3.42849 212 211 207
-0.716098 -0.636844 3.32755 210 207 200
-0.70679 -0.569513 3.36426 210 207 200
-0.708348 -0.620294 3.41419 209 209 199
-0.696751 -0.610956 3.3586 207 204 197
-0.580454 -0.206525 3.39124 207 204 197
-0.572387 -0.200486 3.39375 194 194 194
-0.563658 -0.161053 3.37573 200 200 198
-0.564103 -0.564353 3.42534 218 218 216
-0.636437 -0.259288 3.95061 152 151 149
-0.547706 -0.223044 3.4007 178 178 178
-0.534865 -0.140469 3.39702 178 178 178
-0.525679 -0.398507 3.43277 226 226 224
-0.538787 -0.473751 3.66689 27 29 24
-0.501465 -0.805789 3.45817 40 42 37
-0.490443 -0.637327 3.41424 210 209 205
-0.569063 -0.295223 3.98105 211 210 206
-0.491125 -0.746178 3.44653 147 147 147
-0.482708 -0.637877 3.41785 213 212 208
-0.475999 -0.653318 3.4189 213 209 206
-0.40075 -0.635611 3.41598 208 207 203
0.0784404 -1.86406 3.54754 212 211 207
0.160493 -1.86077 3.81722 30 23 15
0.234737 -1.81772 3.91898 27 27 19
0.235989 -1.80662 3.89386 26 25 21
0.240254 -1.63616 3.90099 26 25 21
0.233966 -1.91604 3.79156 63 62 57
0.243278 -1.82138 3.91904 231 223 220
0.24411 -1.95986 3.73086 20 24 23
0.266172 -1.75738 3.93686 35 31 30
0.265728 -1.72962 3.92498 145 140 134
0.266457 -1.77657 3.92543 66 58 55
0.284305 -1.79069 3.94066 87 82 78
0.273088 -1.98425 3.74241 56 59 52
0.273088 -1.98425 3.74241 109 115 115
0.288624 -1.67837 3.93091 109 115 115
0.320736 -1.70884 3.95226 81 78 71
0.354089 -1.79636 3.97571 56 63 56
0.34628 -1.96342 3.8525 27 29 26
0.361733 -1.67287 3.96301 90 91 83
0.362312 -1.7151 3.96884 68 68 58
0.377565 -1.77105 3.97847 74 74 64
0.383393 -1.7903 3.95731 87 82 76
0.372411 -1.96882 3.85876 87 84 77
0.38723 -1.67966 3.97992 93 90 83
0.399851 -1.76477 3.99213 62 65 58
0.331013 -1.34997 3.30206 56 56 54
0.41551 -1.68413 3.99119 68 69 63
0.416671 -1.72213 3.99621 58 51 45
0.420593 -1.80465 4.00591 73 70 65
0.426458 -1.7307 3.97687 72 68 57
0.439429 -1.68314 4.00273 73 72 68
0.439847 -1.70388 4.00532 71 72 66
0.43353 -1.35619 3.94192 70 73 64
0.444709 -1.78487 4.0156 203 202 197
0.443481 -1.99985 3.89678 64 65 57
0.457934 -1.76925 4.01708 99 97 85
0.510703 -1.99011 3.9286 91 86 80
0.510703 -1.99011 3.9286 120 113 103
0.517635 -2.00627 3.93165 120 113 103
0.524556 -2.04255 3.89417 122 115 107
0.537581 -1.96432 3.9443 118 111 101
0.579104 -1.80852 4.07925 120 111 102
0.569662 -1.96297 3.94996 19 19 11
0.595515 -1.96256 3.96423 120 116 107
0.619536 -1.51595 4.10766 114 110 99
0.606935 -2.02376 3.96381 169 162 152
0.52198 -1.2272 3.28432 115 111 102
0.653144 -1.97679 3.9936 165 158 148
0.665087 -1.96641 4.00639 103 98 94
0.690883 -1.71616 4.12624 81 82 76
0.688839 -1.44086 4.09861 160 153 143
0.688839 -1.44086 4.09861 145 137 126
0.697748 -1.72186 4.12664 145 137 126
0.718263 -1.67955 4.13216 159 150 141
0.706827 -1.54783 4.0569 154 149 143
0.727222 -1.75279 4.14332 146 141 135
0.727222 -1.75279 4.14332 148 148 140
0.728222 -1.49528 4.06429 148 148 140
0.744639 -1.9628 4.03208 104 94 84
0.748523 -2.0478 4.00868 47 39 36
0.748523 -2.0478 4.00868 75 77 72
0.771893 -1.40095 4.1169 75 77 72
0.782793 -1.76475 4.1414 140 143 136
0.785053 -1.77721 4.16896 126 122 113
0.776151 -1.45067 4.11351 126 122 113
0.786249 -1.74153 4.14199 114 115 107
0.775602 -1.97507 4.05185 103 104 98
0.795218 -1.62811 4.14404 28 30 25
0.806184 -1.71786 4.17763 114 115 109
0.806184 -1.71786 4.17763 119 116 109
0.820878 -1.41996 4.14274 119 116 109
0.820878 -1.41996 4.14274 122 121 116
0.806798 -2.04328 4.02633 122 121 116
0.806798 -2.04328 4.02633 64 65 60
0.829826 -1.96275 4.07159 64 65 60
0.83285 -2.04482 4.04243 120 119 114
0.83285 -2.04482 4.04243 58 60 57
0.867744 -1.99288 4.10359 58 60 57
0.867744 -1.99288 4.10359 148 149 141
0.903473 -1.82184 4.22736 148 149 141
0.903473 -1.82184 4.22736 107 108 102
0.90193 -1.75612 4.2106 107 108 102
0.911479 -1.96911 4.12132 113 115 110
0.914184 -1.98795 4.1153 102 103 95
0.956644 -1.49666 4.20796 87 88 80
0.959141 -1.9625 4.13018 118 117 112
0.964667 -2.04176 4.10049 96 97 91
1.02025 -1.66238 4.27368 45 49 48
1.03707 -1.74369 4.25675 102 103 97
1.04146 -1.75811 4.28857 124 121 112
1.04363 -1.80001 4.291 124 121 112
1.04952 -1.80087 4.29713 113 114 108
1.0765 -1.68111 4.29723 121 122 116
1.08184 -1.81799 4.30981 110 107 100
1.0831 -1.70058 4.30494 105 108 101
1.08411 -1.67488 4.30465 113 115 110
1.0865 -1.75906 4.28216 132 129 122
1.18401 -1.45456 4.37473 129 130 124
1.19087 -1.76173 4.3583 115 105 95
1.22528 0.0333538 4.48451 119 109 99
1.19416 -1.38834 4.33335 133 109 85
1.20066 -1.74554 4.35626 128 122 110
1.20935 -1.75226 4.36612 118 109 100
1.19314 -1.23695 4.28842 119 111 100
1.21091 -1.68652 4.36176 128 122 110
1.21091 -1.68652 4.36176 107 100 90
1.24293 -1.48483 4.37314 107 100 90
1.32164 -0.753297 4.31317 108 99 90
1.35276 -0.756834 4.3448 101 94 86
1.3796 -1.12954 4.40793 0 0 0
1.33509 -2.06752 4.18804 0 0 0
1.43697 -0.634954 4.39933 0 0 0
1.43544 -1.54561 4.39464 0 0 0
1.44154 -0.459465 4.381 0 0 0
1.56809 -1.8621 4.23867 0 0 0
1.57019 -1.83737 4.23642 0 0 0
1.59714 -1.811 4.25072 0 0 0
1.59872 -1.84541 4.25248 0 0 0
1.70883 -1.47498 4.31399 0 0 0
1.70551 -2.06159 4.18053 0 0 0
1.69902 -2.04963 4.15835 0 0 0
1.71591 -2.02707 4.18846 0 0 0
1.83351 -1.96243 4.39038 0 0 0
1.81526 -1.83785 4.34406 0 0 0
1.75065 -2.04604 4.17661 0 0 0
1.75065 -2.04604 4.17661 0 0 0
1.8719 -1.81371 4.36273 0 0 0
1.84294 -1.97803 4.27781 0 0 0
1.83179 -1.97395 4.24508 0 0 0
1.9018 -1.83369 4.37806 0 0 0
1.88738 -1.97609 4.29622 0 0 0
1.99236 -0.618874 4.3989 0 0 0
2.17637 -0.629829 4.716 0 0 0
2.17734 -0.644392 4.70537 0 0 0
2.19885 -0.337212 4.71359 0 0 0
2.29468 -0.65692 4.89813 0 0 0
2.34133 -0.346851 4.9187 0 0 0
2.25155 -0.718026 4.71742 0 0 0
2.33018 -0.657032 4.77654 0 0 0
2.418 -0.281666 4.93457 0 0 0
2.34059 -0.672705 4.76137 0 0 0
2.43486 -0.238837 4.93977 0 0 0
2.37297 -0.636058 4.79542 0 0 0
2.37434 -0.381854 4.7783 0 0 0
2.45725 -0.135275 4.93783 0 0 0
2.47102 0.0183176 4.92256 0 0 0
2.48304 0.345524 4.90742 0 0 0
2.45261 -0.632381 4.8287 0 0 0
2.45386 -0.645177 4.82757 0 0 0
2.25271 -0.49525 4.39012 0 0 0
2.47239 -0.54194 4.81105 0 0 0
2.25069 -0.664412 4.36566 0 0 0
2.481 -0.730326 4.81246 0 0 0
2.50487 -0.921469 4.85205 0 0 0
2.49541 -0.659601 4.82781 0 0 0
2.50725 -0.589467 4.83869 0 0 0
2.49605 -0.351922 4.80582 0 0 0
2.51133 -0.480243 4.83121 0 0 0
2.52136 0.161104 4.78924 0 0 0
2.54786 -0.288483 4.83594 0 0 0
2.51674 0.45579 4.75155 0 0 0
2.5604 -0.0110466 4.81769 0 0 0
2.57582 -0.289553 4.84634 0 0 0
2.58639 -0.345171 4.84652 0 0 0
2.59799 -0.324431 4.85237 0 0 0
2.5976 -0.19052 4.83867 0 0 0
2.59036 -0.610057 4.81646 0 0 0
2.58434 0.350824 4.79957 0 0 0
2.58202 0.417788 4.78991 0 0 0
2.57312 -0.720733 4.77336 0 0 0
2.59602 0.38351 4.80172 0 0 0
2.61102 -0.601018 4.82335 0 0 0
2.61117 -0.611631 4.82349 0 0 0
2.60224 0.394256 4.79939 0 0 0
2.60762 -0.353516 4.80654 0 0 0
2.64054 -0.917276 4.86603 0 0 0
2.61084 -0.699864 4.80897 0 0 0
2.61447 -0.49221 4.8124 0 0 0
2.62954 -0.663301 4.84415 0 0 0
2.61399 -0.18894 4.80584 0 0 0
2.61941 0.357399 4.80265 0 0 0
2.62581 0.162681 4.81113 0 0 0
2.63059 -0.538297 4.8195 0 0 0
2.63766 -0.464178 4.83178 0 0 0
2.6204 -0.0782498 4.79954 0 0 0
2.63657 -0.501567 4.81271 0 0 0
2.63329 0.319785 4.79768 0 0 0
2.64643 -0.0574398 4.80273 0 0 0
2.66511 -0.179351 4.82183 0 0 0
2.67294 -0.337201 4.82814 0 0 0
2.63889 0.362752 4.76243 0 0 0
2.66589 -0.534606 4.81107 0 0 0
2.66768 0.0523666 4.80471 0 0 0
2.69459 -0.548903 4.82474 0 0 0
2.69687 -0.586145 4.82376 0 0 0
2.69687 -0.586145 4.82376 0 0 0
2.68515 0.335873 4.79313 0 0 0
2.70727 -0.535004 4.82968 0 0 0
2.69218 -0.0191182 4.80215 0 0 0
2.71759 -0.587123 4.83382 0 0 0
2.63505 0.53179 4.68518 0 0 0
2.63949 0.624696 4.67697 0 0 0
2.78577 -0.852566 4.91786 0 0 0
2.77762 -0.80606 4.89911 0 0 0
2.75985 -0.340323 4.85289 0 0 0
2.779 -0.429486 4.89011 0 0 0
2.75754 -0.115981 4.84158 0 0 0
2.79294 -0.66036 4.87633 0 0 0
2.80853 -0.360727 4.88953 0 0 0
2.81491 -0.288179 4.89069 0 0 0
2.7257 0.430775 4.73095 0 0 0
2.7257 0.430775 4.73095 0 0 0
2.62947 -0.319906 4.55954 0 0 0
2.83462 -0.350669 4.92234 0 0 0
2.82029 -0.68572 4.88293 0 0 0
2.84225 -0.507695 4.9204 0 0 0
2.8294 -0.133903 4.88643 0 0 0
2.82641 -0.187595 4.8783 0 0 0
2.83426 -0.714359 4.86642 0 0 0
2.83426 -0.714359 4.86642 0 0 0
2.83732 0.167812 4.86967 0 0 0
2.8382 0.0168313 4.86791 0 0 0
2.86678 0.0591122 4.85191 0 0 0
2.8199 0.426292 4.76964 0 0 0
2.92985 0.47488 4.79275 0 0 0
-1.30731 0.745887 2.81694 0 0 0
-1.30533 0.562115 2.85144 128 128 126
-1.26035 0.616491 2.84701 42 37 34
-1.25122 0.739402 2.84295 215 214 209
-1.26463 0.0501028 2.99637 151 151 151
-1.25088 -0.597144 2.77074 200 199 195
-1.27292 -0.641755 3.0021 213 220 228
-1.23367 -0.352025 3.02742 220 227 235
-1.22838 -0.535561 3.03182 179 180 175
-1.04236 0.570122 2.9426 220 227 235
-1.06126 -0.655025 3.09026 45 47 42
-0.96663 -0.567519 3.25226 217 214 209
-0.954449 -0.244554 3.22972 205 201 192
-0.827581 -0.599744 3.21999 21 23 18
-0.799355 -0.637129 3.28923 212 209 200
-0.748393 -0.576759 3.34318 145 135 126
-0.536241 -0.417764 3.42163 217 214 207
-0.506083 -0.441584 3.43566 209 206 199
-0.1873 0.356076 3.10384 210 209 204
-0.17709 0.0555388 3.12948 10 15 9
-0.159086 0.72251 3.07728 164 164 156
-0.142998 0.129519 3.13854 10 12 9
-0.0281642 -1.97271 3.378 189 186 179
0.176028 0.457832 3.27951 71 54 46
0.364814 -1.80456 3.95184 30 31 26
0.401901 -1.63727 4.00281 113 106 96
0.207193 -2.03156 3.48816 23 24 19
0.200125 -2.02642 3.40744 109 105 94
0.382681 -2.04227 3.82867 112 108 96
0.574483 -1.99165 3.96078 72 62 53
0.393491 -1.2847 3.40715 81 80 75
0.651502 -1.53288 4.10071 148 142 128
0.696577 -1.48448 4.09167 169 163 149
1.32713 -1.96928 4.24891 138 134 125
1.30298 -2.04829 4.20475 105 101 90
1.51763 -1.91545 4.15682 113 109 100
2.48492 -0.730925 4.82633 110 106 94
2.60947 -0.0100372 4.86003 0 0 0
2.66031 -0.708034 4.84333 0 0 0
28.3282 13.1844 -77.6534 0 0 0
-1.03901 0.316502 3.35214 69 66 61
-4.51021 -2.77806 16.8653 26 27 21
-2.67119 -3.13112 16.6815 67 68 62
-0.152439 0.12905 3.23554 67 68 62
-0.135277 0.130052 3.24343 21 23 18
-0.0984376 0.129039 3.26071 153 153 153
-0.0338984 0.223016 3.29077 96 101 104
-0.0338984 0.223016 3.29077 220 221 216
-0.00600757 0.163088 3.30214 207 207 199
0.0431752 0.222733 3.3277 210 209 204
0.0747159 0.116032 3.34342 227 227 225
0.13114 0.210368 3.36821 226 227 222
0.306231 -1.50365 3.34471 227 228 223
0.370918 -1.77641 3.95668 220 221 216
0.374743 -1.7398 3.95477 220 221 216
0.404745 -1.98637 3.86959 233 232 227
0.401946 -1.69498 3.37327 152 149 144
0.422117 -1.78199 3.38127 162 163 157
0.553691 -2.01491 3.94109 161 162 154
0.578863 -1.80965 4.05194 61 61 53
0.637864 -1.98628 3.97951 63 64 56
0.664343 -2.02175 3.98318 101 101 91
0.686364 -1.98584 4.00195 102 93 84
0.621808 -1.68439 3.45264 107 103 94
0.919323 -1.80838 4.20816 106 101 95
0.919485 -2.04203 4.08008 122 118 107
0.915473 -1.6876 3.59429 18 19 13
1.1341 -1.85394 4.30293 113 109 98
1.00478 -1.43587 3.62693 86 85 80
1.89943 0.0562897 4.22152 82 81 77
2.30802 -0.659663 4.92669 44 46 43
2.21983 -0.595649 4.35833 107 106 102
2.62695 -0.9123 4.89182 48 53 49
-2.87984 1.78572 19.0529 91 91 83
-2.32983 -1.86172 18.3127 102 95 85
-1.14751 -0.353094 3.16443 118 110 99
-1.82169 -2.6593 17.3478 0 0 0
-0.161193 -1.56387 10.0036 0 0 0
0.464745 -1.96394 3.90442 0 0 0
0.279252 -1.79944 3.37255 0 0 0
0.550688 -1.96343 3.89262 137 130 120
0.605453 -2.02277 3.95845 209 206 199
-1.33834 -0.419394 3.01371 208 205 196
-1.33415 -0.59972 3.01623 217 214 207
-1.13027 -0.580751 3.1307 219 216 209
-0.897508 -0.573461 3.3037 118 111 101
-0.88327 -0.578013 3.3115 116 109 99
-2.33583 -4.82415 8.46203 81 80 75
-2.16408 -3.38681 8.89076 77 76 71
-2.16408 -3.38681 8.89076 72 67 61
-1.9688 -3.63753 8.83925 73 71 59
-0.133914 -1.85967 3.45961 214 216 215
-1.71625 -3.86204 8.80346 218 217 215
-0.0567844 -1.85851 3.49074 184 182 183
-1.42951 0.054289 9.45035 186 184 185
0.109486 -1.68669 3.52602 40 40 38
-1.3629 -0.024395 9.57505 38 35 30
0.143524 -2.01973 3.47898 214 210 207
0.40865 -1.66965 3.71542 214 210 207
0.369855 -1.77281 3.94682 214 215 209
0.448736 -2.04496 3.85998 17 23 11
0.440549 -1.73219 3.97614 83 83 75
0.48527 -2.04477 3.87614 38 34 23
0.493914 -1.62655 4.00635 45 43 31
0.555392 -1.96366 3.94113 71 71 63
0.556177 -2.00241 3.94031 99 104 100
0.588355 -1.73498 4.04143 46 42 31
0.588355 -1.73498 4.04143 87 80 72
0.660897 -2.04288 3.95544 87 80 72
0.660897 -2.04288 3.95544 17 19 16
0.701869 -1.62129 4.10326 66 69 60
0.727804 -1.96183 4.02124 86 92 82
0.771278 -1.43559 4.08301 205 206 200
0.769111 -1.65726 4.12205 72 73 65
0.776121 -2.04374 4.0107 64 59 55
0.835404 -2.34785 4.19376 115 102 94
0.862368 -2.0434 4.05197 115 102 94
0.862368 -2.0434 4.05197 25 28 21
0.855422 -2.35859 4.19538 25 28 21
0.866751 -1.95923 4.08607 211 210 206
0.882231 -2.34787 4.21494 162 158 146
0.897057 -1.9591 4.1011 21 22 17
0.93604 -1.6369 3.76165 188 182 170
0.922652 -1.95961 4.11269 136 132 123
0.952276 -2.33039 4.25085 79 80 75
0.958827 -1.98237 4.12557 114 111 104
0.975735 -2.32533 4.26094 114 111 104
1.00091 -2.35729 4.25997 79 80 75
1.00827 -1.7387 4.23612 125 126 120
1.00869 -1.96035 4.15127 85 74 70
1.04021 -1.68812 4.24647 111 112 106
1.03613 -2.36051 4.27753 142 142 132
1.0433 -1.75127 4.2517 108 109 103
1.06889 -1.95898 4.17894 122 123 117
1.20747 -1.70711 4.32487 116 117 111
1.51582 -2.07185 4.09793 98 99 93
1.68378 -2.35271 4.3787 88 90 79
1.68831 -2.37047 4.37724 135 130 124
1.68831 -2.37047 4.37724 110 111 105
1.67303 -1.99351 4.19586 115 103 91
1.70213 -2.35172 4.38759 99 99 91
1.76083 -2.36462 4.40908 141 142 136
1.74768 -2.00775 4.23321 125 121 110
1.78441 -2.36987 4.41807 132 124 113
1.79085 -2.00518 4.25038 0 0 0
1.83492 -1.87124 4.36493 0 0 0
1.86073 -2.00417 4.28506 0 0 0
1.86911 -2.0621 4.26295 0 0 0
1.86911 -2.0621 4.26295 0 0 0
1.90389 -2.06126 4.27885 0 0 0
2.12513 -0.6494 4.67332 0 0 0
2.16721 -0.636553 4.69969 0 0 0
2.16721 -0.636553 4.69969 0 0 0
2.18085 -0.694474 4.67994 0 0 0
2.29234 -0.702633 4.72494 0 0 0
2.45888 -0.659876 4.82882 0 0 0
2.52161 -0.589241 4.85504 0 0 0
2.70367 -0.583207 4.86076 0 0 0
2.76264 -0.438257 4.89186 0 0 0
2.77717 -0.454929 4.89597 0 0 0
