ply
format ascii 1.0 
element vertex 1350
property float32 x 
property float32 y 
property float32 z
property uchar red  
property uchar green
property uchar blue
element face 0
property list uchar int vertex_indices
end_header
2.49312 -2.68661 4.44446 93 82 76
2.47237 -2.03181 4.39344 107 106 102
2.51458 -2.71051 4.39356 48 53 49
2.33866 -1.22008 4.09945 118 117 112
2.54259 -2.48574 4.42161 108 108 100
2.72316 -2.79127 4.69436 100 100 92
2.57299 -2.55083 4.43505 108 109 104
2.57837 -2.07435 4.44043 128 129 123
2.53335 -1.7409 4.2984 106 107 101
2.56909 -1.88844 4.3611 97 98 92
2.60812 -1.87537 4.40473 114 117 108
2.56879 -1.788 4.31366 135 135 125
2.543 -1.67866 4.26888 102 101 97
2.65751 -2.45042 4.43574 85 85 75
2.53782 -1.45652 4.22234 105 106 100
2.5741 -1.6782 4.28002 112 113 107
2.59636 -1.72142 4.31416 105 106 100
2.46758 -1.3772 4.09523 113 114 106
2.55707 -1.53228 4.23884 123 124 118
2.58591 -1.63367 4.27173 137 138 132
2.6999 -1.95313 4.44739 100 101 95
2.5943 -1.52653 4.23591 104 103 98
2.51993 -1.29669 4.10592 104 106 101
2.67746 -1.75142 4.35794 119 120 114
2.83878 -2.71942 4.56076 108 108 100
2.82585 -2.51594 4.52471 101 101 93
2.82585 -2.51594 4.52471 101 101 93
2.8057 -2.41577 4.45655 80 77 68
2.84057 -2.44238 4.5124 93 93 81
2.89004 -2.44206 4.53373 107 97 85
2.38839 -0.433394 3.72541 123 117 105
2.95823 -2.51131 4.60964 111 103 90
2.8392 -1.8825 4.40723 114 107 97
2.94717 -1.90955 4.58397 115 107 96
2.88526 -1.82748 4.49256 124 115 106
2.89719 -1.7343 4.4961 118 110 99
2.8973 -2.34928 4.49215 110 101 92
2.28617 0.539527 3.54091 131 122 113
2.98397 -2.46978 4.61704 101 97 85
3.00938 -1.98015 4.64474 105 98 88
2.91273 -1.82725 4.49975 97 87 78
2.3079 0.514817 3.5602 128 120 109
3.86587 -4.22253 5.95176 86 83 74
2.71708 -1.13061 4.14291 117 111 99
3.91619 -4.25904 5.96395 94 92 80
3.01893 -2.4501 4.59986 108 102 90
2.84544 -1.4746 4.33361 115 109 97
2.88553 -1.49359 4.38958 115 109 97
2.88553 -1.49359 4.38958 115 109 97
2.78957 -1.08844 4.16391 124 116 105
1.76513 1.96823 2.63135 99 99 91
4.09005 -4.2446 6.07769 78 78 68
4.09005 -4.2446 6.07769 78 78 68
3.09965 -2.80745 4.58306 104 100 88
2.91568 -1.24999 4.29269 111 104 94
2.23904 0.500193 3.27792 100 96 87
3.20585 -1.86483 4.68512 117 113 101
2.24645 0.403616 3.28253 85 86 81
3.09058 -2.61059 4.52066 100 98 86
3.09907 -2.44852 4.53114 111 107 96
3.27035 -2.18642 4.75517 0 0 0
2.65886 -0.37954 3.83497 0 0 0
4.28848 -4.25826 6.16717 0 0 0
2.97884 -1.34044 4.26992 0 0 0
2.92995 -1.36019 4.19304 0 0 0
2.62793 -0.25382 3.75054 0 0 0
4.32577 -4.29097 6.17279 0 0 0
3.0415 -1.56521 4.33928 0 0 0
2.47689 0.0741246 3.52859 0 0 0
2.95176 -1.25686 4.20419 0 0 0
4.38276 -4.26738 6.21458 0 0 0
4.38276 -4.26738 6.21458 0 0 0
2.51004 0.0337659 3.5403 0 0 0
2.37306 0.408721 3.33276 0 0 0
2.43108 0.30149 3.40725 0 0 0
3.00381 -1.21071 4.21034 0 0 0
1.7791 1.87755 2.49018 0 0 0
3.02717 -1.2529 4.23499 0 0 0
4.35191 -4.22458 6.07518 0 0 0
1.78898 1.86977 2.49696 0 0 0
3.0306 -1.21675 4.22505 0 0 0
2.08782 1.2475 2.90764 0 0 0
2.12546 1.11976 2.95673 0 0 0
2.17413 1.04805 3.01908 0 0 0
3.02956 -1.13501 4.19894 0 0 0
3.12911 -1.82206 4.33669 0 0 0
2.05422 1.32193 2.84041 0 0 0
1.96287 1.55848 2.70792 0 0 0
3.02028 -1.16369 4.15862 0 0 0
1.92178 1.67446 2.64502 0 0 0
3.24177 -2.79239 4.45596 0 0 0
3.24252 -2.74155 4.44754 0 0 0
1.87863 1.80272 2.5763 0 0 0
1.88982 1.78376 2.59007 0 0 0
3.27108 -2.43066 4.4576 0 0 0
3.34677 -2.20564 4.54491 0 0 0
3.01526 -1.01725 3.99005 0 0 0
3.24844 -2.44305 4.25096 0 0 0
3.29086 -2.24531 4.28968 0 0 0
3.35199 -2.10055 4.36583 0 0 0
3.27269 -2.50106 4.2604 0 0 0
3.29325 -1.94801 4.28735 0 0 0
3.25112 -2.67011 4.23513 0 0 0
3.33569 -2.13881 4.32097 0 0 0
3.28921 -2.40962 4.24789 0 0 0
2.96607 -1.26043 3.81768 0 0 0
1.80388 2.0153 2.30667 0 0 0
3.03414 -1.12556 3.85548 0 0 0
3.57204 -2.17102 4.50034 0 0 0
4.60567 -4.06388 5.72937 0 0 0
2.02886 1.28059 2.49802 0 0 0
2.01312 1.33124 2.47109 0 0 0
2.02134 1.31973 2.47243 0 0 0
3.66734 -2.69556 4.50609 0 0 0
2.04801 1.36341 2.49953 0 0 0
3.69421 -2.04328 4.51328 0 0 0
1.87037 1.73288 2.27151 0 0 0
4.82306 -4.12359 5.84512 0 0 0
3.70743 -2.44623 4.4781 0 0 0
1.79513 1.92034 2.16798 0 0 0
1.88413 1.71422 2.27409 0 0 0
1.83272 1.94755 2.1976 0 0 0
1.87272 1.76624 2.24712 0 0 0
4.957 -4.11151 5.9425 0 0 0
3.80712 -2.02432 4.55275 0 0 0
3.71454 -2.5222 4.46661 0 0 0
3.82714 -2.42933 4.50371 0 0 0
1.90285 1.34399 2.26631 0 0 0
1.90285 1.34399 2.26631 0 0 0
2.26311 1.27557 2.65721 0 0 0
3.80151 -2.66443 4.45565 0 0 0
3.6992 -2.55203 4.32889 0 0 0
3.94909 -2.5894 4.60108 0 0 0
3.53195 -1.00538 4.10405 0 0 0
2.31414 -1.64923 2.68651 0 0 0
3.41714 -0.892441 3.96453 0 0 0
4.07932 -2.87054 4.71656 0 0 0
3.99248 -2.7645 4.57923 0 0 0
1.99467 1.95698 2.24538 0 0 0
2.4882 1.62922 2.79277 0 0 0
2.41128 1.51259 2.61145 0 0 0
3.39522 1.12849 3.6056 0 0 0
2.35307 1.82923 2.4684 0 0 0
2.25573 2.0151 2.35542 0 0 0
3.73641 0.826859 3.88807 0 0 0
3.82696 0.883593 3.90897 0 0 0
4.31152 0.132236 4.40706 0 0 0
3.44562 1.49686 3.51359 0 0 0
3.44562 1.49686 3.51359 0 0 0
3.71344 1.09488 3.78063 0 0 0
3.71344 1.09488 3.78063 0 0 0
4.26897 0.347594 4.33933 0 0 0
3.94705 0.328113 4.01009 0 0 0
4.11571 0.533722 4.15724 0 0 0
3.98873 0.585715 4.02853 0 0 0
3.72674 1.1493 3.75677 0 0 0
3.70874 1.01855 3.73756 0 0 0
3.60278 1.2705 3.6256 0 0 0
3.73949 1.10145 3.76128 0 0 0
3.85144 0.961181 3.84972 0 0 0
3.97874 0.775941 3.97349 0 0 0
3.805 1.01233 3.79481 0 0 0
3.85801 0.914934 3.8233 0 0 0
3.96246 0.750374 3.92565 0 0 0
3.80585 0.988269 3.7547 0 0 0
3.7682 1.0834 3.71773 0 0 0
4.46506 0.332912 4.39859 0 0 0
3.32914 1.83225 3.27762 0 0 0
3.76251 1.14049 3.70396 0 0 0
3.1444 2.05224 3.09532 0 0 0
3.98239 0.800858 3.91858 0 0 0
3.87696 1.0567 3.81149 0 0 0
3.63554 1.30106 3.57343 0 0 0
3.12771 2.07707 3.07287 0 0 0
3.19352 2.05004 3.13367 0 0 0
3.49195 1.52765 3.42529 0 0 0
3.85449 0.987228 3.77977 0 0 0
3.43524 1.60286 3.36815 0 0 0
3.55362 1.44356 3.48224 0 0 0
3.41787 1.63229 3.3452 0 0 0
3.80692 1.10906 3.72514 0 0 0
3.2353 1.94036 3.1654 0 0 0
3.57501 1.42631 3.49669 0 0 0
3.81749 1.15293 3.72228 0 0 0
3.87824 1.0098 3.78114 0 0 0
3.87824 1.0098 3.78114 0 0 0
4.08112 0.740877 3.97485 0 0 0
3.93235 0.727355 3.82697 0 0 0
2.91763 2.30386 2.83681 0 0 0
3.85772 1.03065 3.74935 0 0 0
3.85772 1.03065 3.74935 0 0 0
3.19579 2.02993 3.10213 0 0 0
4.0164 0.836774 3.89623 0 0 0
3.91505 0.815894 3.79227 0 0 0
3.8325 1.15635 3.71707 0 0 0
3.20258 1.98426 3.10067 0 0 0
3.11114 2.03787 3.01172 0 0 0
3.08553 2.03992 2.98292 0 0 0
3.07557 2.07739 2.97315 0 0 0
3.1894 2.13586 3.07804 0 0 0
3.05798 2.04733 2.9507 0 0 0
3.22824 1.96435 3.11473 0 0 0
3.65498 1.46285 3.52608 0 0 0
3.8674 1.16217 3.73147 0 0 0
2.9235 2.26671 2.81235 0 0 0
3.90339 1.16738 3.74448 0 0 0
2.92656 2.21945 2.80567 0 0 0
3.14795 2.03538 3.01474 0 0 0
4.52402 0.551443 4.33403 0 0 0
2.93916 2.25581 2.80371 0 0 0
4.00763 1.08032 3.81341 0 0 0
4.27396 0.721772 4.06289 0 0 0
3.58027 1.79657 3.38858 0 0 0
4.05574 1.07355 3.83305 0 0 0
3.41345 1.95763 3.22238 0 0 0
4.31622 0.775829 4.06758 0 0 0
4.50495 0.649133 4.24094 0 0 0
3.80923 1.51513 3.5721 0 0 0
4.43321 0.732559 4.14689 0 0 0
3.73395 1.69124 3.48493 0 0 0
3.66587 1.73569 3.42273 0 0 0
3.48108 1.96719 3.24627 0 0 0
3.5615 1.88835 3.31147 0 0 0
3.19414 2.31799 2.90534 0 0 0
3.44617 2.14989 3.09004 0 0 0
4.20959 2.40652 3.63967 0 0 0
4.22263 2.4053 3.63352 0 0 0
3.9852 2.61164 3.40759 0 0 0
3.62422e+09 -2.14166e+09 3.10367e+09 0 0 0
4.01846 2.56412 3.43466 0 0 0
4.01846 2.56412 3.43466 0 0 0
5.6866e+08 -3.20743e+08 4.84629e+08 0 0 0
3.27376e+09 -1.89707e+09 2.78674e+09 0 0 0
3.85417e+09 -2.25084e+09 3.27285e+09 0 0 0
-180.871 83.3157 -152.122 0 0 0
4.80559e+09 -2.78992e+09 4.04332e+09 0 0 0
5.64243e+09 -3.38561e+09 4.72218e+09 0 0 0
5.64243e+09 -3.38561e+09 4.72218e+09 0 0 0
5.15198e+09 -2.88831e+09 4.29609e+09 0 0 0
-1.91586e+08 8.21282e+07 -1.56592e+08 0 0 0
-1.91586e+08 8.21282e+07 -1.56592e+08 0 0 0
-2.50103e+08 9.1913e+07 -2.0298e+08 0 0 0
-1.47363e+08 4.70902e+07 -1.1949e+08 0 0 0
-4.65828e+08 2.00771e+08 -3.7754e+08 0 0 0
-1.57436e+08 5.45743e+07 -1.27243e+08 0 0 0
-1.57436e+08 5.45743e+07 -1.27243e+08 0 0 0
-1.90022e+08 7.21996e+07 -1.52835e+08 0 0 0
-1.91731e+08 7.81379e+07 -1.53291e+08 0 0 0
5.27719 2.75263 4.18954 0 0 0
-1.13544e+08 2.1754e+07 -8.96494e+07 0 0 0
-1.12804e+08 2.16349e+07 -8.8871e+07 0 0 0
-0.567488 1.52504 1.36682 100 93 83
-0.917888 2.54878 2.34797 188 179 172
-1.17917 0.0987493 3.17971 220 226 238
-0.729458 0.357643 2.00269 88 86 74
-0.510468 1.38816 1.43368 130 130 128
-0.510468 1.38816 1.43368 130 130 128
-0.704804 0.452326 1.98742 108 112 115
-0.513187 1.33859 1.4714 200 195 192
-0.483539 1.54662 1.38712 118 119 113
-0.482006 1.53798 1.38776 110 111 105
-0.506636 1.34221 1.4729 205 204 199
-0.634418 0.690879 1.87112 125 122 115
-0.712161 -0.0490435 2.10423 220 226 238
-1.18139 0.0673023 3.50506 222 226 238
-0.628264 0.699487 1.86806 122 122 112
-0.587304 0.934462 1.76265 212 212 210
-0.530634 1.24102 1.61264 245 246 241
-0.636893 0.317936 1.97092 118 120 119
-0.534004 1.14646 1.65931 220 216 213
-0.620507 0.494889 1.93106 87 87 85
-0.525699 1.1541 1.65708 216 213 208
-0.525699 1.1541 1.65708 216 213 208
-1.1064 0.839811 3.53265 24 24 22
-0.520324 1.10318 1.68181 225 216 211
-1.12308 0.868137 3.71388 30 32 29
-0.567292 0.68737 1.8798 157 152 148
-0.606347 0.228719 2.00982 112 112 112
-0.585303 0.370749 1.94149 44 45 39
-0.561694 0.60278 1.90981 120 124 127
-0.60001 0.0514453 2.0571 218 224 236
-0.407229 1.55131 1.40498 145 143 146
-0.570235 0.326859 1.97726 122 126 127
-0.687201 -0.25082 2.38505 215 221 233
-0.543254 0.60474 1.91015 127 133 133
-0.535045 0.555109 1.93231 12 17 11
-0.403903 1.36707 1.46667 213 214 209
-0.526195 0.604187 1.91343 131 133 132
-0.526758 0.489362 1.94077 25 27 24
-0.428631 1.33547 1.58518 108 105 96
-0.394165 1.36787 1.49073 128 119 112
-0.946288 0.98564 3.3646 130 131 135
-0.503531 0.429051 1.97173 44 46 45
-0.288987 0.305765 1.14628 33 34 29
-0.452948 0.796987 1.82632 15 18 11
-0.371228 1.37092 1.49496 178 173 170
-0.469594 0.647775 1.90826 176 176 176
-1.16893 1.58909 3.59914 157 159 158
-0.435569 0.873848 1.78966 160 162 161
-0.379009 1.3406 1.60113 210 209 205
-0.414844 0.96561 1.75581 221 221 219
-0.347333 1.42139 1.4676 215 214 209
-0.585408 2.30364 2.49034 223 224 219
-0.440397 0.74226 1.91953 221 221 219
-0.359458 1.3471 1.58762 214 213 208
-0.38336 0.223008 2.22806 206 207 202
-0.748698 0.510259 4.71637 207 208 203
-0.354334 0.181588 2.23634 205 204 199
-0.638058 1.3382 4.09408 142 146 147
-0.28097 0.232813 2.23152 202 198 189
-0.265756 0.179189 2.23846 197 190 180
-0.263002 0.239419 2.24076 201 201 193
-0.594273 0.432998 5.40028 119 119 111
-0.229298 0.1819 2.2382 155 157 156
-0.201564 0.257045 2.23734 118 112 100
-0.190645 0.145115 2.22971 212 211 207
-0.347301 0.71148 6.3188 210 207 200
-0.0954025 0.157452 2.24325 210 207 200
-0.0798293 0.268933 2.25615 209 209 199
-0.230361 0.667335 7.25973 207 204 197
-0.0718471 0.206651 2.26563 207 204 197
0.0397039 0.752896 2.09118 194 194 194
0.0469466 0.761005 2.09006 200 200 198
0.0508205 0.799666 2.05298 218 218 216
0.0640679 0.29608 2.28962 152 151 149
0.132906 1.41105 4.02986 178 178 178
0.0694923 0.734938 2.10155 178 178 178
0.0784496 0.83235 2.06208 226 226 224
0.097495 0.524869 2.21044 27 29 24
0.276426 1.09373 5.24085 40 42 37
0.13526 -0.0542719 2.44032 210 209 205
0.131371 0.184926 2.29134 211 210 206
0.232832 1.32218 3.99254 147 147 147
0.140815 0.0344289 2.38918 213 212 208
0.139271 0.18535 2.29425 213 209 206
0.146152 0.163121 2.3015 208 207 203
0.213662 0.186381 2.27106 212 211 207
1.06708 -2.89935 4.35998 30 23 15
1.16046 -2.15911 3.66629 27 27 19
1.29592 -2.03325 3.79453 26 25 21
1.39016 -2.23866 4.20364 26 25 21
1.22515 -1.55816 3.56398 63 62 57
1.26103 -2.30923 3.66831 231 223 220
1.30824 -2.04255 3.79689 20 24 23
1.25724 -2.43238 3.60478 35 31 30
1.32208 -1.86568 3.75327 145 140 134
1.30407 -1.79305 3.70128 66 58 55
1.32338 -1.91761 3.75301 87 82 78
1.36059 -1.9542 3.79445 56 59 52
1.31133 -2.50307 3.64994 109 115 115
1.31133 -2.50307 3.64994 109 115 115
1.31585 -1.65828 3.65239 81 78 71
1.37983 -1.73317 3.71873 56 63 56
1.47184 -1.96174 3.85093 27 29 26
1.46315 -2.44163 3.81923 90 91 83
1.42138 -1.63632 3.69047 68 68 58
1.44284 -1.74414 3.74543 74 74 64
1.49265 -1.89188 3.82463 87 82 76
1.61496 -2.14051 4.20397 87 84 77
1.50405 -2.45622 3.83366 93 90 83
1.46505 -1.64982 3.72239 62 65 58
1.52624 -1.87239 3.83852 56 56 54
0.93352 -0.971069 2.34742 68 69 63
1.50849 -1.65838 3.74246 58 51 45
1.53072 -1.75766 3.79563 73 70 65
1.58021 -1.97961 3.90784 72 68 57
1.69234 -1.95801 4.17223 73 72 68
1.54442 -1.65306 3.75776 71 72 66
1.55617 -1.70672 3.78587 70 73 64
1.36753 -0.897746 3.32558 203 202 197
1.60735 -1.92251 3.89764 64 65 57
1.63873 -2.54769 3.93476 99 97 85
1.61663 -1.87775 3.87724 91 86 80
1.7458 -2.51638 3.97645 120 113 103
1.7458 -2.51638 3.97645 120 113 103
1.76646 -2.56601 4.00232 122 115 107
1.77169 -2.67773 3.97692 118 111 101
1.92302 -2.63148 4.29905 120 111 102
1.83478 -1.97573 4.02404 19 19 11
1.95446 -2.66589 4.36898 120 116 107
1.99555 -2.6502 4.37164 114 110 99
1.74704 -1.21446 3.73123 169 162 152
1.92229 -2.61885 4.07898 115 111 102
1.05772 -0.739694 2.20506 165 158 148
1.97723 -2.47162 4.06981 103 98 94
2.13072 -2.57917 4.34558 81 82 76
1.9575 -1.71317 3.98326 160 153 143
1.78472 -1.03975 3.62546 145 137 126
1.78472 -1.03975 3.62546 145 137 126
1.97005 -1.72817 3.99017 159 150 141
1.97419 -1.61424 3.94573 154 149 143
1.83606 -1.29763 3.66616 146 141 135
2.03882 -1.80893 4.05561 148 148 140
2.03882 -1.80893 4.05561 148 148 140
1.99172 -1.3061 4.03299 104 94 84
2.23084 -2.58519 4.3872 47 39 36
2.17048 -2.69447 4.18927 75 77 72
2.17048 -2.69447 4.18927 75 77 72
1.87235 -0.944098 3.60505 140 143 136
2.22281 -1.91911 4.25395 126 122 113
2.14887 -1.87157 4.12788 126 122 113
1.90184 -1.05674 3.65021 114 115 107
2.20645 -1.86087 4.23446 103 104 98
2.18835 -2.46357 4.17052 28 30 25
2.18102 -1.57506 4.16866 114 115 109
2.14318 -1.70699 4.06623 119 116 109
2.14318 -1.70699 4.06623 119 116 109
2.09707 -1.08432 4.02151 122 121 116
2.09707 -1.08432 4.02151 122 121 116
2.36396 -2.83812 4.45905 64 65 60
2.36396 -2.83812 4.45905 64 65 60
2.36535 -2.54532 4.39754 120 119 114
2.31494 -2.68534 4.2474 58 60 57
2.31494 -2.68534 4.2474 58 60 57
2.37156 -2.51775 4.29077 148 149 141
2.37156 -2.51775 4.29077 148 149 141
2.38417 -1.98944 4.28774 107 108 102
2.38417 -1.98944 4.28774 107 108 102
2.31795 -1.80325 4.16331 113 115 110
2.42858 -2.44185 4.28885 102 103 95
2.44335 -2.5019 4.30472 87 88 80
2.33649 -1.21851 4.11689 118 117 112
2.5684 -2.48683 4.42611 96 97 91
2.60608 -2.75682 4.47525 45 49 48
2.45439 -1.53922 4.15375 102 103 97
2.58398 -1.79017 4.31442 124 121 112
2.56947 -1.79726 4.30631 124 121 112
2.61006 -1.917 4.37064 113 114 108
2.62384 -1.91856 4.38317 121 122 116
2.56106 -1.58394 4.21682 110 107 100
2.6937 -1.96631 4.42974 105 108 101
2.59156 -1.63501 4.25634 113 115 110
2.57173 -1.56562 4.22133 132 129 122
2.65032 -1.80965 4.32512 129 130 124
2.58151 -0.993671 4.06255 115 105 95
2.83616 -1.79634 4.43781 119 109 99
1.87284 1.50449 2.93095 133 109 85
2.51278 -0.851917 3.9118 128 122 110
2.83257 -1.75033 4.40928 118 109 100
2.85952 -1.7679 4.43804 119 111 100
2.48922 -0.581885 3.88971 128 122 110
2.79835 -1.58588 4.33728 107 100 90
2.79835 -1.58588 4.33728 107 100 90
2.67814 -1.06607 4.0925 108 99 90
2.24329 0.352281 3.27283 101 94 86
2.29581 0.360311 3.31615 0 0 0
2.60114 -0.279728 3.74499 0 0 0
3.21777 -2.78013 4.58203 0 0 0
2.3459 0.576619 3.28724 0 0 0
3.00109 -1.21199 4.20588 0 0 0
2.24665 0.826179 3.13354 0 0 0
3.39078 -2.12801 4.38262 0 0 0
3.36392 -2.05278 4.34241 0 0 0
3.38726 -1.97444 4.33271 0 0 0
3.43084 -2.07705 4.38685 0 0 0
3.24111 -1.06947 3.99894 0 0 0
3.66872 -3.01884 4.57766 0 0 0
3.76649 -2.74803 4.55142 0 0 0
3.59663 -2.56943 4.30768 0 0 0
4.09308 -2.45035 4.87088 0 0 0
3.84401 -2.05625 4.57273 0 0 0
3.66889 -2.64115 4.32581 0 0 0
3.86674 -2.74169 4.59066 0 0 0
3.92071 -1.98403 4.57883 0 0 0
3.82089 -2.62241 4.52217 0 0 0
3.9672 -2.50417 4.61532 0 0 0
4.01131 -2.0449 4.6443 0 0 0
3.8868 -2.59617 4.52748 0 0 0
2.93697 0.607397 3.30046 0 0 0
3.34871 0.74162 3.71329 0 0 0
3.35543 0.713481 3.71357 0 0 0
3.14207 1.17096 3.45763 0 0 0
3.2555 0.706209 3.57137 0 0 0
3.42859 1.26647 3.71849 0 0 0
3.51746 0.601464 3.8073 0 0 0
3.59688 0.731175 3.83222 0 0 0
3.47009 1.36638 3.68535 0 0 0
1.89417 0.36219 2.00181 0 0 0
3.45712 1.42696 3.65594 0 0 0
3.59189 0.765369 3.78185 0 0 0
3.41041 1.14743 3.58541 0 0 0
3.39767 1.56031 3.56825 0 0 0
3.2876 1.73966 3.43095 0 0 0
3.06936 2.09094 3.18496 0 0 0
1.89858 0.400028 1.95924 0 0 0
3.68516 0.765676 3.80112 0 0 0
3.12539 0.786638 3.20798 0 0 0
3.68654 0.932892 3.78136 0 0 0
3.15376 0.508318 3.22709 0 0 0
3.8824 0.631735 3.9728 0 0 0
4.15285 0.311844 4.24513 0 0 0
3.83923 0.756542 3.92109 0 0 0
3.79227 0.874202 3.86611 0 0 0
3.5417 1.20809 3.60454 0 0 0
3.68922 1.03717 3.75233 0 0 0
3.17364 1.83907 3.19851 0 0 0
3.56586 1.31289 3.59107 0 0 0
2.9669 2.12858 2.9773 0 0 0
3.34988 1.6572 3.35221 0 0 0
3.60543 1.31819 3.60745 0 0 0
3.66648 1.24241 3.65745 0 0 0
3.64703 1.2861 3.62886 0 0 0
3.54312 1.44692 3.51898 0 0 0
3.90233 0.83359 3.8701 0 0 0
3.118 2.05114 3.09062 0 0 0
3.06947 2.11416 3.0401 0 0 0
3.96493 0.631317 3.92536 0 0 0
3.10961 2.08627 3.07299 0 0 0
3.92423 0.852096 3.87301 0 0 0
3.93528 0.835329 3.88383 0 0 0
3.1081 2.0966 3.06496 0 0 0
3.67513 1.21185 3.62143 0 0 0
4.34772 0.328101 4.28304 0 0 0
4.01676 0.684577 3.95565 0 0 0
3.8145 1.01431 3.75471 0 0 0
3.89115 0.737429 3.81929 0 0 0
3.54207 1.43352 3.48379 0 0 0
3.15023 2.06217 3.09284 0 0 0
3.29112 1.85874 3.22915 0 0 0
3.8837 0.948644 3.80945 0 0 0
3.82844 1.06666 3.75492 0 0 0
3.45729 1.57062 3.39097 0 0 0
3.85108 1.00138 3.76712 0 0 0
3.1864 2.02202 3.11356 0 0 0
3.47192 1.59961 3.38199 0 0 0
3.60133 1.45696 3.49981 0 0 0
3.75126 1.24885 3.64089 0 0 0
3.1488 2.05019 3.05521 0 0 0
3.91836 0.951492 3.80022 0 0 0
3.41254 1.73321 3.30545 0 0 0
3.97887 0.937671 3.83627 0 0 0
4.01937 0.879146 3.87224 0 0 0
4.01937 0.879146 3.87224 0 0 0
3.22626 2.04077 3.10457 0 0 0
3.98423 0.96212 3.83088 0 0 0
3.49237 1.64895 3.35816 0 0 0
4.05381 0.883426 3.88908 0 0 0
3.00835 2.18355 2.88723 0 0 0
2.95567 2.26905 2.82973 0 0 0
4.51325 0.476068 4.30521 0 0 0
4.42916 0.550639 4.22214 0 0 0
3.87382 1.26174 3.68454 0 0 0
3.90235 1.13681 3.70341 0 0 0
3.66527 1.55378 3.48252 0 0 0
4.26194 0.789443 4.03175 0 0 0
3.97544 1.25429 3.75282 0 0 0
3.91418 1.35614 3.68937 0 0 0
3.17872 2.11282 2.99525 0 0 0
3.17872 2.11282 2.99525 0 0 0
3.53918 1.13266 3.33066 0 0 0
3.91537 1.26791 3.68047 0 0 0
4.33279 0.751698 4.0728 0 0 0
4.02186 1.01782 3.76531 0 0 0
3.78825 1.55839 3.5546 0 0 0
3.82816 1.48504 3.59038 0 0 0
4.37409 0.695813 4.08574 0 0 0
4.37409 0.695813 4.08574 0 0 0
3.54126 1.90999 3.3076 0 0 0
3.66107 1.73555 3.4176 0 0 0
3.64936 1.77927 3.37227 0 0 0
3.29361 2.13448 3.04302 0 0 0
3.38333 2.20474 3.04706 0 0 0
-0.534045 1.4925 1.37635 128 128 126
-0.54686 1.34822 1.44497 42 37 34
-0.51012 1.39115 1.4234 215 214 209
-0.494021 1.49501 1.3916 151 151 151
-0.556791 0.903231 1.70581 200 199 195
-0.843049 -0.050928 5.21107 213 220 228
-0.645404 0.0374635 1.96024 220 227 235
-0.572119 0.438747 1.86792 179 180 175
-0.588683 0.196574 1.94187 220 227 235
-0.351541 1.37952 1.48633 45 47 42
-0.442888 0.0479728 2.0238 217 214 209
-0.330078 0.225687 2.15249 205 201 192
-0.298806 0.641794 1.97677 21 23 18
-0.209299 0.169912 2.10433 212 209 200
-0.17432 0.139079 2.19518 145 135 126
-0.118285 0.244499 2.23744 217 214 207
0.0877511 0.489506 2.19995 209 206 199
0.117584 0.462944 2.22264 210 209 204
0.270458 1.21833 1.60396 10 15 9
0.29719 0.93015 1.70754 164 164 156
0.271161 1.52076 1.50033 10 12 9
0.32051 1.00895 1.69196 189 186 179
0.813758 -3.3748 4.25204 71 54 46
0.557424 1.3935 1.69645 30 31 26
1.61987 -2.17604 4.15134 113 106 96
1.48324 -1.55278 3.73541 23 24 19
1.27088 -3.45456 4.34596 109 105 94
1.06207 -2.56008 3.1412 112 108 96
1.54115 -2.6935 3.89176 72 62 53
2.00344 -2.68826 4.31191 81 80 75
1.20821 -0.924495 2.78849 148 142 128
1.79751 -1.26738 3.75698 169 163 149
1.82079 -1.15199 3.68403 138 134 125
3.15829 -2.44958 4.55844 105 101 90
3.16684 -2.71098 4.59351 113 109 100
3.30716 -2.3126 4.31494 110 106 94
3.89497 0.637365 3.989 0 0 0
3.41841 1.67797 3.39363 0 0 0
3.95508 0.654252 3.83874 0 0 0
-1.34242e+09 9.2887e+08 4.61619e+09 69 66 61
1.46195e+09 -9.78782e+08 -4.97459e+09 26 27 21
1.55481e+09 -1.05856e+09 -5.25e+09 67 68 62
1.55481e+09 -1.05856e+09 -5.25e+09 67 68 62
-3.13498e-15 2.59249e-15 1.02856e-14 21 23 18
-2.42077 1.14008 9.63272 153 153 153
1.96281e+09 -1.15221e+09 -5.84403e+09 96 101 104
-0.593136 2.37222 3.36779 220 221 216
1.5315e+09 -1.9988e+09 -9.26867e+09 207 207 199
0.564597 1.29211 16.4533 210 209 204
0.709857 1.80231 5.07463 227 227 225
0.744898 1.80427 5.10177 226 227 222
0.823623 1.80406 5.16647 227 228 223
0.826801 1.91078 5.08345 220 221 216
0.826801 1.91078 5.08345 220 221 216
0.967921 1.84311 5.26151 233 232 227
0.844263 1.9105 5.01531 152 149 144
1.20995 1.79644 5.52839 162 163 157
0.91083 1.90384 4.99915 161 162 154
0.886845 -1.15996 2.29986 61 61 53
1.61746 -2.10824 4.1886 63 64 56
1.70653 -1.90386 4.21353 101 101 91
1.74867 -2.81508 4.3582 102 93 84
0.991105 -1.45393 2.33701 107 103 94
1.01895 -1.59606 2.35962 106 101 95
1.98356 -2.82195 4.39519 122 118 107
1.94404 -2.11163 4.24188 18 19 13
2.09604 -2.67397 4.35467 113 109 98
2.15504 -2.80068 4.41637 86 85 80
2.16979 -2.65362 4.36632 82 81 77
1.19265 -1.38113 2.3425 44 46 43
2.48598 -1.94443 4.32531 107 106 102
2.53754 -2.77333 4.46658 48 53 49
1.51749 -1.358 2.47454 91 91 83
2.80107 -2.03573 4.44084 102 95 85
1.61154 -0.962554 2.50077 118 110 99
2.52757 1.50487 2.85626 0 0 0
3.56352 0.790379 3.90875 0 0 0
3.78114 0.749755 3.9037 0 0 0
4.04683 0.33086 4.0163 0 0 0
-0.952426 -0.0833761 4.45628 219 226 234
1.38391 0.841193 15.5653 137 130 120
3.36319e+09 -1.70149e+09 -1.13216e+10 209 206 199
-0.398034 1.41018 6.76961 208 205 196
3.71723e+09 -2.51521e+09 -1.07243e+10 217 214 207
7.50684e+08 -8.0374e+08 -4.72033e+09 219 216 209
1.84342 -2.66194 4.27098 118 111 101
1.17727 -2.0837 3.07436 116 109 99
1.99639 -2.69578 4.31329 81 80 75
2.07354 -2.79094 4.35585 77 76 71
2.82199 -1.93883 4.40383 123 116 106
1.8468 -1.75859 3.23266 29 31 26
3.81085 1.57872 3.5712 0 0 0
-1.59817 0.663124 3.68876 72 67 61
-1.60792 0.21908 3.76203 73 71 59
-1.0971e+08 5.81366e+07 3.67462e+08 216 218 215
-1.92463e+09 1.9411e+09 4.94863e+09 222 228 240
4.783e+08 -3.39155e+08 -1.37825e+09 159 162 151
-2.23395e+09 1.58391e+09 6.45241e+09 159 162 151
-22.1088 11.6714 52.8582 143 147 132
-1.20474 0.325633 3.79477 214 216 215
5.42458 -3.94344 -13.5894 218 217 215
-0.721975 0.421296 3.80406 184 182 183
-0.696405 0.415218 3.80836 186 184 185
-1.47465e+10 1.6881e+10 5.97226e+10 40 40 38
0.387768 -2.0518 2.52908 38 35 30
0.457191 -0.138958 0.109375 214 210 207
0.457191 -0.138958 0.109375 214 210 207
0.489873 -0.471988 0.898301 214 215 209
0.671552 -2.78077 4.07166 17 23 11
0.582366 -0.863395 1.61238 83 83 75
0.82304 -2.97584 4.43146 38 34 23
5.62616e+06 -7.2719e+07 -1.27885e+10 45 43 31
1.07132 -2.42075 4.35995 71 71 63
1.27624e+08 -1.2815e+08 -7.49666e+09 99 104 100
1.21085 -3.58198 4.57977 46 42 31
1.58195 -2.12126 4.24902 87 80 72
1.57581 -2.10246 4.20574 87 80 72
1.77902 -3.02166 4.44339 17 19 16
1.82088 -1.73244 4.35681 66 69 60
1.83546 -2.97029 4.39384 86 92 82
1.70639 -1.67196 4.12432 205 206 200
1.91861 -2.67954 4.38006 72 73 65
1.93918 -2.79464 4.40842 64 59 55
1.90316 -1.924 4.20611 115 102 94
1.89679 -1.92614 4.20642 115 102 94
2.12076 -2.91566 4.45469 25 28 21
2.12076 -2.91566 4.45469 25 28 21
2.01523 -1.58788 4.13533 211 210 206
2.20677 -2.57728 4.39167 162 158 146
2.01944 -1.15899 4.02926 21 22 17
2.13063 -1.66567 4.17714 188 182 170
2.30649 -2.86138 4.46493 136 132 123
2.75069 -3.40198 4.66467 79 80 75
2.44516 -2.81809 4.47116 114 111 104
2.44516 -2.81809 4.47116 114 111 104
2.60914 -3.57372 4.69773 79 80 75
2.41629 -2.52236 4.40067 125 126 120
2.64597 -3.51797 4.69386 85 74 70
2.46353 -2.50932 4.40678 111 112 106
2.4812 -1.97035 4.38662 142 142 132
2.50913 -2.49251 4.42256 108 109 103
2.74871 -3.42935 4.69511 122 123 117
2.57073 -2.55661 4.43392 116 117 111
2.78337 -3.40527 4.69599 98 99 93
2.84406 -3.51096 4.72837 88 90 79
2.55646 -1.77735 4.30625 135 130 124
2.63551 -2.46959 4.42456 110 111 105
2.56114 -1.65951 4.27621 115 103 91
2.90274 -3.50391 4.73963 99 99 91
2.61331 -1.79855 4.31819 141 142 136
2.72735 -2.43999 4.43184 125 121 110
2.81603 -1.61353 4.29041 132 124 113
3.47215 -2.91353 4.52135 0 0 0
3.95944 -3.3859 4.80801 0 0 0
3.98201 -3.44379 4.82407 0 0 0
3.98201 -3.44379 4.82407 0 0 0
3.63387 -2.58656 4.4732 0 0 0
3.98643 -3.37094 4.80875 0 0 0
4.08584 -3.38705 4.8264 0 0 0
3.69877 -2.76255 4.53901 0 0 0
4.12584 -3.39279 4.83324 0 0 0
3.76869 -2.8009 4.50705 0 0 0
3.75388 -2.1316 4.43491 0 0 0
3.87373 -2.69646 4.54735 0 0 0
3.93307 -2.91231 4.5989 0 0 0
3.93307 -2.91231 4.5989 0 0 0
4.01894 -2.77064 4.57026 0 0 0
3.24921 0.672745 3.6273 0 0 0
3.30163 0.711624 3.6493 0 0 0
3.35222 0.728722 3.72488 0 0 0
3.34112 0.5926 3.66105 0 0 0
3.52718 0.618553 3.76474 0 0 0
3.70015 0.737795 3.79585 0 0 0
3.72919 0.871954 3.77593 0 0 0
3.9198 0.873217 3.76454 0 0 0
3.89162 1.12362 3.70127 0 0 0
3.9181 1.09774 3.71188 0 0 0
1.14391e+09 -5.45391e+08 -3.60252e+09 21 23 18
-4.49584e+09 2.43691e+09 1.48496e+10 130 131 133
1.11781e+09 -5.26856e+08 -3.57307e+09 28 30 27
-1.15246e+09 4.713e+08 4.48558e+09 109 105 104
-1.49272 1.45326 13.2653 206 203 196
2.48179 1.88372 7.60599 177 176 171
2.0138 -2.70751 4.35368 120 117 108
2.00526 -2.6451 4.31517 116 112 103
2.20139 -2.57126 4.35133 43 43 41
2.53985 -2.76208 4.45704 48 53 49
2.74405 -2.47076 4.45893 97 98 92
8.59341 5.36477 11.0421 0 0 0
3.69125 -2.18623 4.47344 0 0 0
2.02281 1.82825 2.40915 0 0 0
3.61757 -3.20378 4.57597 0 0 0
6.96807e+08 -3.58511e+09 -5.48867e+09 209 208 203
-0.373789 3.68391 16.7151 216 213 204
2.98582 -0.594905 5.39068 20 22 17
1.41205 -2.28471 4.11918 6 22 12
1.16055 -1.53505 2.63344 32 34 31
0.596959 -0.296453 1.11635 0 0 0
-1.48545e+09 9.93729e+08 4.80452e+09 119 118 113
-4.88489 2.06643 10.8532 97 96 91
-4.88023 2.06586 10.8531 102 99 94
-6.23041 1.27042 14.0964 197 203 199
-1.1198e+09 5.73997e+08 3.67096e+09 216 218 215
-4.23615 2.23894 10.2247 216 218 215
1.11687e+09 -1.07419e+09 -3.34333e+09 232 232 230
-4.33243e+08 4.20558e+08 1.64729e+09 197 197 197
-6.00476e+08 5.88537e+08 2.22198e+09 185 185 185
-1.1635 0.827303 7.60973 198 198 200
-1.14123 0.863889 7.74552 203 201 202
1.6393 -2.26111 4.16653 87 88 80
2.05375 -2.60071 4.3304 71 72 66
3.15851 -1.72039 4.1361 0 0 0
7.64914e+08 5.41831e+08 1.97274e+09 0 0 0
2.04557 2.13782 2.56903 0 0 0
3.57755 -3.50038 4.5713 0 0 0
1.58571 -0.736981 1.3344 0 0 0
2.08831 1.45491 2.41792 0 0 0
2.12865 1.48943 2.45338 0 0 0
2.24097 -1.23446 2.13341 0 0 0
2.28089 1.5783 2.57202 0 0 0
2.33483 1.59741 2.60562 0 0 0
2.50126 2.0834 2.746 0 0 0
3.43357 0.825154 3.67491 0 0 0
3.54732 0.751057 3.74011 0 0 0
3.18711 0.903693 2.94859 0 0 0
1.26184 1.96564 6.42981 88 84 75
1.26184 1.96564 6.42981 88 84 75
1.7262 -0.0599409 7.22657 130 146 146
2.10344 0.691489 7.49696 164 177 186
2.10536 0.698616 7.48431 37 38 30
2.12141 0.66067 7.50759 164 174 184
2.11969 0.667204 7.50411 163 173 183
2.12412 0.649105 7.50897 166 174 185
-1.26782 -6.5467 6.01651 165 173 184
2.1218 0.665717 7.50082 165 173 184
1.25163 1.8244 6.32921 62 66 51
1.78063 -0.291848 7.23857 163 171 182
1.79073 -0.316986 7.2426 162 172 182
2.14728 0.615447 7.51267 161 171 181
1.44526 1.39862 6.60516 188 185 176
1.39887 1.47376 6.52541 197 190 180
1.47808 1.30305 6.64451 185 181 170
1.74293 -0.218272 7.1422 21 26 19
2.15415 0.615005 7.50316 165 171 183
2.15415 0.615005 7.50316 165 171 183
1.453 1.35986 6.59229 194 187 177
1.3893 1.51121 6.48815 94 84 72
2.15044 0.641412 7.48438 36 29 36
1.40607 1.45423 6.50818 91 83 70
1.3887 1.45076 6.48852 91 83 70
1.44863 1.37374 6.56879 187 183 172
1.77969 -0.341297 7.18258 25 24 20
2.11254 0.778015 7.40161 92 102 93
2.14094 0.696736 7.45009 103 99 98
2.14037 0.704561 7.44678 15 24 21
1.45593 1.32819 6.57766 171 165 153
1.32575 1.64528 6.36456 206 203 198
2.14349 0.691803 7.45024 29 34 27
1.38604 1.50601 6.45736 198 195 186
1.75295 -0.285055 7.13075 17 18 12
2.15062 0.673302 7.45739 17 20 13
1.53052 1.25186 6.6639 184 180 169
2.14734 0.683651 7.45114 25 31 21
1.38159 1.49343 6.44144 201 197 186
2.14045 0.714793 7.42674 27 29 18
1.38296 1.47877 6.43774 208 203 197
1.39019 1.45495 6.44561 207 204 197
1.37854 1.49924 6.41944 201 194 184
1.35699 1.54724 6.38501 213 212 207
1.35699 1.54724 6.38501 213 212 207
1.1888 1.94353 6.11274 102 95 85
1.38965 1.47647 6.42871 206 203 194
2.11974 0.823679 7.36802 184 190 202
1.18401 1.94941 6.09736 117 123 113
-0.226483 0.314669 4.8996 199 186 180
1.53691 1.21991 6.63669 199 186 180
1.39468 1.47198 6.42563 203 200 191
1.19769 1.91924 6.10804 122 125 114
1.19 1.94832 6.09305 108 108 98
1.5389 1.20541 6.63526 201 193 182
1.34421 1.56348 6.34295 203 199 190
1.2269 1.96429 6.13456 116 118 107
1.39951 1.41854 6.43218 205 202 195
1.18867 1.95596 6.08536 119 120 112
1.20587 1.90764 6.11462 81 81 73
2.12244 0.834583 7.35636 185 191 203
1.25864 1.86117 6.18492 123 123 115
1.44157 1.30116 6.50041 209 202 194
1.32077 1.64567 6.293 179 179 167
1.2398 1.83 6.16355 122 123 115
2.12231 0.842398 7.34908 184 192 203
2.11785 0.857994 7.34066 190 196 208
1.23734 1.85429 6.14893 107 104 95
1.23771 1.83728 6.15188 87 82 76
1.34403 1.59245 6.32099 182 183 169
1.28683 1.74526 6.22068 67 65 52
1.44081 1.38479 6.46769 207 205 193
1.44081 1.38479 6.46769 207 205 193
1.43837 1.31289 6.47983 207 204 195
1.30866 1.69849 6.24957 81 79 67
1.33257 1.62735 6.28893 90 81 72
1.34836 1.59864 6.31106 73 67 53
1.28394 1.74486 6.20422 83 80 73
1.37691 1.54853 6.34695 91 85 71
1.3819 1.46585 6.36294 181 177 168
1.45242 1.29227 6.4805 209 206 197
1.41752 1.46242 6.40062 118 127 110
1.38729 1.44522 6.36495 185 196 179
1.38729 1.44522 6.36495 185 196 179
1.39839 1.41406 6.38157 187 184 177
1.422 1.43968 6.40153 86 80 66
1.42145 1.45926 6.39637 82 79 62
1.42088 1.33865 6.40925 181 174 166
1.34855 1.59417 6.27927 94 92 80
1.27161 1.75481 6.14916 69 61 50
1.50268 1.07966 6.51904 201 199 187
1.37394 1.51761 6.2502 68 69 55
1.45825 1.32131 6.33526 109 103 89
1.38971 1.62325 6.19736 116 116 108
1.46153 1.30258 6.32724 82 76 62
1.80682 -0.0979803 6.67064 71 72 66
1.80682 -0.0979803 6.67064 71 72 66
1.80906 -0.160792 6.59184 43 39 36
1.59419 0.394607 6.20829 116 105 101
1.99284 -0.0888287 6.8317 55 54 52
1.99284 -0.0888287 6.8317 55 54 52
1.72322 0.55231 6.39479 193 192 187
1.72322 0.55231 6.39479 193 192 187
1.99069 -0.104345 6.80832 178 157 166
1.62932 0.16674 6.19086 188 192 178
1.80451 -0.264688 6.45765 33 30 23
2.02101 -0.218165 6.78389 28 30 17
1.82735 -0.362366 6.45802 41 38 33
2.01674 -0.249269 6.75921 83 84 68
1.92935 0.00772786 6.62674 69 70 62
2.02223 -0.246346 6.74632 34 30 19
1.84192 -0.573554 6.36644 105 110 106
1.75654 -0.104868 6.18236 26 31 25
1.85258 -0.621545 6.33564 27 28 22
1.85258 -0.621545 6.33564 27 28 22
1.82178 -0.502053 6.27662 16 21 15
1.97947 -0.110043 6.54588 8 10 5
1.621 -0.174642 5.87315 211 208 201
1.24921 2.19187 5.25901 28 31 24
1.85365 0.229569 6.32541 189 185 182
1.87299 0.17801 6.35793 179 177 182
1.70788 -0.202012 6.00248 129 125 122
1.70788 -0.202012 6.00248 129 125 122
1.94044 -0.0400912 6.45804 70 66 63
1.83666 -0.237332 6.23256 47 47 39
2.05862 -0.481468 6.61024 42 38 29
1.99946 -0.160133 6.53972 18 24 12
1.84004 -0.641483 6.21719 18 24 12
1.35285 1.82198 5.37683 159 160 155
2.0751 -0.523369 6.60792 66 65 63
1.84668 -0.448569 6.19511 33 41 30
1.84668 -0.448569 6.19511 33 41 30
1.27131 2.06758 5.21853 214 213 208
0.934254 1.82636 4.55687 160 162 159
1.27291 2.05877 5.20302 212 212 204
1.26533 2.07942 5.18859 215 215 207
1.2081 1.27273 5.03298 168 172 173
1.28629 2.01395 5.21785 185 186 181
0.942448 1.82302 4.55009 130 132 129
1.09275 1.48624 4.80202 205 204 209
1.35014 1.80178 5.30904 193 192 190
2.05307 -0.288186 6.52752 150 149 144
0.87784 1.98742 4.41416 32 33 27
1.12255 1.45506 4.84552 180 178 181
1.12255 1.45506 4.84552 180 178 181
1.27633 1.10946 5.10679 21 27 13
0.969249 1.77475 4.56118 179 180 175
1.1654 1.36916 4.88792 45 46 30
1.35649 0.99459 5.22463 35 35 23
1.35649 0.99459 5.22463 35 35 23
1.91619 -0.08542 6.22329 49 41 30
0.912796 1.94872 4.43275 29 34 30
1.79787 0.304196 6.01217 203 202 198
1.48407 0.711087 5.42575 209 210 204
1.48407 0.711087 5.42575 209 210 204
1.91806 -0.531977 6.18568 69 69 69
1.78111 0.151787 5.95711 13 24 16
1.84398 0.167779 6.08205 207 207 199
1.84398 0.167779 6.08205 207 207 199
1.99977 -0.227094 6.36582 52 49 42
1.82783 0.0662269 6.03239 213 210 205
1.77208 0.241605 5.93319 205 204 200
1.93165 -0.691337 6.18489 62 68 64
1.93165 -0.691337 6.18489 62 68 64
1.71823 0.216417 5.8118 212 211 206
1.71823 0.216417 5.8118 212 211 206
1.95031 -0.539341 6.2008 78 84 74
1.83722 0.18427 6.02393 167 167 157
1.81273 0.150233 5.96641 106 119 109
2.04147 -0.344561 6.38933 33 35 24
2.04147 -0.344561 6.38933 33 35 24
1.34386 0.941771 5.09877 39 40 34
1.34341 0.984939 5.08902 28 29 21
0.654451 2.39172 3.8455 32 33 27
1.91327 -0.109997 6.11357 150 147 140
1.91327 -0.109997 6.11357 150 147 140
1.97227 -0.284046 6.21668 35 35 25
1.25288 1.25896 4.9049 14 16 11
1.40473 0.882052 5.16709 41 42 28
2.01206 -0.295621 6.28142 33 33 21
1.94501 -0.15704 6.12246 48 51 42
1.58428 1.01202 5.51115 62 62 54
1.96255 -0.119626 6.14672 44 25 21
1.85642 0.135506 5.96075 168 169 161
2.0687 -0.439244 6.33594 56 58 47
1.80842 0.0693407 5.84629 36 44 33
1.81706 0.0847021 5.86401 31 39 28
1.96828 -0.129742 6.14484 36 16 9
1.88246 0.0681835 6.00158 211 210 205
1.69938 0.407179 5.64757 29 31 18
1.85449 0.141401 5.94479 134 142 129
1.6597 0.512283 5.57419 172 149 141
1.84724 -0.00645811 5.89181 208 207 202
1.87844 0.075725 5.97505 208 207 202
1.88285 0.0646728 5.98059 212 211 206
1.89424 -0.0971631 5.96599 197 196 192
1.96851 -0.223694 6.09725 95 97 86
1.98061 -0.177943 6.12247 187 174 165
1.71994 0.40384 5.64619 67 61 49
1.80729 0.240773 5.79993 215 212 205
2.01368 -0.331567 6.16182 17 20 13
1.85817 0.10532 5.88007 40 53 44
1.9757 -0.249436 6.07821 192 183 174
1.95926 -0.221386 6.03605 177 180 173
2.07239 -0.456475 6.26514 63 65 54
1.87191 0.10065 5.90095 141 143 132
1.95708 -0.215895 6.02251 153 155 150
1.95708 -0.215895 6.02251 153 155 150
1.88625 0.0287185 5.91575 209 208 203
1.87887 0.0513895 5.90256 201 201 193
2.00574 -0.09945 6.14433 179 179 171
2.00574 -0.09945 6.14433 179 179 171
1.71774 0.39187 5.59891 75 72 63
2.20029 -0.364128 6.52022 105 106 100
1.99534 -0.552207 6.05397 13 16 7
2.088 -0.502303 6.2266 23 26 15
1.85999 0.12248 5.78579 199 198 194
1.85999 0.12248 5.78579 199 198 194
1.96082 -0.220157 5.93568 184 183 178
2.03733 -0.375023 6.08498 36 27 20
2.14731 -0.862421 6.20719 40 42 31
2.07538 -0.77321 6.04994 14 17 8
2.03268 -0.202116 6.02208 184 184 174
1.98615 -0.13307 5.88998 204 201 196
1.99658 -0.317975 5.85971 143 125 111
1.9611 -0.118316 5.81343 211 210 205
2.09834 -0.642367 6.01968 193 190 183
1.99041 -0.165694 5.86041 200 199 194
2.06649 -0.622959 5.93725 193 190 183
2.09929 -0.571732 5.97931 190 190 182
2.04472 -0.310144 5.86891 184 184 176
2.08501 -0.708999 5.86951 191 191 183
2.02229 -0.285929 5.73717 198 197 193
2.05969 -0.335712 5.81608 121 121 111
2.01531 -0.286076 5.68682 206 206 198
2.01549 -0.291458 5.66784 208 207 202
1.99607 -0.285627 5.57173 210 209 204
2.04955 -0.45345 5.65729 167 172 165
2.04006 -0.418331 5.63026 186 182 179
2.0471 -0.373874 5.64999 191 190 186
2.0926 -0.450343 5.73637 184 184 176
2.05536 -0.46169 5.59337 173 169 166
2.08923 -0.458913 5.68342 188 185 176
2.02624 -0.365408 5.54256 210 209 204
1.97647 -0.188071 5.44901 23 18 14
2.16473 -1.01161 5.68562 194 194 186
2.07822 -0.456974 5.60246 161 160 158
2.38762 -1.53701 5.85842 177 170 160
2.01549 -0.296389 5.29928 40 25 22
2.01549 -0.296389 5.29928 40 25 22
2.17499 -0.726414 5.48703 184 181 172
2.44877 -1.14684 6.06077 174 174 164
2.21912 -0.916756 5.24749 186 186 174
1.98562 -0.715625 4.60321 202 201 197
1.96037 -0.625469 4.49261 211 210 205
2.01407 -0.837865 4.52252 188 189 184
2.17707 -0.763002 5.02773 213 210 205
2.25037 -1.02198 5.11705 187 187 179
2.20914 -0.860007 5.0493 202 201 196
2.24844 -1.03514 5.05605 184 185 177
2.27753 -1.08341 5.11369 188 185 178
2.03849 -0.917275 4.42858 183 182 180
2.35961 -1.90427 4.92529 191 190 185
2.20016 -1.01854 4.81339 207 206 202
2.29749 -1.14243 5.06181 181 181 173
2.24654 -0.960867 4.92373 202 201 197
2.61932 -1.66485 5.73543 170 170 160
2.24903 -1.16575 4.74246 196 195 191
2.18676 -0.71945 4.81823 165 168 159
2.29661 -1.11548 4.91561 185 186 178
2.29661 -1.11548 4.91561 185 186 178
2.31638 -1.24147 4.88548 190 187 180
2.63067 -1.66001 5.71264 64 66 55
2.16371 -1.0394 4.41942 159 160 152
2.17684 -0.699204 4.69435 177 176 172
2.21804 -1.02052 4.50301 198 198 190
2.23915 -0.903827 4.66686 199 199 191
2.76586 -1.51163 6.11474 10 15 9
2.2289 -0.879753 4.63751 175 176 168
2.54723 -1.78326 5.21615 187 187 177
2.20182 -1.10325 4.29527 125 135 126
2.70946 -1.95664 5.56062 53 53 45
2.56275 -2.72158 4.41574 188 187 182
2.6237 -2.8794 4.09735 72 78 64
2.84631 -2.3062 5.26367 51 51 39
2.72805 -3.4609 3.71246 65 69 55
2.60289 -2.14358 4.18912 32 34 21
2.57698 -1.89916 4.27093 33 36 25
2.59928 -2.16607 3.98047 25 27 16
2.58584 -1.89803 4.09915 197 172 165
2.65009 -2.28575 3.85846 21 22 14
2.67936 -2.39369 3.83591 21 24 17
2.69953 -2.25174 4.02529 21 24 15
2.63438 -2.4012 3.497 52 29 23
2.52214 -2.17401 3.19044 211 208 203
2.85625 -2.65681 4.37821 89 80 65
2.61693 -1.96256 3.8532 188 187 182
2.73579 -2.58857 3.61498 16 19 12
2.73579 -2.58857 3.61498 16 19 12
2.6999 -2.60102 3.34589 52 38 25
2.72859 -2.57451 3.508 26 29 20
2.7141 -2.55932 3.41812 43 40 25
2.74439 -2.63585 3.48171 30 34 20
2.75733 -2.72466 3.30679 22 28 16
3.08531 -4.88609 2.45705 162 159 150
2.99254 -3.0256 3.9792 159 155 146
2.48176 -2.54555 1.71808 210 207 202
2.95781 -3.29118 2.7084 124 124 116
2.78646 -3.33112 1.55557 125 118 108
2.75151 -3.28596 1.3164 144 137 127
2.67411 0.320563 5.87592 120 117 110
2.77287 -3.27815 1.37753 116 113 106
1.52264 -3.09695 -6.10917 32 34 29
1.48284 -3.36401 -7.6166 31 33 28
2.9561 -4.05586 0.441563 130 132 121
2.71779e+07 -1.80707e+08 -1.35912e+08 172 154 144
3.83454 -4.92981 3.57242 44 47 38
-5.04271e+08 2.86495e+09 2.34632e+09 157 154 145
-3.96743e+08 2.32221e+09 2.33211e+09 133 127 115
-5.10214e+08 2.50274e+09 2.02156e+09 179 176 169
-4.60626e+08 2.59055e+09 2.93002e+09 130 128 116
6.59873e+07 -3.01469e+08 -2.15367e+08 120 114 100
-4.33816e+08 2.07048e+09 1.9044e+09 74 74 62
-7.41566e+08 3.1108e+09 1.97398e+09 99 95 84
5.29653e+07 -2.08633e+08 -1.24771e+08 101 103 92
3.86997e+07 -1.49826e+08 -9.50792e+07 91 93 82
9.28957e+08 -3.39882e+09 -2.16474e+09 81 83 72
4.84952e+07 -1.78435e+08 -1.48982e+08 104 104 94
-9.42008e+08 3.27828e+09 2.09961e+09 90 91 83
7.95375e+08 -2.81e+09 -1.92852e+09 107 108 100
3.04362e+07 -1.12852e+08 -1.13595e+08 65 61 50
-5.66885e+08 1.96439e+09 1.42291e+09 91 92 84
-1.02789e+09 3.53096e+09 2.56917e+09 85 85 75
6.0004 -10.2357 -5.54399 109 109 97
6.36129e+08 -2.03151e+09 -2.22942e+09 99 92 82
1.91352e+07 -5.38128e+07 -7.0101e+07 117 107 95
5.34827e+06 -2.94496e+06 -4.68391e+08 38 31 21
5.34827e+06 -2.94496e+06 -4.68391e+08 38 31 21
2.11145e+07 -5.80004e+07 -6.98632e+07 113 103 91
7.67462e+07 -2.07928e+08 -1.83947e+08 100 94 82
1.0811e+08 -2.89534e+08 -2.42489e+08 89 81 70
2.43335 2.13808 11.3152 114 104 92
2.44079e+07 -4.34228e+07 -4.31851e+08 114 108 96
7.50027e+08 -2.00352e+09 -1.47769e+09 75 75 65
1.83098e+08 -4.76757e+08 -4.50541e+08 110 86 62
6.53335e+07 -4.6057e+08 3.77553e+09 122 108 95
-5.7524e+08 1.20984e+09 5.14422e+09 122 116 104
-5.7009e+08 1.19543e+09 4.39201e+09 121 113 102
-5.96222e+07 3.27873e+08 -1.8457e+09 114 108 96
3.55049e+08 -9.3027e+08 -7.20103e+08 83 71 57
7.25761e+08 -1.78705e+09 -2.18151e+09 89 85 76
7.25761e+08 -1.78705e+09 -2.18151e+09 89 85 76
2.02022e+08 -4.17941e+08 -1.49004e+09 113 107 93
-5.75464e+08 1.16532e+09 4.1669e+09 115 109 95
-5.75464e+08 1.16532e+09 4.1669e+09 115 109 95
5.4224e+07 -5.93653e+08 4.48743e+09 115 107 94
-1.62809e+07 3.04196e+07 1.32884e+08 112 108 97
7.55513e+07 -1.10868e+08 -9.16681e+08 125 112 103
1.03335e+08 -2.10745e+08 -7.15394e+08 112 93 78
1.64804e+08 -3.20913e+08 -1.20906e+09 116 105 87
-1.03039e+07 1.54694e+07 1.13801e+08 118 112 100
-3.0549e+08 5.78356e+08 2.14985e+09 141 108 73
-3.0549e+08 5.78356e+08 2.14985e+09 141 108 73
4.90089e+08 -1.25646e+09 -9.15139e+08 69 71 60
4.04398e+08 -1.00755e+09 -8.07419e+08 78 75 68
9.42279e+07 -1.80259e+08 -6.46914e+08 126 91 61
1.03745e+08 -1.93205e+08 -7.3052e+08 120 94 71
9.61226e+07 -1.69887e+08 -7.13692e+08 98 80 66
5.32923e+07 -5.15126e+07 -6.39953e+08 128 98 70
2.66554e+08 -4.74672e+08 -1.71003e+09 89 86 77
2.88503e+08 -4.92332e+08 -1.87357e+09 0 0 0
-2.14133e+07 3.71422e+07 1.28004e+08 0 0 0
-2.33541e+07 3.9501e+07 1.42576e+08 0 0 0
7.94392e+08 -1.89587e+09 -1.39164e+09 0 0 0
4.27542e+08 -7.55665e+08 -2.49813e+09 0 0 0
-2.50566e+07 4.15032e+07 1.33273e+08 0 0 0
-2.78055e+07 4.26245e+07 1.55462e+08 0 0 0
6.96077 -4.70023 -17.0147 0 0 0
-2.92636e+07 4.52275e+07 1.56466e+08 0 0 0
2.64445 1.77477 7.70804 0 0 0
6.84944 -4.37574 -15.8231 0 0 0
9.48179e+07 -1.28972e+08 -4.91455e+08 0 0 0
5.64638 -2.20029 -7.57741 0 0 0
-3.94415e+07 5.59148e+07 1.81621e+08 0 0 0
-3.98454e+07 5.09591e+07 1.70483e+08 0 0 0
-4.92855e+07 4.24849e+07 2.72817e+08 0 0 0
4.83179 -0.779339 -1.74899 0 0 0
4.60966 -0.441231 -0.765526 0 0 0
6.9753e+07 -7.86896e+07 -2.99918e+08 0 0 0
4.93646 -0.863965 -1.62346 0 0 0
4.06038 0.410398 2.08808 0 0 0
3.9102 0.550691 2.96699 0 0 0
3.87708 0.593956 3.13354 0 0 0
3.83348 0.644346 3.3274 0 0 0
4.6707e+07 -4.4036e+07 -1.71646e+08 0 0 0
4.43555e+07 -4.18984e+07 -1.61062e+08 0 0 0
5.06117e+07 -4.57467e+07 -1.88924e+08 0 0 0
1.95556e+08 -1.12517e+08 -8.73169e+08 0 0 0
1.95556e+08 -1.12517e+08 -8.73169e+08 0 0 0
7.85372e+07 -5.85601e+07 -3.13968e+08 0 0 0
3.70095 0.823197 4.00076 0 0 0
3.70095 0.823197 4.00076 0 0 0
7.40981e+07 -5.42724e+07 -2.9376e+08 0 0 0
4.08172 0.625758 2.29351 0 0 0
3.65793 0.870498 4.17794 0 0 0
4.39565 0.558699 0.754045 0 0 0
3.63849 0.895743 4.2735 0 0 0
3.63849 0.895743 4.2735 0 0 0
3.29983 1.07595 5.73877 0 0 0
2.56335e+08 -9.52561e+07 -1.21846e+09 0 0 0
9.31155 -1.70008 -20.7807 0 0 0
5.33427 0.122093 -3.04228 0 0 0
6.39201e+07 2.74687e+07 -4.12455e+08 0 0 0
3.97145 0.553929 3.65059 0 0 0
2.79072e+08 -1.01335e+08 -1.20454e+09 0 0 0
4.21591e+07 -3.62753e+07 -1.31964e+08 0 0 0
4.71049e+07 -4.21361e+07 -1.43476e+08 0 0 0
6.80691e+07 -6.72704e+06 -3.30979e+08 0 0 0
5.20717e+07 -4.66249e+07 -1.55832e+08 0 0 0
5.83848 -0.261853 -3.47284 0 0 0
6.62479e+07 5.15895e+07 -4.42537e+08 0 0 0
7.72436e+07 -4.74914e+06 -3.66568e+08 0 0 0
3.61167e+07 -3.24898e+07 -1.02497e+08 0 0 0
2.13051e+08 1.07064e+08 -1.27522e+09 0 0 0
5.46189 0.00864012 -1.8199 0 0 0
6.79652e+07 -4.75961e+07 -2.19091e+08 0 0 0
3.02609 1.39815 6.7329 0 0 0
7.91712e+07 1.17306e+07 -3.99496e+08 0 0 0
-6.43129e+07 3.42305e+07 2.2038e+08 0 0 0
-6.43129e+07 3.42305e+07 2.2038e+08 0 0 0
6.26501 -0.201427 -4.52423 0 0 0
3.8544 0.931586 4.06898 0 0 0
4.24775 0.718924 2.75668 0 0 0
2.88699 1.64769 6.90051 0 0 0
-6.6372e+07 3.5312e+07 2.22178e+08 0 0 0
7.34512 -0.632025 -8.22547 0 0 0
2.51546e+08 5.48703e+07 -1.24926e+09 0 0 0
3.92922 0.932896 3.7787 0 0 0
6.69716 -0.314079 -5.53083 0 0 0
3.35066 1.25678 5.75487 0 0 0
3.61492e+07 -2.68601e+07 -1.00258e+08 0 0 0
2.02134e+08 -1.04594e+08 -6.50024e+08 0 0 0
8.4716e+07 2.1549e+07 -4.08108e+08 0 0 0
1.26294e+08 -7.01614e+07 -3.93312e+08 0 0 0
8.03455e+07 5.8388e+07 -4.6033e+08 0 0 0
3.33874e+07 -2.51604e+07 -8.98475e+07 0 0 0
3.20588 1.35412 6.21311 0 0 0
3.18241 1.36402 6.30508 0 0 0
3.07144e+08 -4.06024e+07 -1.2034e+09 0 0 0
1.20878e+08 -6.66506e+07 -3.67357e+08 0 0 0
2.5382e+08 1.01061e+08 -1.25232e+09 0 0 0
3.17799 1.38461 6.31419 0 0 0
3.63484e+08 -1.75595e+08 -1.14087e+09 0 0 0
2.44802e+08 1.40677e+08 -1.26045e+09 0 0 0
9.02981e+07 1.68691e+07 -3.93591e+08 0 0 0
2.92803e+08 2.89532e+07 -1.22209e+09 0 0 0
9.06308e+07 6.3549e+07 -4.65962e+08 0 0 0
1.78675 1.93392 5.05614 156 155 150
2.55221 -2.92882 4.92552 112 105 97
2.67711 -1.00558 3.21413 0 0 0
1.84995 1.18207 2.04198 0 0 0
-1.33387 0.718506 3.27972 70 67 58
1.97409 2.29216 4.45833 174 171 164
0.865494 -1.30649 2.22646 80 79 74
2.99687 -1.89776 4.89341 74 75 69
0.252126 0.779542 0.943883 164 164 156
0.252126 0.779542 0.943883 164 164 156
1.35345 -1.50704 2.69791 30 32 27
2.52735 -1.80656 4.31628 111 113 102
1.39364 -1.52097 2.73684 28 30 25
2.63691 -1.21764 3.32962 0 0 0
1.65077 1.21548 2.02053 0 0 0
3.44762 -2.2108 3.9526 0 0 0
-0.350543 0.390721 1.57131 215 216 211
-2.23459 0.505762 8.92207 33 35 34
0.289795 0.706256 6.88712 43 45 42
1.69815 1.03973 1.63853 0 0 0
1.63498 0.957087 1.48953 0 0 0
0.772647 0.075178 0.136536 0 0 0
1.41542 1.34444 6.59724 189 185 174
1.44639 1.2462 6.61001 202 199 190
1.38234 1.47315 6.42317 206 203 194
1.37029 1.49976 6.35021 181 189 174
1.42583 1.31737 6.42191 178 175 166
1.02188 -0.454863 5.36077 197 192 189
1.86514 0.231681 6.30554 202 199 194
1.47238 -0.712419 5.56503 123 128 124
1.89043 0.160378 6.33253 95 101 99
0.897413 -1.19744 4.45691 172 158 155
1.94833 -0.0559547 6.40655 34 36 23
2.07823 -0.529619 6.61079 66 65 63
2.04027 -0.243095 6.53561 87 89 84
2.05007 -0.264308 6.5379 35 36 28
1.32262 1.88621 5.13315 122 124 123
-1.57219 2.29601 -0.574358 34 36 33
2.37462 0.584658 7.07405 56 55 53
1.8871 0.064908 5.99788 211 210 205
-1.50029 3.07006 -0.67258 25 26 20
1.96894 -0.227213 6.10079 95 97 86
1.75925 0.428029 5.72804 69 66 49
1.5783 1.05137 5.37025 42 45 38
1.99179 -0.325414 5.96346 189 186 179
1.5927 0.874821 5.10429 23 23 15
2.24704 -0.87895 4.76729 208 208 200
2.23048 -0.864825 4.69261 197 197 189
2.56566 -1.80646 3.9173 200 199 195
-7.4422e+08 2.55675e+09 1.90073e+09 84 84 74
-8.10715e+08 2.70005e+09 1.81339e+09 106 106 98
-7.0354e+08 1.75669e+09 1.31432e+09 69 66 59
-1.8703 9.31185 36.2582 0 0 0
1.47736e+08 6.47636e+07 -9.96088e+08 0 0 0
1.17054 1.04171 15.8572 0 0 0
1.1752 1.03417 15.831 0 0 0
1.1752 1.03417 15.831 0 0 0
-13.7536 -19.0154 122.972 0 0 0
-17.0548 -5.77657 104.204 0 0 0
-16.6261 -14.1377 117.861 0 0 0
1.06083 1.62087 14.3298 0 0 0
1.06225 1.64982 14.1207 0 0 0
-22.8723 -16.7482 134.783 0 0 0
1.18149 1.85099 6.48378 83 79 67
1.7418 0.193265 7.33297 159 169 181
1.74072 0.192168 7.31986 164 172 183
1.69738 0.321174 7.24167 167 177 189
1.7143 0.265872 7.24956 168 176 189
1.74443 0.075844 7.11707 174 180 192
1.26551 1.82601 6.33525 56 55 50
1.30425 1.71208 6.3469 72 75 64
1.40362 1.4078 6.48803 79 79 69
1.82906 -0.208426 7.15559 23 27 13
1.22999 1.94989 6.19044 194 194 186
1.37843 1.49037 6.4207 112 112 104
1.22919 1.95008 6.17632 194 194 186
1.38754 1.45805 6.42297 115 116 111
1.41651 1.36927 6.45291 98 94 85
1.2524 1.87124 6.18577 197 197 187
1.38544 1.46163 6.38443 99 95 83
1.87299 -0.368093 7.15712 16 15 10
1.31554 1.67606 6.27071 93 95 94
1.33643 1.61078 6.29986 121 123 120
1.34426 1.58686 6.30562 128 130 125
1.88572 -0.416357 7.15607 17 23 11
1.88975 -0.43086 7.1463 36 36 26
-0.531143 0.607823 3.51564 128 129 121
1.39628 1.42586 6.35498 128 129 121
1.44438 1.28492 6.42156 105 99 87
1.42953 1.32311 6.39437 124 121 116
1.325 1.64822 6.22378 115 117 116
1.51329 1.06267 6.49785 108 101 91
0.169947 -0.139054 4.44944 117 118 110
1.52227 1.04014 6.49631 114 116 105
1.88687 -0.446667 7.06356 21 20 15
1.3288 1.79109 5.96132 181 180 176
1.33059 1.79508 5.91332 187 188 183
1.15597 -0.368268 5.32651 190 186 183
1.71436 0.572745 6.42649 190 186 183
1.33586 1.79991 5.80804 192 192 190
1.89927 0.0444567 6.67148 25 31 29
1.746 0.496585 6.35128 135 112 106
1.33712 1.80261 5.71955 197 196 192
1.32525 1.8285 5.64397 208 209 203
1.32525 1.8285 5.64397 208 209 203
2.08904 0.0887028 6.90991 11 14 7
