ply
format ascii 1.0 
element vertex 1008
property float32 x 
property float32 y 
property float32 z
property uchar red  
property uchar green
property uchar blue
element face 0
property list uchar int vertex_indices
end_header
-1.34912 1.58921 2.45101 200 200 190
-1.34263 1.56612 2.46374 105 100 94
-1.37158 1.32902 2.55555 197 198 192
-1.36677 1.26072 2.53795 87 88 74
-1.34221 1.39628 2.50665 180 177 170
-1.35289 1.2828 2.52845 110 106 95
-1.33235 1.5324 2.53712 188 179 172
-1.35038 1.21008 2.57743 140 142 139
-1.48032 -0.207134 2.87903 108 109 104
-1.2929 1.49391 2.51621 129 128 126
-1.48502 -0.458553 2.9137 223 227 239
-1.29278 1.39898 2.53796 114 114 104
-1.27329 1.58025 2.50723 99 98 94
-1.33287 1.14916 2.63277 213 209 206
-1.2681 1.56977 2.51302 110 111 105
-1.46649 -0.396883 2.92606 108 113 109
-1.45147 -0.255729 2.9019 120 122 121
-1.46732 -0.666275 2.93431 220 226 238
-1.4001 0.299087 2.80269 119 121 107
-1.4001 0.299087 2.80269 119 121 107
-1.46029 -0.455229 2.93071 218 228 238
-1.42939 -0.129039 2.86934 17 20 13
-1.32146 1.1631 2.69234 216 216 216
-1.32449 1.00669 2.68291 245 246 241
-1.2793 1.29687 2.6117 50 46 43
-1.2793 1.29687 2.6117 50 46 43
-1.25095 1.60459 2.56859 130 129 125
-1.39454 -0.0156527 2.84889 58 60 55
-1.25541 1.37738 2.56877 210 210 208
-1.40465 -0.0867015 2.88754 33 33 31
-1.40163 -0.149793 2.87552 47 49 44
-1.26403 1.27642 2.59899 30 30 28
-1.38623 -0.121501 2.85062 32 32 30
-1.26334 1.29691 2.62113 30 35 28
-1.39463 -0.147567 2.88093 43 43 41
-1.35203 0.459948 2.82385 107 103 92
-1.37909 0.171957 2.87701 187 190 183
-1.31269 0.908385 2.75672 214 214 206
-1.40177 -0.376992 2.92322 109 113 112
-1.28565 1.14211 2.68297 216 215 211
-1.41105 -0.548266 2.949 219 225 237
-1.39487 -0.348218 2.93179 112 112 112
-1.24044 1.27648 2.61377 32 39 31
-1.24044 1.27648 2.61377 32 39 31
-1.38472 -0.328056 2.92183 145 147 146
-1.37721 -0.324149 2.90165 145 147 146
-1.36692 -0.0555084 2.88963 29 29 27
-1.36692 -0.0555084 2.88963 29 29 27
-1.36953 -0.261916 2.8936 132 136 137
-1.37682 -0.265357 2.91322 132 136 137
-1.38204 -0.309675 2.929 141 143 142
-1.22708 1.27604 2.62405 48 50 47
-1.33111 -0.080027 2.84788 11 12 7
-1.31414 -0.0250007 2.82353 9 11 6
-1.31414 -0.0250007 2.82353 9 11 6
-1.36197 -0.307203 2.93064 144 145 147
-1.27598 0.911597 2.77854 225 229 214
-1.35235 -0.33098 2.93585 148 150 149
-1.18274 1.57861 2.56642 152 153 155
-1.21125 1.30185 2.64719 213 214 209
-1.3391 -0.0636413 2.91906 25 25 25
-1.36285 -0.553022 2.97188 219 225 237
-1.31597 0.203424 2.87167 210 210 208
-1.31446 -0.0812519 2.86189 29 29 27
-1.36598 -0.044226 2.98277 25 27 24
-1.2313 1.1534 2.70139 211 206 202
-1.17352 1.52062 2.58755 164 165 167
-1.32372 -0.170732 2.93022 44 46 43
-1.2689 0.590388 2.81186 220 220 218
-1.16071 1.5557 2.58713 178 180 179
-1.3115 -0.0802344 2.92559 34 34 34
-1.30711 -0.039783 2.91966 22 25 18
-1.18484 1.31084 2.66196 113 111 99
-1.17759 1.29052 2.63835 131 131 123
-1.30468 -0.136491 2.93008 44 44 42
-1.28845 0.103527 2.90943 130 134 133
-1.32148 -0.541292 2.99 216 224 235
-1.28283 0.473557 2.90634 157 159 158
-1.31351 -0.415924 2.97801 104 106 105
-1.26008 0.466371 2.86781 160 162 161
-1.16059 1.28579 2.65109 213 214 209
-1.31123 -0.509308 2.99721 217 223 235
-1.14922 1.30491 2.68365 124 124 122
-1.17357 1.21036 2.7449 204 205 199
-1.16776 1.19906 2.71296 204 205 199
-1.18642 1.05778 2.75657 219 218 214
-1.18302 1.13182 2.74982 162 162 154
-1.2038 0.81422 2.80221 219 220 215
-1.18767 1.00327 2.76755 220 221 216
-1.18848 0.987706 2.77174 224 225 220
-1.24432 0.191623 2.91443 199 199 199
-1.27474 -0.205834 2.98638 98 106 109
-1.27474 -0.205834 2.98638 98 106 109
-1.28913 -0.418301 3.02532 163 163 163
-1.12923 1.35762 2.65273 213 208 204
-1.13931 1.29364 2.70733 211 212 206
-1.11046 1.29207 2.67779 210 211 205
-1.23384 -0.122272 3.06434 48 47 43
-1.15509 0.91095 2.87223 205 204 202
-1.15407 0.908908 2.87307 208 207 205
-1.23545 -0.401691 3.1159 206 207 202
-1.22673 -0.382281 3.1173 204 205 200
-1.13882 -0.385483 3.15968 206 203 196
-1.13179 -0.435349 3.16736 131 123 112
-1.12797 -0.377197 3.16017 209 208 204
-1.04449 -0.383366 3.21049 210 207 200
-1.01474 -0.412046 3.22555 211 211 203
-0.985858 0.0443499 3.15167 20 22 17
-0.995234 -0.409995 3.23998 208 209 203
-0.981019 -0.378992 3.24246 200 197 190
-0.981019 -0.378992 3.24246 200 197 190
-0.981529 -0.433917 3.2484 209 208 203
-0.97604 -0.482442 3.24458 205 202 195
-0.975168 -0.358091 3.24989 204 201 196
-0.942977 -0.0775046 3.23105 28 30 27
-0.925921 -0.759829 3.35462 208 209 204
-0.875551 0.17408 3.19073 165 165 165
-0.899823 -0.403284 3.29109 209 208 204
-0.835221 0.90054 3.06325 221 222 224
-0.822769 1.17043 3.0194 27 27 19
-0.914484 -0.857939 3.37341 207 204 197
-0.87891 -0.102779 3.2525 58 60 59
-1.02991 -2.53485 3.81012 13 16 7
-0.862306 0.20388 3.21314 185 185 185
-0.87564 -0.473597 3.29734 211 210 205
-0.861186 -0.115206 3.26388 40 42 39
-0.870584 -0.347924 3.30361 199 201 198
-0.86815 -0.485955 3.30221 212 211 206
-0.854234 -0.102357 3.27153 34 34 34
-0.852772 -0.129434 3.26699 40 42 39
-0.862162 -0.371799 3.31416 207 208 203
-0.857203 -0.303948 3.30198 149 151 148
-0.858468 -0.40082 3.30876 211 210 206
-0.83981 -0.0330046 3.2556 22 24 19
-0.826884 0.144595 3.2345 147 147 147
-0.845587 -0.369062 3.32005 207 208 203
-0.860345 -0.687165 3.38215 212 213 208
-0.853191 -0.698737 3.37461 214 213 208
-0.81478 0.143159 3.23478 145 145 145
-0.81478 0.143159 3.23478 145 145 145
-0.836293 -0.470126 3.32073 212 211 207
-0.768962 1.12591 3.05602 18 19 11
-0.839316 -0.613921 3.35765 207 212 208
-0.835666 -0.635493 3.36175 219 218 213
-0.802913 0.164043 3.23253 153 153 153
-0.887959 -2.04858 3.5782 123 124 119
-0.889373 -2.02966 3.58722 91 90 86
-0.823518 -0.538868 3.33167 202 199 194
-0.756237 1.15719 3.06231 13 18 12
-0.875632 -2.07729 3.59357 20 20 18
-0.727052 -2.31509 3.46477 1 13 9
-0.607383 0.50135 2.89614 174 176 171
-0.653166 0.545413 3.11906 174 176 171
-0.725483 -2.26438 3.47374 63 78 75
-0.7207 -2.27896 3.47003 152 140 140
-0.599085 0.750183 2.93779 99 102 93
-0.585788 1.03245 2.89093 11 16 9
-0.579928 1.17103 2.85537 38 38 26
-0.571356 1.31339 2.84061 37 37 25
-0.57136 1.26787 2.85327 38 38 26
-0.560483 1.54512 2.80144 13 16 7
-0.558273 1.59302 2.79241 17 20 13
-0.55499 1.58886 2.79689 14 17 10
-0.55623 1.29301 2.85082 31 32 18
-0.581684 0.520258 3.04703 178 177 172
-0.555992 0.703444 2.97502 226 228 225
-0.555992 0.703444 2.97502 226 228 225
-0.530986 1.30802 2.87414 37 38 24
-0.510654 1.46923 2.85318 50 50 38
-0.510374 1.47291 2.84971 50 50 38
-0.526484 0.601588 2.9884 188 190 187
-0.517033 0.746424 2.99328 231 232 227
-0.471737 1.19105 2.94204 19 22 13
-0.471737 1.19105 2.94204 19 22 13
-0.466249 0.847718 3.0097 220 221 216
-0.54626 -2.00213 3.52503 17 17 7
-0.560626 -2.57641 3.65296 21 22 16
-0.533848 -2.02166 3.52099 59 58 53
-0.439972 0.723173 3.02977 227 228 222
-0.523534 -2.46085 3.64305 58 60 49
-0.429247 0.834512 3.04152 219 220 215
-0.40713 1.62409 2.89399 13 16 9
-0.491644 -1.98241 3.51938 164 160 149
-0.509847 -2.51404 3.66092 52 48 37
-0.426428 0.730887 3.03696 209 208 203
-0.406757 0.851493 3.05181 220 219 214
-0.406757 0.851493 3.05181 220 219 214
-0.467077 -2.64382 3.72004 44 46 35
-0.374306 0.891009 3.07558 192 196 199
-0.379915 0.529721 3.16847 162 159 150
-0.379915 0.529721 3.16847 162 159 150
-0.440535 -2.5324 3.70944 50 46 37
-0.351742 1.36955 2.98943 18 19 13
-0.351742 1.36955 2.98943 18 19 13
-0.429917 -2.6224 3.73445 62 55 45
-0.424433 -2.44841 3.70198 41 35 23
-0.349619 0.860005 3.09441 152 153 147
-0.417692 -2.52996 3.7244 70 66 54
-0.413903 -2.40466 3.70001 63 57 43
-0.300318 1.02834 3.0992 128 129 131
-0.301474 0.887025 3.12309 171 172 167
-0.291077 1.15187 3.07978 109 117 120
-0.295428 0.8946 3.11431 160 161 156
-0.34834 -2.23643 3.68758 25 26 20
-0.284152 0.848669 3.14386 156 157 151
-0.284152 0.848669 3.14386 156 157 151
-0.279133 0.836528 3.14472 42 35 29
-0.337014 -2.70116 3.97764 72 49 41
-0.278432 -2.80153 3.97704 126 131 135
-0.284165 -2.74826 3.90628 126 131 135
-0.226467 -2.72009 3.99814 88 88 80
-0.225636 -2.27458 4.05038 26 23 14
-0.226774 -2.26634 4.0379 26 23 14
-0.22218 -2.34111 4.09313 68 66 54
-0.222947 -2.19965 4.03172 105 103 91
-0.221525 -2.2055 4.04095 105 103 91
-0.219229 -2.28908 4.05315 101 101 91
-0.213002 -2.19139 4.07222 70 67 60
-0.208523 -2.13268 4.03483 63 66 59
-0.210362 -2.27455 4.05872 53 52 47
-0.184132 -2.25047 4.10155 77 74 67
-0.177433 -2.31717 4.0926 71 73 62
-0.175519 -2.34891 4.09624 67 66 61
-0.169741 -2.31082 4.12153 62 65 56
-0.16953 -2.28588 4.11748 75 74 69
-0.1683 -2.76804 4.09732 100 96 85
-0.165708 -2.39607 4.10761 66 66 56
-0.155888 -2.14469 4.09787 73 69 60
-0.158462 -2.12785 4.06869 73 69 60
-0.138504 -2.82671 4.11637 104 100 91
-0.0834633 -2.82038 4.14814 120 116 107
-0.0784745 -2.92145 4.13122 118 111 101
-0.0626391 -2.09603 4.14545 25 24 20
-0.0623951 -2.82738 4.10909 114 110 101
-0.0594174 -2.43927 4.17566 56 55 50
-0.0634886 -2.89039 4.10498 118 109 100
-0.0634886 -2.89039 4.10498 118 109 100
-0.0222948 -1.84925 4.14498 169 162 152
0.0334916 -1.89305 4.17785 161 157 146
0.0488561 -2.78395 4.22037 82 81 77
0.0555215 -1.6875 4.14109 112 108 99
0.0580547 -2.3929 4.27939 139 135 124
0.0580547 -2.3929 4.27939 139 135 124
0.056797 -1.79475 4.14918 130 127 118
0.0537603 -2.70655 4.17906 79 75 72
0.0615746 -1.80693 4.15055 124 120 111
0.0751365 -2.85078 4.2342 69 70 65
0.0756764 -2.97064 4.20678 76 77 72
0.0770511 -2.33121 4.24616 149 142 134
0.0772022 -2.35568 4.28213 149 142 134
0.0775697 -2.39486 4.2896 129 125 116
0.0775697 -2.39486 4.2896 129 125 116
0.0748901 -1.84137 4.14929 104 94 84
0.0811023 -2.2709 4.27144 134 130 121
0.0791144 -2.23039 4.23453 134 135 127
0.100294 -2.35694 4.27219 123 114 105
0.100677 -2.7331 4.25201 69 55 52
0.102865 -2.32381 4.29429 141 132 123
0.0985712 -1.74112 4.14677 140 141 135
0.108951 -2.96807 4.2276 69 70 65
0.110362 -2.15775 4.25592 94 96 91
0.11688 -2.47983 4.30705 99 99 91
0.114939 -2.17739 4.2501 112 113 108
0.119235 -2.27411 4.29634 95 98 91
0.119235 -2.27411 4.29634 95 98 91
0.114047 -2.7065 4.22096 100 87 81
0.123068 -2.70147 4.2278 148 141 131
0.123825 -2.86184 4.2034 70 71 66
0.131656 -2.89805 4.25604 70 71 66
0.146827 -2.70209 4.2428 125 126 118
0.152282 -2.34987 4.30118 112 112 104
0.158111 -1.85886 4.21502 108 111 104
0.158556 -1.75872 4.2017 126 125 120
0.162028 -1.90543 4.2109 113 115 110
0.164267 -1.92469 4.2033 99 101 96
0.171633 -2.72507 4.2927 103 102 97
0.181847 -1.93691 4.22182 122 123 117
0.200088 -2.72551 4.31424 108 107 102
0.219521 -1.83676 4.29578 99 98 93
0.218755 -1.83294 4.29091 99 98 93
0.227002 -2.43809 4.38122 109 111 106
0.225175 -2.85747 4.35684 93 82 76
0.230743 -2.40648 4.38755 107 106 102
0.252945 -2.88189 4.32985 48 53 49
0.25368 -1.82117 4.29386 118 117 112
0.263109 -2.73858 4.38091 108 108 100
0.263098 -2.83287 4.35509 100 100 92
0.280809 -2.78904 4.40207 108 109 104
0.280733 -2.43727 4.41469 128 129 123
0.305561 -2.23563 4.42033 106 107 101
0.303914 -2.32256 4.41233 97 98 92
0.31226 -2.3035 4.42485 114 117 108
0.32414 -2.28584 4.45186 135 135 125
0.321976 -2.18787 4.4072 102 101 97
0.340174 -2.74713 4.45569 85 85 75
0.334796 -2.02321 4.40234 105 106 100
0.338141 -2.18828 4.41572 112 113 107
0.339887 -2.21583 4.42489 105 106 100
0.338766 -1.9856 4.37739 113 114 106
0.340687 -2.07808 4.4023 123 124 118
0.349411 -2.15897 4.42149 137 138 132
0.355907 -2.36407 4.45266 100 101 95
0.369374 -2.08769 4.42591 104 103 98
0.367148 -1.91687 4.38047 104 106 101
0.376016 -2.23701 4.44835 119 120 114
0.393708 -2.87086 4.4197 108 108 100
0.405201 -2.74933 4.44799 101 101 93
0.405201 -2.74933 4.44799 101 101 93
0.428731 -2.75071 4.5233 80 77 68
0.412332 -2.68666 4.42326 93 93 81
0.435386 -2.68647 4.4376 107 97 85
0.435738 -1.24552 4.33077 123 117 105
0.450941 -2.72805 4.46921 111 103 90
0.466676 -2.38462 4.56368 114 107 97
0.459747 -2.32137 4.52197 115 107 96
0.459025 -2.28687 4.51523 124 115 106
0.462392 -2.20956 4.5085 118 110 99
0.4924 -2.73146 4.60451 110 101 92
0.451402 -0.378021 4.36376 131 122 113
0.464485 -2.70063 4.4794 101 97 85
0.47549 -2.36417 4.54058 105 98 88
0.473813 -2.28778 4.52193 97 87 78
0.459189 -0.403996 4.37189 128 120 109
0.501395 -3.48617 4.7438 86 83 74
0.493975 -1.81672 4.47616 117 111 99
0.522513 -3.50624 4.74841 94 92 80
0.491236 -2.68961 4.47658 108 102 90
0.499045 -2.05851 4.50978 115 109 97
0.497631 -2.05224 4.5029 115 109 97
0.497631 -2.05224 4.5029 115 109 97
0.53616 -1.78873 4.5034 124 116 105
0.479514 1.43275 4.04461 99 99 91
0.575084 -3.47991 4.79121 78 78 68
0.575084 -3.47991 4.79121 78 78 68
0.543192 -2.94504 4.45096 104 100 88
0.566653 -1.9064 4.54402 111 104 94
0.537776 -0.368402 4.25692 100 96 87
0.583133 -2.29259 4.59295 117 113 101
0.540002 -0.461514 4.24793 85 86 81
0.584621 -2.9293 4.61308 100 98 86
0.564847 -2.70621 4.46296 111 107 96
0.591999 -2.50322 4.58641 0 0 0
0.586965 -1.21495 4.42745 0 0 0
0.645818 -3.4776 4.82899 0 0 0
0.615419 -1.97811 4.5312 0 0 0
0.612642 -1.99635 4.49223 0 0 0
0.604521 -1.10682 4.41004 0 0 0
0.662006 -3.49599 4.83087 0 0 0
0.623452 -2.13576 4.529 0 0 0
0.613093 -0.81709 4.40348 0 0 0
0.625919 -1.92115 4.51744 0 0 0
0.677597 -3.47678 4.84774 0 0 0
0.677597 -3.47678 4.84774 0 0 0
0.632386 -0.856801 4.40921 0 0 0
0.619124 -0.467808 4.29785 0 0 0
0.626728 -0.580707 4.32386 0 0 0
0.660192 -1.89083 4.53657 0 0 0
0.576996 1.42425 3.97281 0 0 0
0.664774 -1.9209 4.54216 0 0 0
0.706619 -3.48976 4.82144 0 0 0
0.582764 1.41117 3.97852 0 0 0
0.672279 -1.89582 4.54548 0 0 0
0.616287 0.495556 4.17307 0 0 0
0.620418 0.341082 4.18652 0 0 0
0.627989 0.244767 4.21516 0 0 0
0.676284 -1.81934 4.51531 0 0 0
0.674723 -2.32183 4.49993 0 0 0
0.625288 0.603791 4.14575 0 0 0
0.621152 0.929069 4.09269 0 0 0
0.686907 -1.84492 4.49876 0 0 0
0.621288 1.09577 4.06692 0 0 0
0.671929 -2.95536 4.40041 0 0 0
0.684542 -2.94782 4.43684 0 0 0
0.623136 1.28625 4.03804 0 0 0
0.625457 1.25581 4.04568 0 0 0
0.704077 -2.73369 4.47829 0 0 0
0.721123 -2.56522 4.54053 0 0 0
0.762214 -1.7478 4.4657 0 0 0
0.766845 -2.76794 4.37573 0 0 0
0.790839 -2.644 4.45262 0 0 0
0.801423 -2.5292 4.50219 0 0 0
0.776954 -2.80656 4.37305 0 0 0
0.799925 -2.43062 4.48812 0 0 0
0.77302 -2.9208 4.34819 0 0 0
0.805479 -2.55838 4.46618 0 0 0
0.804259 -2.77115 4.4197 0 0 0
0.802422 -1.9586 4.36973 0 0 0
0.728463 1.74414 3.90752 0 0 0
0.837669 -1.85081 4.4135 0 0 0
0.885633 -2.56963 4.56766 0 0 0
0.959903 -3.52159 4.79761 0 0 0
0.816918 0.717913 3.98063 0 0 0
0.820693 0.792438 3.96998 0 0 0
0.828074 0.778256 3.97173 0 0 0
0.969506 -3.00321 4.67849 0 0 0
0.85105 0.826517 4.03359 0 0 0
0.963269 -2.48813 4.60739 0 0 0
0.821392 1.4139 3.877 0 0 0
1.03186 -3.53961 4.84231 0 0 0
0.96898 -2.7625 4.51943 0 0 0
0.819 1.73678 3.81782 0 0 0
0.834406 1.38939 3.88093 0 0 0
0.853439 1.77906 3.89518 0 0 0
0.843365 1.47686 3.86977 0 0 0
1.06686 -3.51642 4.88002 0 0 0
1.02029 -2.47685 4.6397 0 0 0
1.04932 -2.89028 4.74201 0 0 0
1.04435 -2.77195 4.57749 0 0 0
0.918277 0.945349 4.02058 0 0 0
0.918277 0.945349 4.02058 0 0 0
0.947811 0.645367 4.13157 0 0 0
1.04973 -2.91817 4.54599 0 0 0
1.04973 -2.91817 4.54599 0 0 0
1.07432 -2.86888 4.60368 0 0 0
1.08184 -1.76891 4.60623 0 0 0
0.908993 -2.55753 3.86299 0 0 0
1.07439 -1.68452 4.55897 0 0 0
1.09686 -3.03882 4.6204 0 0 0
1.10726 -2.99709 4.58215 0 0 0
0.991839 1.75231 3.94495 0 0 0
1.02794 0.952493 4.0886 0 0 0
1.14895 0.964024 4.20594 0 0 0
1.36159 0.1562 4.78539 0 0 0
1.21697 1.45434 4.17768 0 0 0
1.20992 1.77932 4.1177 0 0 0
1.453 -0.204458 4.90223 0 0 0
1.52037 -0.157202 4.94556 0 0 0
1.5871 -0.917691 5.14339 0 0 0
1.4954 0.563291 4.84979 0 0 0
1.4954 0.563291 4.84979 0 0 0
1.52286 0.0753505 4.92253 0 0 0
1.52286 0.0753505 4.92253 0 0 0
1.56988 -0.708882 5.05837 0 0 0
1.67586 -0.746365 5.38846 0 0 0
1.57609 -0.523069 5.01689 0 0 0
1.59741 -0.467 5.05891 0 0 0
1.55566 0.135062 4.93321 0 0 0
1.66331 0.017238 5.26954 0 0 0
1.5914 0.302956 4.99883 0 0 0
1.60552 0.0892906 5.03924 0 0 0
1.63138 -0.0733748 5.06175 0 0 0
1.60137 -0.272369 4.98765 0 0 0
1.63245 -0.00896619 5.04412 0 0 0
1.65045 -0.112485 5.04123 0 0 0
1.65703 -0.294598 5.05986 0 0 0
1.65808 -0.0228 5.0224 0 0 0
1.65946 0.0829716 5.02567 0 0 0
1.68839 -0.734789 5.12383 0 0 0
1.58954 1.03209 4.82134 0 0 0
1.62869 0.142195 4.93688 0 0 0
1.61403 1.41443 4.86533 0 0 0
1.68384 -0.245471 5.076 0 0 0
1.6469 0.0304375 4.97931 0 0 0
1.66188 0.352868 4.99646 0 0 0
1.61851 1.46281 4.86307 0 0 0
1.58364 1.35615 4.77499 0 0 0
1.61346 0.635504 4.85887 0 0 0
1.68434 -0.0304471 5.04468 0 0 0
1.65156 0.756958 4.94123 0 0 0
1.62284 0.524795 4.87749 0 0 0
1.65446 0.79922 4.93394 0 0 0
1.6921 0.107044 5.0464 0 0 0
1.6418 1.24388 4.89279 0 0 0
1.63106 0.501639 4.88509 0 0 0
1.66675 0.149605 4.96235 0 0 0
1.66865 -0.00715228 4.96689 0 0 0
1.66865 -0.00715228 4.96689 0 0 0
1.6888 -0.307162 5.01694 0 0 0
1.80387 -0.318805 5.35372 0 0 0
1.6112 1.91218 4.75476 0 0 0
1.71282 0.0208819 5.04635 0 0 0
1.71282 0.0208819 5.04635 0 0 0
1.61325 1.35423 4.76677 0 0 0
1.73222 -0.206773 5.08679 0 0 0
1.81878 -0.211218 5.35576 0 0 0
1.7261 0.157791 5.06386 0 0 0
1.61932 1.30226 4.76146 0 0 0
1.60276 1.41576 4.71215 0 0 0
1.60083 1.43545 4.69487 0 0 0
1.60088 1.48658 4.69488 0 0 0
1.78161 1.6418 5.20541 0 0 0
1.60017 1.46409 4.6767 0 0 0
1.6776 1.30179 4.87543 0 0 0
1.68823 0.531294 4.92851 0 0 0
1.74843 0.159682 5.08052 0 0 0
1.58894 1.82891 4.61914 0 0 0
1.77262 0.161357 5.09665 0 0 0
1.59643 1.77318 4.61202 0 0 0
1.68211 1.44827 4.827 0 0 0
1.79623 -0.543826 5.17506 0 0 0
1.65743 1.87315 4.72605 0 0 0
1.80845 0.0534849 5.1245 0 0 0
1.82975 -0.353635 5.17779 0 0 0
1.75251 0.952231 4.94084 0 0 0
1.83699 0.0412426 5.14196 0 0 0
1.73621 1.2162 4.87307 0 0 0
1.86893 -0.304675 5.20587 0 0 0
1.85549 -0.44491 5.17776 0 0 0
1.85289 0.589292 5.11092 0 0 0
1.87034 -0.353117 5.15942 0 0 0
1.81921 0.798221 4.99998 0 0 0
1.85356 0.892615 5.07319 0 0 0
1.78837 1.21957 4.90955 0 0 0
1.85588 1.12082 5.04207 0 0 0
1.82052 1.86283 4.78342 0 0 0
1.9161 1.54167 4.90812 0 0 0
2.23527 1.55147 5.37702 0 0 0
2.25642 1.55649 5.38396 0 0 0
2.24454 1.94423 5.29911 0 0 0
3.33375 -5.63905 7.86213 0 0 0
2.25025 1.86737 5.30932 0 0 0
2.25025 1.86737 5.30932 0 0 0
3.35953 -5.47033 7.86014 0 0 0
3.38123 -5.60829 7.89461 0 0 0
3.38183 -5.62677 7.86398 0 0 0
3.40493 -4.75165 7.81196 0 0 0
3.43535 -5.64114 7.86659 0 0 0
3.43849 -5.75081 7.80326 0 0 0
3.43849 -5.75081 7.80326 0 0 0
3.51828 -5.58458 7.93713 0 0 0
3.48325 -4.51045 7.63685 0 0 0
3.48325 -4.51045 7.63685 0 0 0
3.48994 -4.07043 7.56938 0 0 0
3.46864 -3.71143 7.51409 0 0 0
3.53316 -4.5545 7.64069 0 0 0
3.49884 -3.91853 7.53911 0 0 0
3.49884 -3.91853 7.53911 0 0 0
3.59198 -4.23502 7.67631 0 0 0
3.61264 -4.43168 7.64565 0 0 0
2.86124 1.70453 5.97687 0 0 0
3.58278 -2.83194 7.43439 0 0 0
3.59104 -2.83242 7.42557 0 0 0
-1.40772 1.62223 2.57635 100 93 83
-1.29378 1.48181 2.43651 188 179 172
-1.51871 -0.521563 2.9373 220 226 238
-1.49797 -0.201152 2.91046 88 86 74
-1.34457 1.36924 2.63698 130 130 128
-1.34457 1.36924 2.63698 130 130 128
-1.4826 -0.0940796 2.91365 108 112 115
-1.3472 1.2685 2.66518 200 195 192
-1.31973 1.64286 2.61201 118 119 113
-1.3182 1.63005 2.61292 110 111 105
-1.34121 1.27327 2.66877 205 204 199
-1.43744 0.212164 2.87805 125 122 115
-1.47361 -0.651383 2.95406 220 226 238
-1.42312 -0.53975 2.85772 222 226 238
-1.43271 0.223386 2.87828 122 122 112
-1.40719 0.550824 2.837 212 212 210
-1.36736 1.03256 2.76966 245 246 241
-1.42726 -0.240111 2.91582 118 120 119
-1.36755 0.878401 2.79545 220 216 213
-1.42002 -0.0323084 2.90707 87 87 85
-1.36011 0.890196 2.79638 216 213 208
-1.36011 0.890196 2.79638 216 213 208
-1.40433 -0.0741858 2.9052 24 24 22
-1.35426 0.809966 2.81235 225 216 211
-1.44084 -0.0861614 3.02198 30 32 29
-1.38268 0.205677 2.9014 157 152 148
-1.40204 -0.347096 2.94316 112 112 112
-1.38903 -0.175739 2.91645 44 45 39
-1.3765 0.0972746 2.91723 120 124 127
-1.39323 -0.546357 2.96287 218 224 236
-1.23975 1.64058 2.64353 145 143 146
-1.37637 -0.233415 2.93936 122 126 127
-1.44964 -0.872905 3.09698 215 221 233
-1.36168 0.0994624 2.92269 127 133 133
-1.35437 0.0354134 2.93598 12 17 11
-1.236 1.32119 2.68609 213 214 209
-1.34806 0.0978045 2.92963 131 133 132
-1.34589 -0.0422104 2.93917 25 27 24
-1.27241 1.18756 2.78055 108 105 96
-1.22891 1.30465 2.7098 128 119 112
-1.90082 0.232942 3.96129 130 131 135
-1.32642 -0.119127 2.96034 44 46 45
-1.16909 -0.0147065 2.74213 33 34 29
-1.28984 0.358888 2.90715 15 18 11
-1.20579 1.30741 2.71831 178 173 170
-1.30322 0.150415 2.94537 176 176 176
-1.95465 0.809989 4.25385 157 159 158
-1.27527 0.469144 2.8927 160 162 161
-1.22584 1.18731 2.8058 210 209 205
-1.25791 0.600241 2.88165 221 221 219
-1.1792 1.40285 2.70279 215 214 209
-1.10363 1.23671 2.53355 223 224 219
-1.28274 0.257293 2.96723 221 221 219
-1.20566 1.20762 2.80042 214 213 208
-1.24156 -0.39996 3.12703 206 207 202
-1.18358 -0.372453 3.04355 207 208 203
-1.2192 -0.445742 3.13656 205 204 199
-1.17968 0.125396 3.04729 142 146 147
-1.16461 -0.394093 3.15778 202 198 189
-1.15207 -0.45222 3.16153 197 190 180
-1.1519 -0.389386 3.16823 201 201 193
-1.08756 -0.433997 3.02866 119 119 111
-1.12406 -0.450807 3.17131 155 157 156
-1.10464 -0.372342 3.1844 118 112 100
-1.09202 -0.489851 3.17374 212 211 207
-0.994278 -0.363907 3.05559 210 207 200
-1.01909 -0.482828 3.20684 210 207 200
-1.01179 -0.367257 3.22826 209 209 199
-0.944895 -0.408578 3.0365 207 204 197
-1.00503 -0.435274 3.2299 207 204 197
-0.899096 0.213539 3.20905 194 194 194
-0.892677 0.223422 3.21071 200 200 198
-0.882502 0.282246 3.19082 218 218 216
-0.90287 -0.349206 3.28734 152 151 149
-0.840488 0.181053 3.09482 178 178 178
-0.874713 0.189246 3.22129 178 178 178
-0.861069 0.317927 3.20764 226 226 224
-0.86666 -0.0826979 3.27316 27 29 24
-0.798954 -0.145463 3.07902 40 42 37
-0.864461 -0.73646 3.35268 210 209 205
-0.845371 -0.470183 3.29342 211 210 206
-0.790757 0.136861 3.08798 147 147 147
-0.852692 -0.641224 3.33494 213 212 208
-0.839507 -0.470502 3.29707 213 209 206
-0.834787 -0.495502 3.30068 208 207 203
-0.773212 -0.468362 3.30141 212 211 207
-0.514012 -2.72204 3.86745 30 23 15
-0.38013 -2.49082 3.87533 27 27 19
-0.328644 -2.39435 3.96697 26 25 21
-0.330415 -2.39062 3.96279 26 25 21
-0.319529 -2.0795 3.9245 63 62 57
-0.314661 -2.60277 3.86977 231 223 220
-0.321404 -2.40155 3.96866 20 24 23
-0.298769 -2.69862 3.82362 35 31 30
-0.303339 -2.28573 3.97743 145 140 134
-0.301939 -2.23975 3.96283 66 58 55
-0.301887 -2.32254 3.97038 87 82 78
-0.288714 -2.3452 3.98821 56 59 52
-0.275389 -2.74224 3.84089 109 115 115
-0.275389 -2.74224 3.84089 109 115 115
-0.282634 -2.14995 3.96327 81 78 71
-0.258273 -2.20091 3.99087 56 63 56
-0.233455 -2.35234 4.02893 27 29 26
-0.225848 -2.6822 3.94471 90 91 83
-0.224318 -2.13826 4.00031 68 68 58
-0.224879 -2.21115 4.01173 74 74 64
-0.213513 -2.30895 4.03087 87 82 76
-0.210939 -2.35725 4.0317 87 84 77
-0.204039 -2.6928 3.95444 93 90 83
-0.204722 -2.14807 4.01952 62 65 58
-0.196101 -2.29635 4.04496 56 56 54
-0.145834 -1.54349 3.01211 68 69 63
-0.182004 -2.15551 4.03402 58 51 45
-0.181933 -2.22145 4.04453 73 70 65
-0.180339 -2.36544 4.06612 72 68 57
-0.176786 -2.2518 4.05033 73 72 68
-0.162992 -2.15291 4.04735 71 72 66
-0.163095 -2.18889 4.05287 70 73 64
-0.158214 -1.59651 3.94379 203 202 197
-0.160721 -2.33003 4.07497 64 65 57
-0.147403 -2.74582 4.00238 99 97 85
-0.149413 -2.30304 4.07558 91 86 80
-0.0929379 -2.72675 4.03864 120 113 103
-0.0929379 -2.72675 4.03864 120 113 103
-0.0873341 -2.75591 4.0448 122 115 107
-0.0763178 -2.83254 4.01767 118 111 101
-0.0714786 -2.67879 4.05255 120 111 102
-0.0531181 -2.36852 4.15455 19 19 11
-0.0662168 -2.73759 4.15273 120 116 107
-0.0448323 -2.7358 4.16931 114 110 99
-0.0216983 -1.84899 4.14097 169 162 152
-0.0133809 -2.78876 4.08918 115 111 102
0.00548428 -1.46671 3.23121 165 158 148
0.0231615 -2.70071 4.11566 103 98 94
0.031898 -2.67982 4.12733 81 82 76
0.0376002 -2.20318 4.1995 160 153 143
0.0391781 -1.72518 4.13236 145 137 126
0.0391781 -1.72518 4.13236 145 137 126
0.0435299 -2.21384 4.20186 159 150 141
0.0605525 -2.13929 4.20347 154 149 143
0.0606326 -1.92376 4.1148 146 141 135
0.0670056 -2.26752 4.22625 148 148 140
0.0670056 -2.26752 4.22625 148 148 140
0.0727921 -1.84102 4.14068 104 94 84
0.0815687 -2.74143 4.26147 47 39 36
0.105597 -2.83674 4.15488 75 77 72
0.105597 -2.83674 4.15488 75 77 72
0.108323 -1.65752 4.15604 140 143 136
0.118481 -2.30757 4.26067 126 122 113
0.114143 -2.31037 4.26245 126 122 113
0.11269 -1.74547 4.16132 114 115 107
0.119605 -2.26686 4.261 103 104 98
0.123188 -2.69594 4.18697 28 30 25
0.121974 -2.05871 4.23101 114 115 109
0.131178 -2.20447 4.2645 119 116 109
0.131178 -2.20447 4.2645 119 116 109
0.147334 -1.68844 4.19001 122 121 116
0.147334 -1.68844 4.19001 122 121 116
0.134377 -2.92187 4.31063 64 65 60
0.134377 -2.92187 4.31063 64 65 60
0.157286 -2.74306 4.31541 120 119 114
0.175883 -2.83232 4.19854 58 60 57
0.175883 -2.83232 4.19854 58 60 57
0.197848 -2.72543 4.25165 148 149 141
0.197848 -2.72543 4.25165 148 149 141
0.210496 -2.38797 4.34214 107 108 102
0.210496 -2.38797 4.34214 107 108 102
0.211052 -2.27391 4.3161 113 115 110
0.234147 -2.68262 4.27143 102 103 95
0.237606 -2.7189 4.26943 87 88 80
0.254401 -1.82183 4.28514 118 117 112
0.277592 -2.74869 4.40618 96 97 91
0.282034 -2.92477 4.41702 45 49 48
0.305808 -2.10302 4.37991 102 103 97
0.328618 -2.28199 4.43797 124 121 112
0.32361 -2.27284 4.41219 124 121 112
0.325685 -2.34791 4.42158 113 114 108
0.330056 -2.34856 4.42832 121 122 116
0.352648 -2.13631 4.4145 110 107 100
0.357334 -2.37979 4.44857 105 108 101
0.357654 -2.16993 4.42572 113 115 110
0.358272 -2.1241 4.42156 132 129 122
0.370121 -2.31329 4.48441 129 130 124
0.43386 -1.72513 4.46936 115 105 95
0.447318 -2.27827 4.50479 119 109 99
0.431764 0.797588 4.34619 133 109 85
0.448066 -1.61834 4.42331 128 122 110
0.456201 -2.25058 4.50221 118 109 100
0.462668 -2.26124 4.51401 119 111 100
0.444684 -1.34583 4.30472 128 122 110
0.463641 -2.1441 4.4999 107 100 90
0.463641 -2.1441 4.4999 107 100 90
0.487327 -1.78411 4.48441 108 99 90
0.553218 -0.529668 4.33406 101 94 86
0.576106 -0.530395 4.3691 0 0 0
0.598025 -1.1613 4.48851 0 0 0
0.611611 -2.90131 4.42715 0 0 0
0.640135 -0.314741 4.41757 0 0 0
0.659865 -1.90581 4.55465 0 0 0
0.64316 -0.0222259 4.37586 0 0 0
0.816539 -2.53817 4.49084 0 0 0
0.818182 -2.49319 4.4854 0 0 0
0.840517 -2.44419 4.5005 0 0 0
0.842728 -2.50774 4.5079 0 0 0
0.925187 -1.8243 4.53073 0 0 0
0.956209 -3.19365 4.84403 0 0 0
0.961052 -2.92663 4.47414 0 0 0
0.97144 -2.87919 4.50291 0 0 0
1.04825 -2.72379 4.71026 0 0 0
1.03407 -2.49937 4.64227 0 0 0
1.00781 -2.92314 4.50252 0 0 0
1.00781 -2.92314 4.50252 0 0 0
1.08483 -2.45724 4.66977 0 0 0
1.07839 -3.01413 4.95191 0 0 0
1.07223 -2.7827 4.57479 0 0 0
1.11201 -2.49494 4.6948 0 0 0
1.12085 -3.01778 4.98723 0 0 0
1.1493 -0.29769 4.54722 0 0 0
1.27097 -0.258233 4.88682 0 0 0
1.27432 -0.285856 4.87971 0 0 0
1.28099 0.249711 4.84557 0 0 0
1.74705 -0.364008 6.56719 0 0 0
1.38259 0.272387 5.07403 0 0 0
1.34701 -0.414887 4.92386 0 0 0
1.41047 -0.2971 4.9913 0 0 0
1.45131 0.389662 5.10249 0 0 0
1.42406 -0.328078 4.98306 0 0 0
1.46483 0.4651 5.10548 0 0 0
1.48325 -0.237955 5.19379 0 0 0
1.44096 0.18632 4.96336 0 0 0
1.48232 0.644252 5.09487 0 0 0
1.49155 0.906106 5.06225 0 0 0
1.49143 1.45885 5.0044 0 0 0
1.52047 -0.245392 5.07267 0 0 0
1.5652 -0.244511 5.27684 0 0 0
1.74687 -0.114773 5.74335 0 0 0
1.53884 -0.0887213 5.04785 0 0 0
1.74775 -0.487974 5.7076 0 0 0
1.55635 -0.424028 5.08202 0 0 0
1.58256 -0.761085 5.15752 0 0 0
1.56454 -0.294854 5.08984 0 0 0
1.57086 -0.167974 5.09213 0 0 0
1.55432 0.245327 5.02194 0 0 0
1.57095 0.0241786 5.06932 0 0 0
1.5579 1.13119 4.93698 0 0 0
1.5971 0.362992 5.0557 0 0 0
1.5467 1.62491 4.8597 0 0 0
1.59943 0.843081 5.00106 0 0 0
1.62304 0.363606 5.07413 0 0 0
1.63633 0.266024 5.08628 0 0 0
1.68655 0.36997 5.31129 0 0 0
1.64123 0.536306 5.05878 0 0 0
1.65948 -0.210276 5.10208 0 0 0
1.60909 1.46156 4.93926 0 0 0
1.60545 1.57349 4.92042 0 0 0
1.6559 -0.417492 5.0746 0 0 0
1.61872 1.51863 4.94055 0 0 0
1.67856 -0.193028 5.11345 0 0 0
1.67924 -0.21203 5.11532 0 0 0
1.62474 1.53716 4.93887 0 0 0
1.6655 0.244233 5.05812 0 0 0
1.7174 -0.757426 5.2139 0 0 0
1.68631 -0.373621 5.11611 0 0 0
1.67846 -0.00074794 5.0874 0 0 0
1.75438 -0.269676 5.38774 0 0 0
1.66364 0.533839 5.03414 0 0 0
1.64281 1.47674 4.95247 0 0 0
1.65705 1.14546 4.99049 0 0 0
1.69588 -0.0817048 5.1066 0 0 0
1.69683 0.0529295 5.10848 0 0 0
1.66571 0.726436 5.01395 0 0 0
1.70127 -0.0174264 5.09644 0 0 0
1.65926 1.41322 4.95786 0 0 0
1.69009 0.764644 5.022 0 0 0
1.71159 0.555326 5.06416 0 0 0
1.72657 0.278169 5.09683 0 0 0
1.66915 1.48177 4.92161 0 0 0
1.73341 -0.0769369 5.111 0 0 0
1.7055 0.957206 5.01447 0 0 0
1.7606 -0.100188 5.13419 0 0 0
1.76516 -0.167402 5.13998 0 0 0
1.76516 -0.167402 5.13998 0 0 0
1.71096 1.4452 4.96863 0 0 0
1.77185 -0.0743444 5.14066 0 0 0
1.73431 0.833956 5.03099 0 0 0
1.78456 -0.167427 5.15642 0 0 0
1.67134 1.75757 4.82711 0 0 0
1.67281 1.91423 4.80855 0 0 0
1.85359 -0.634812 5.29986 0 0 0
1.84636 -0.553293 5.27307 0 0 0
1.81071 0.278764 5.14943 0 0 0
1.88869 0.193198 5.47024 0 0 0
1.79827 0.674001 5.10356 0 0 0
1.85834 -0.292749 5.23338 0 0 0
1.85486 0.25001 5.20303 0 0 0
1.85718 0.379873 5.19503 0 0 0
1.75833 1.60274 4.91206 0 0 0
1.75833 1.60274 4.91206 0 0 0
2.06741 0.293964 5.76789 0 0 0
1.93728 0.353469 5.52311 0 0 0
1.88701 -0.338208 5.25315 0 0 0
1.96118 0.0548794 5.55251 0 0 0
1.86438 0.653535 5.17244 0 0 0
1.8658 0.556814 5.172 0 0 0
1.90652 -0.394303 5.24722 0 0 0
1.90652 -0.394303 5.24722 0 0 0
1.85917 1.18111 5.11435 0 0 0
1.86855 0.916768 5.13521 0 0 0
1.89901 0.990199 5.12532 0 0 0
1.84662 1.61156 4.97977 0 0 0
1.95241 1.71218 5.03239 0 0 0
-1.33097 1.53303 2.54264 128 128 126
-1.3491 1.2783 2.59881 42 37 34
-1.31012 1.35642 2.58864 215 214 209
-1.29145 1.52793 2.56626 151 151 151
-1.37551 0.542679 2.79869 200 199 195
-1.40227 -0.48501 2.601 213 220 228
-1.4564 -0.555211 2.93014 220 227 235
-1.39417 -0.0777154 2.89675 179 180 175
-1.40963 -0.373915 2.93475 220 227 235
-1.15687 1.3063 2.68109 45 47 42
-1.28908 -0.558679 3.00976 217 214 209
-1.21249 -0.386305 3.12473 205 201 192
-1.17365 0.125104 3.04812 21 23 18
-1.10235 -0.442576 3.1135 212 209 200
-1.08664 -0.491965 3.17647 145 135 126
-1.04443 -0.383991 3.21068 217 214 207
-0.870513 -0.113805 3.2584 209 206 199
-0.849425 -0.14933 3.27716 210 209 204
-0.534432 1.05385 2.90903 10 15 9
-0.540928 0.596831 2.97923 164 164 156
-0.49854 1.55252 2.8407 10 12 9
-0.511966 0.712662 2.97793 189 186 179
-0.526345 -2.84423 3.53406 71 54 46
-0.265948 1.21337 3.07822 30 31 26
-0.233942 -2.39847 4.04394 113 106 96
-0.202038 -2.08668 4.05906 23 24 19
-0.328496 -2.93089 3.65887 109 105 94
-0.324738 -2.97606 3.61526 112 108 96
-0.209057 -2.88699 3.9961 72 62 53
-0.0528129 -2.76444 4.12008 81 80 75
-0.0726514 -1.71095 3.78826 148 142 128
0.00422511 -1.88736 4.15323 169 163 149
0.0448923 -1.80536 4.14334 138 134 125
0.591223 -2.70469 4.48072 105 101 90
0.576729 -2.86543 4.45444 113 109 100
0.78289 -2.66074 4.43162 110 106 94
1.55028 -0.402969 5.02178 0 0 0
1.62786 0.839146 4.95567 0 0 0
1.81716 -0.304957 5.37133 0 0 0
-3.22732 -0.831338 7.24385 153 153 153
-1.77344 1.40975 4.42535 220 221 216
-1.69411 -0.904565 6.25708 210 209 204
-1.29652 0.665831 6.25178 227 227 225
-1.28264 0.658518 6.29266 226 227 222
-1.25196 0.636972 6.385 227 228 223
-1.23792 0.757192 6.37385 220 221 216
-1.23792 0.757192 6.37385 220 221 216
-1.19282 0.639973 6.55605 233 232 227
-1.18021 0.717758 6.53859 152 149 144
-1.11168 0.513503 6.87034 162 163 157
-1.11357 0.648476 6.75929 161 162 154
-0.158037 -1.64223 2.83046 61 61 53
-0.22065 -2.31839 4.00156 63 64 56
-0.217087 -2.25474 3.9954 101 101 91
-0.186891 -2.78478 4.05962 102 93 84
-0.0933066 -1.93231 2.89172 107 103 94
-0.0796384 -2.05983 2.90506 106 101 95
-0.0635116 -2.8354 4.15145 122 118 107
-0.0496558 -2.38177 4.13753 18 19 13
0.00671581 -2.78405 4.19943 113 109 98
0.0303147 -2.85826 4.22186 86 85 80
0.0474928 -2.78471 4.23032 82 81 77
0.0616168 -2.0068 3.11662 44 46 43
0.244616 -2.39524 4.39635 107 106 102
0.252216 -2.92388 4.39148 48 53 49
0.292421 -2.14876 3.50302 91 91 83
0.337338 -2.0373 3.70119 102 95 85
0.394428 -1.88825 3.84641 118 110 99
0.993164 0.755863 3.97583 0 0 0
1.41823 -0.0718875 5.33723 0 0 0
2.09437 -0.415341 6.96014 0 0 0
1.7873 -0.671303 5.48418 0 0 0
-1.84966 -0.317821 4.65968 219 226 234
-0.807693 -0.228865 9.59833 137 130 120
-1.35753 -0.0771562 3.21393 208 205 196
-0.810654 -0.226851 9.6038 219 216 209
-0.152081 -2.72804 4.04024 118 111 101
-0.215376 -2.66012 3.69849 116 109 99
-0.0695897 -2.74941 4.07086 81 80 75
-0.0269033 -2.85666 4.15136 77 76 71
0.458952 -2.47918 4.6005 123 116 106
0.288606 -2.53029 4.1281 29 31 26
1.97642 1.05895 5.39601 0 0 0
-2.08839 -0.204417 3.6222 72 67 61
-2.03343 -0.54945 3.57436 73 71 59
29.9563 3.869 -37.9642 159 162 151
29.9563 3.869 -37.9642 159 162 151
-30.0411 -0.0198912 40.6439 143 147 132
-1.85903 -0.490842 3.71684 214 216 215
6.04538 -0.505761 -7.07168 218 217 215
-1.62427 -0.436454 3.86866 184 182 183
-1.6107 -0.442755 3.87679 186 184 185
-0.0261341 -1.63438 1.99495 38 35 30
0.959847 -0.106704 0.000880923 214 210 207
0.959847 -0.106704 0.000880923 214 210 207
0.76567 -0.326054 0.443754 214 215 209
-0.754689 -2.7897 3.89331 17 23 11
0.595962 -0.585075 0.87634 83 83 75
-0.686704 -2.78741 3.93198 38 34 23
-2.07551 -1.47443 13.4212 45 43 31
-0.573299 -2.52571 4.06651 71 71 63
-2.48362 -1.74123 14.4325 99 104 100
-0.519759 -3.17299 4.02322 46 42 31
-0.170589 -2.23301 3.84859 87 80 72
-0.235923 -2.33164 4.03909 87 80 72
-0.187029 -2.92217 4.11306 17 19 16
-0.180585 -2.26114 4.07445 66 69 60
-0.155583 -2.92234 4.13289 86 92 82
-0.133705 -2.07479 4.09059 205 206 200
-0.0911843 -2.74565 4.16092 72 73 65
-0.0882494 -2.81601 4.16354 64 59 55
-0.054319 -2.26195 4.14061 115 102 94
-0.054319 -2.26195 4.14061 115 102 94
-0.00298512 -2.92119 4.22954 25 28 21
-0.00298512 -2.92119 4.22954 25 28 21
0.0425726 -2.04759 4.16715 211 210 206
0.0595411 -2.74302 4.25797 162 158 146
0.0908652 -1.75663 4.20114 21 22 17
0.0959465 -2.12039 4.21908 188 182 170
0.100358 -2.92401 4.29966 136 132 123
0.172671 -3.32587 4.35037 79 80 75
0.178689 -2.92499 4.35377 114 111 104
0.178689 -2.92499 4.35377 114 111 104
0.188684 -3.35503 4.36631 79 80 75
0.183784 -2.74149 4.34483 125 126 120
0.210307 -3.33249 4.38461 85 74 70
0.211111 -2.74145 4.36572 111 112 106
0.210913 -2.43851 4.38293 142 142 132
0.232786 -2.74326 4.3827 108 109 103
0.266489 -3.30779 4.4358 122 123 117
0.263643 -2.7898 4.40946 116 117 111
0.285445 -3.30286 4.45303 98 99 93
0.30641 -3.37594 4.47661 88 90 79
0.302167 -2.27168 4.40116 135 130 124
0.305301 -2.74875 4.44076 110 111 105
0.329749 -2.18155 4.40309 115 103 91
0.335027 -3.38617 4.50574 99 99 91
0.331509 -2.29689 4.42549 141 142 136
0.35618 -2.74937 4.48285 125 121 110
0.465653 -2.22827 4.54518 132 124 113
0.759642 -3.22635 4.7505 0 0 0
1.00202 -3.56715 5.03384 0 0 0
1.00823 -3.60483 5.03915 0 0 0
1.00823 -3.60483 5.03915 0 0 0
0.875185 -3.08074 4.83892 0 0 0
1.01973 -3.56469 5.04855 0 0 0
1.07666 -3.59594 5.09533 0 0 0
0.959198 -3.10517 4.90308 0 0 0
1.09981 -3.6082 5.11407 0 0 0
1.00322 -3.10412 4.93421 0 0 0
1.04941 -2.74697 4.99169 0 0 0
1.07766 -3.09977 4.99094 0 0 0
1.08546 -3.24694 4.99702 0 0 0
1.08546 -3.24694 4.99702 0 0 0
1.12291 -3.2453 5.02441 0 0 0
1.23562 -0.18343 4.97507 0 0 0
1.26789 -0.0749517 5.02728 0 0 0
1.26789 -0.0749517 5.02728 0 0 0
1.29243 -0.211621 5.01678 0 0 0
1.39932 -0.230124 5.13684 0 0 0
1.55038 -0.123595 5.33761 0 0 0
1.60345 0.0308023 5.37894 0 0 0
1.7995 0.0286923 5.46791 0 0 0
1.83874 0.360937 5.5011 0 0 0
1.85685 0.322425 5.51608 0 0 0
