ply
format ascii 1.0 
element vertex 1368
property float32 x 
property float32 y 
property float32 z
property uchar red  
property uchar green
property uchar blue
element face 0
property list uchar int vertex_indices
end_header
-0.339899 -1.87439 2.82967 63 78 75
-0.33448 -1.89185 2.82672 152 140 140
-0.201583 1.09503 1.79313 99 102 93
-0.190328 1.30187 1.72491 11 16 9
-0.190721 1.38143 1.65759 38 38 26
-0.178818 1.49786 1.65693 37 37 25
-0.178114 1.46824 1.67144 38 38 26
-0.170403 1.65461 1.60537 13 16 7
-0.168812 1.68602 1.59419 17 20 13
-0.165514 1.6847 1.59812 14 17 10
-0.167749 1.47122 1.64546 31 32 18
-0.177013 0.941458 1.91774 178 177 172
-0.157307 1.06797 1.82873 226 228 225
-0.157307 1.06797 1.82873 226 228 225
-0.138886 1.50446 1.68326 37 38 24
-0.121321 1.61593 1.65086 50 50 38
-0.124156 1.60362 1.63179 50 50 38
-0.133715 0.97976 1.82013 188 190 187
-0.117795 1.10742 1.83864 231 232 227
-0.0781875 1.43776 1.74781 19 22 13
-0.0781875 1.43776 1.74781 19 22 13
-0.0678126 1.19394 1.8424 220 221 216
-0.104108 -1.55376 2.84425 17 17 7
-0.10855 -2.33516 3.16551 21 22 16
-0.0892493 -1.57668 2.84078 59 58 53
-0.0463336 1.0875 1.84069 227 228 222
-0.0597779 -2.17274 3.12014 58 60 49
-0.028135 1.19132 1.86791 219 220 215
-0.0233415 1.73989 1.665 13 16 9
-0.0365887 -1.52654 2.82682 164 160 149
-0.0388022 -2.25042 3.16033 52 48 37
-0.032428 1.09537 1.84624 209 208 203
-0.00541642 1.20755 1.87394 220 219 214
-0.00541642 1.20755 1.87394 220 219 214
0.0295027 -2.45139 3.28741 44 46 35
0.0284636 1.24622 1.8895 192 196 199
0.0358549 0.981367 2.01909 162 159 150
0.0358549 0.981367 2.01909 162 159 150
0.063206 -2.28988 3.23984 50 46 37
0.037953 1.58497 1.76381 18 19 13
0.037953 1.58497 1.76381 18 19 13
0.0830829 -2.42505 3.3036 62 55 45
0.0829697 -2.17082 3.20584 41 35 23
0.0545256 1.22673 1.90808 152 153 147
0.0970798 -2.29081 3.26254 70 66 54
0.0963646 -2.11001 3.19123 63 57 43
0.101282 1.36029 1.89096 128 129 131
0.104291 1.25631 1.92798 171 172 167
0.106578 1.44926 1.85976 109 117 120
0.101821 1.24704 1.8927 160 161 156
0.178618 -1.87754 3.12451 25 26 20
0.124059 1.23194 1.95021 156 157 151
0.124059 1.23194 1.95021 156 157 151
0.12905 1.22203 1.95166 42 35 29
0.272487 -2.64611 3.77024 72 49 41
0.360451 -2.79603 3.79097 126 131 135
0.341965 -2.72931 3.69247 126 131 135
0.451529 -2.72709 3.85887 88 88 80
0.448383 -2.05 3.80236 26 23 14
0.464134 -2.14234 3.96907 26 23 14
0.463177 -2.14277 3.87708 68 66 54
0.472166 -2.03063 3.92307 105 103 91
0.448188 -1.94333 3.75898 105 103 91
0.459004 -2.07195 3.81128 101 101 91
0.464016 -1.91434 3.78723 70 67 60
0.461211 -1.83292 3.71916 63 66 59
0.472711 -2.05076 3.81518 53 52 47
0.517172 -2.00797 3.85914 77 74 67
0.533041 -2.12278 3.89047 71 73 62
0.538753 -2.17272 3.90908 67 66 61
0.547408 -2.10364 3.91664 62 65 56
0.545142 -2.06473 3.90006 75 74 69
0.561722 -2.80051 4.01421 100 96 85
0.559444 -2.24886 3.9473 66 66 56
0.551533 -1.84972 3.81352 73 69 60
0.541682 -1.82893 3.77086 73 69 60
0.616381 -2.90314 4.06996 104 100 91
0.71151 -2.90558 4.12683 120 116 107
0.718062 -3.06019 4.1232 118 111 101
0.698167 -1.78472 3.87522 25 24 20
0.741086 -2.93436 4.09029 114 110 101
0.742334 -2.32842 4.07778 56 55 50
0.774703 -3.15341 4.2684 118 109 100
0.774703 -3.15341 4.2684 118 109 100
0.739068 -1.42799 3.78634 169 162 152
0.832476 -1.49299 3.85421 161 157 146
0.95728 -2.89789 4.29092 82 81 77
0.829447 -1.19549 3.70151 112 108 99
0.951289 -2.26903 4.23513 139 135 124
0.951289 -2.26903 4.23513 139 135 124
0.845422 -1.34901 3.76117 130 127 118
0.932891 -2.7496 4.1615 79 75 72
0.853265 -1.36562 3.76629 124 120 111
1.00532 -3.00442 4.32408 69 70 65
0.989986 -3.17118 4.2769 76 77 72
0.968518 -2.18398 4.17988 149 142 134
0.977501 -2.20881 4.22193 149 142 134
0.98512 -2.2738 4.25326 129 125 116
0.98512 -2.2738 4.25326 129 125 116
0.870883 -1.40752 3.7636 104 94 84
0.970769 -2.07212 4.1662 134 130 121
0.972438 -2.03387 4.14944 134 135 127
1.01054 -2.2152 4.21175 123 114 105
1.03003 -2.79877 4.28657 69 55 52
1.01836 -2.16059 4.23065 141 132 123
0.916253 -1.34029 3.89751 140 141 135
1.05109 -3.17607 4.31595 69 70 65
0.995361 -1.88937 4.08325 94 96 91
1.05899 -2.39059 4.27946 99 99 91
1.02699 -1.95155 4.15364 112 113 108
1.03873 -2.08177 4.2123 95 98 91
1.03873 -2.08177 4.2123 95 98 91
1.04213 -2.76049 4.23583 100 87 81
1.05832 -2.75385 4.24607 148 141 131
1.08875 -3.09032 4.36463 70 71 66
1.09549 -3.09109 4.37076 70 71 66
1.10115 -2.7583 4.27238 125 126 118
1.09774 -2.19931 4.24579 112 112 104
1.01669 -1.44045 3.88501 108 111 104
0.997091 -1.28991 3.80972 126 125 120
1.02398 -1.5052 3.89051 113 115 110
1.02176 -1.52468 3.87088 99 101 96
1.15741 -2.79824 4.35835 103 102 97
1.05886 -1.55019 3.91709 122 123 117
1.21241 -2.80726 4.40115 108 107 102
1.13026 -1.40583 4.0031 99 98 93
1.13477 -1.41156 4.01586 99 98 93
1.26017 -2.36395 4.43896 109 111 106
1.2558 -2.97791 4.43554 93 82 76
1.26597 -2.31505 4.44052 107 106 102
1.31904 -3.07363 4.48445 48 53 49
1.19731 -1.41504 4.06864 118 117 112
1.30829 -2.77209 4.4146 108 108 100
1.34455 -3.00488 4.52368 100 100 92
1.33906 -2.84778 4.44593 108 109 104
1.3578 -2.36467 4.49483 128 129 123
1.33951 -1.99337 4.32137 106 107 101
1.37298 -2.16906 4.42667 97 98 92
1.39571 -2.15205 4.45982 114 117 108
1.36653 -2.04867 4.33917 135 135 125
1.37578 -1.94711 4.34679 102 101 97
1.42401 -2.75526 4.46519 85 85 75
1.37865 -1.7035 4.28912 105 106 100
1.40363 -1.9477 4.35986 112 113 107
1.41565 -1.99414 4.39209 105 106 100
1.3533 -1.62447 4.18879 113 114 106
1.39349 -1.78613 4.30746 123 124 118
1.4184 -1.901 4.35494 137 138 132
1.47859 -2.24296 4.51826 100 101 95
1.43809 -1.78721 4.32522 104 103 98
1.39666 -1.53491 4.18842 104 106 101
1.48417 -2.02931 4.44023 119 120 114
1.59031 -3.08822 4.65472 108 108 100
1.61005 -2.89259 4.66977 101 101 93
1.61005 -2.89259 4.66977 101 101 93
1.57386 -2.73352 4.51694 80 77 68
1.59755 -2.77207 4.5875 93 93 81
1.64111 -2.7742 4.61242 107 97 85
1.37793 -0.598192 3.83336 123 117 105
1.6901 -2.85844 4.69517 111 103 90
1.62869 -2.17098 4.4896 114 107 97
1.67895 -2.19804 4.64891 115 107 96
1.65335 -2.11793 4.58336 124 115 106
1.65523 -2.01 4.56587 118 110 99
1.66023 -2.67606 4.56945 110 101 92
1.32225 0.460454 3.63467 131 122 113
1.71385 -2.81485 4.70449 101 97 85
1.7229 -2.27486 4.7089 105 98 88
1.67907 -2.11901 4.59324 97 87 78
1.33856 0.433192 3.65464 128 120 109
2.17674 -4.63616 5.92413 86 83 74
1.59444 -1.36811 4.26517 117 111 99
2.22306 -4.67936 5.94134 94 92 80
1.75107 -2.78785 4.68506 108 102 90
1.66433 -1.74151 4.44453 115 109 97
1.67619 -1.75384 4.47174 115 109 97
1.67619 -1.75384 4.47174 115 109 97
1.66261 -1.32491 4.29348 124 116 105
1.06533 2.06461 2.75006 99 99 91
2.35673 -4.6623 6.04826 78 78 68
2.35673 -4.6623 6.04826 78 78 68
1.84717 -3.20315 4.70335 104 100 88
1.7508 -1.50299 4.42087 111 104 94
1.36402 0.433863 3.41613 100 96 87
1.90637 -2.15814 4.76183 117 113 101
1.37128 0.328178 3.42376 85 86 81
1.85133 -2.98185 4.63919 100 98 86
1.85264 -2.79386 4.63224 111 107 96
1.95249 -2.50881 4.83733 0 0 0
1.61942 -0.5453 3.95961 0 0 0
2.52344 -4.68266 6.14127 0 0 0
1.82162 -1.6035 4.4063 0 0 0
1.79518 -1.62429 4.33195 0 0 0
1.61496 -0.406728 3.88246 0 0 0
2.55796 -4.71919 6.14884 0 0 0
1.86262 -1.84843 4.47281 0 0 0
1.54668 -0.0412565 3.70155 0 0 0
1.81521 -1.51298 4.34634 0 0 0
2.60151 -4.69511 6.19025 0 0 0
2.60151 -4.69511 6.19025 0 0 0
1.57715 -0.086178 3.71539 0 0 0
1.48666 0.332816 3.48353 0 0 0
1.5228 0.212043 3.55668 0 0 0
1.86724 -1.46464 4.35839 0 0 0
1.1307 1.99765 2.6365 0 0 0
1.88339 -1.51118 4.383 0 0 0
2.61899 -4.66875 6.07984 0 0 0
1.13913 1.98927 2.64428 0 0 0
1.89034 -1.4721 4.37492 0 0 0
1.32393 1.27751 3.06149 0 0 0
1.34841 1.13457 3.11246 0 0 0
1.37911 1.05194 3.17443 0 0 0
1.88498 -1.37802 4.32662 0 0 0
1.95088 -2.1305 4.47643 0 0 0
1.3106 1.3649 2.99679 0 0 0
1.25643 1.63432 2.86291 0 0 0
1.88986 -1.41081 4.29333 0 0 0
1.23266 1.76629 2.79869 0 0 0
2.01537 -3.18155 4.57062 0 0 0
2.03516 -3.15159 4.5971 0 0 0
1.20843 1.91239 2.72847 0 0 0
1.21602 1.89082 2.74293 0 0 0
2.05705 -2.80511 4.59936 0 0 0
2.10363 -2.55426 4.67758 0 0 0
1.94051 -1.25398 4.14578 0 0 0
2.0877 -2.80932 4.38741 0 0 0
2.13063 -2.61178 4.44954 0 0 0
2.16643 -2.44885 4.51857 0 0 0
2.10827 -2.8712 4.39531 0 0 0
2.13179 -2.28202 4.44313 0 0 0
2.11059 -3.05741 4.39715 0 0 0
2.16106 -2.488 4.47022 0 0 0
2.14329 -2.79692 4.41369 0 0 0
1.94841 -1.52605 3.99143 0 0 0
1.21977 2.18623 2.47424 0 0 0
2.00613 -1.37775 4.03079 0 0 0
2.34671 -2.52917 4.6555 0 0 0
2.99297 -4.56488 5.82617 0 0 0
1.40445 1.36155 2.69121 0 0 0
1.39656 1.42082 2.66409 0 0 0
1.405 1.4082 2.66627 0 0 0
2.47703 -3.13399 4.74635 0 0 0
1.42538 1.45929 2.69338 0 0 0
2.46613 -2.39238 4.67434 0 0 0
1.30903 1.88917 2.45846 0 0 0
3.17086 -4.62941 5.93927 0 0 0
2.48538 -2.82739 4.63249 0 0 0
1.26142 2.10849 2.35001 0 0 0
1.32332 1.86922 2.4628 0 0 0
1.29244 2.13792 2.38186 0 0 0
1.31974 1.9306 2.4353 0 0 0
3.27205 -4.61418 6.03203 0 0 0
2.56799 -2.37395 4.71729 0 0 0
2.5782 -2.8999 4.7309 0 0 0
2.60287 -2.82201 4.67162 0 0 0
1.4918 1.56167 2.6741 0 0 0
1.4918 1.56167 2.6741 0 0 0
1.60134 1.3502 2.86306 0 0 0
2.6799 -3.13818 4.77593 0 0 0
2.67004 -3.10184 4.74823 0 0 0
2.69469 -2.99803 4.76727 0 0 0
2.43775 -1.2542 4.29517 0 0 0
1.7629 -2.11171 3.10194 0 0 0
2.36605 -1.12757 4.15963 0 0 0
2.79026 -3.30801 4.88221 0 0 0
2.74399 -3.19231 4.74664 0 0 0
1.45193 2.15678 2.44429 0 0 0
1.69364 1.64759 2.83948 0 0 0
1.77924 1.63331 2.83635 0 0 0
2.48642 1.14061 3.85749 0 0 0
1.76733 2.00981 2.6955 0 0 0
1.70006 2.23028 2.57671 0 0 0
2.75099 0.789983 4.14988 0 0 0
2.84407 0.855016 4.1824 0 0 0
3.2087 -0.00484637 4.71957 0 0 0
2.58073 1.56864 3.7866 0 0 0
2.58073 1.56864 3.7866 0 0 0
2.77142 1.10024 4.05737 0 0 0
2.77142 1.10024 4.05737 0 0 0
3.15589 0.235256 4.61038 0 0 0
2.97782 0.227578 4.3483 0 0 0
3.06159 0.45149 4.43431 0 0 0
2.99625 0.520933 4.33643 0 0 0
2.79642 1.16459 4.03911 0 0 0
2.79482 1.0235 4.03289 0 0 0
2.72814 1.31655 3.92929 0 0 0
2.82781 1.11819 4.0699 0 0 0
2.91595 0.955128 4.16138 0 0 0
2.98651 0.73329 4.25932 0 0 0
2.88493 1.01568 4.10486 0 0 0
2.92972 0.903737 4.13314 0 0 0
3.0048 0.712553 4.23728 0 0 0
2.89707 0.990113 4.06258 0 0 0
2.87115 1.10033 4.02648 0 0 0
3.34893 0.217626 4.68886 0 0 0
2.54651 1.97287 3.56268 0 0 0
2.85767 1.16124 3.9972 0 0 0
2.41787 2.23884 3.38099 0 0 0
3.02964 0.770673 4.23329 0 0 0
2.94193 1.06093 4.10761 0 0 0
2.77984 1.35531 3.87902 0 0 0
2.40788 2.26819 3.35816 0 0 0
2.45028 2.23011 3.41304 0 0 0
2.66985 1.61819 3.71652 0 0 0
2.94146 0.988529 4.09146 0 0 0
2.6362 1.71 3.66651 0 0 0
2.71592 1.51938 3.77543 0 0 0
2.62527 1.74484 3.6427 0 0 0
2.91116 1.13014 4.03772 0 0 0
2.49236 2.10752 3.45674 0 0 0
2.73443 1.49947 3.79164 0 0 0
2.91267 1.17619 4.02197 0 0 0
2.9548 1.01031 4.07959 0 0 0
2.9548 1.01031 4.07959 0 0 0
3.09888 0.695935 4.27269 0 0 0
3.01734 0.69155 4.15602 0 0 0
2.25715 2.54227 3.10496 0 0 0
2.9554 1.03982 4.06214 0 0 0
2.9554 1.03982 4.06214 0 0 0
2.46639 2.21331 3.38576 0 0 0
3.07389 0.813198 4.21416 0 0 0
3.01057 0.797238 4.12246 0 0 0
2.9423 1.1853 4.0328 0 0 0
2.47522 2.16256 3.38598 0 0 0
2.40715 2.22947 3.29228 0 0 0
2.39029 2.23466 3.26328 0 0 0
2.38238 2.27765 3.25236 0 0 0
2.52374 2.38916 3.43785 0 0 0
2.37147 2.24541 3.22943 0 0 0
2.50013 2.13801 3.40368 0 0 0
2.81329 1.54252 3.82969 0 0 0
2.97543 1.19191 4.04997 0 0 0
2.27195 2.50431 3.08174 0 0 0
3.01012 1.19791 4.06574 0 0 0
2.27952 2.45329 3.07771 0 0 0
2.44481 2.22558 3.29579 0 0 0
3.44576 0.467789 4.64709 0 0 0
2.28845 2.4906 3.06938 0 0 0
3.09775 1.09618 4.13915 0 0 0
3.29398 0.677307 4.39528 0 0 0
2.78814 1.93749 3.70003 0 0 0
3.14262 1.08808 4.16137 0 0 0
2.66681 2.13283 3.52704 0 0 0
3.33988 0.739412 4.40551 0 0 0
3.46438 0.583621 4.56462 0 0 0
2.97251 1.60647 3.89611 0 0 0
3.42391 0.682989 4.47329 0 0 0
2.92371 1.81531 3.80846 0 0 0
2.87025 1.86692 3.74069 0 0 0
2.73512 2.14663 3.55914 0 0 0
2.79627 2.04813 3.62454 0 0 0
2.54713 2.57965 3.20771 0 0 0
2.76201 2.38039 3.41337 0 0 0
3.42152 2.66391 4.0336 0 0 0
3.44188 2.6666 4.03248 0 0 0
3.25914 2.91882 3.78784 0 0 0
2.90454e+09 -2.57514e+09 3.38173e+09 0 0 0
3.2883 2.86399 3.81958 0 0 0
3.2883 2.86399 3.81958 0 0 0
3.52356e+08 -2.98359e+08 4.07648e+08 0 0 0
2.63149e+09 -2.28527e+09 3.04003e+09 0 0 0
3.09957e+09 -2.70984e+09 3.56952e+09 0 0 0
-2.26888e+06 1.57221e+06 -2.58047e+06 0 0 0
3.87766e+09 -3.36095e+09 4.41282e+09 0 0 0
4.5498e+09 -4.06239e+09 5.14193e+09 0 0 0
4.5498e+09 -4.06239e+09 5.14193e+09 0 0 0
4.17867e+09 -3.49256e+09 4.70146e+09 0 0 0
61.9032 -39.7658 67.9876 0 0 0
61.9032 -39.7658 67.9876 0 0 0
37.518 -20.8666 40.8617 0 0 0
28.7059 -14.0256 31.2355 0 0 0
-5.17538e+06 3.32537e+06 -5.61144e+06 0 0 0
32.3741 -17.0282 35.0803 0 0 0
32.3741 -17.0282 35.0803 0 0 0
48.2802 -27.5679 51.9803 0 0 0
50.4385 -30.7033 53.8917 0 0 0
4.47826 3.10467 4.73426 0 0 0
18.1505 -5.53777 19.0971 0 0 0
17.9404 -5.47257 18.8243 0 0 0
-0.912281 1.61476 1.41941 100 93 83
-1.26199 2.25509 2.03713 188 179 172
-1.64003 0.00125664 2.72895 220 226 238
-1.13435 0.291887 1.90922 88 86 74
-0.870142 1.45811 1.48381 130 130 128
-0.870142 1.45811 1.48381 130 130 128
-1.11329 0.38962 1.90283 108 112 115
-0.879335 1.39806 1.51711 200 195 192
-0.836377 1.64116 1.44405 118 119 113
-0.835218 1.63197 1.44502 110 111 105
-0.873778 1.4026 1.51945 205 204 199
-1.04269 0.647542 1.82791 125 122 115
-1.13717 -0.121369 1.99623 220 226 238
-1.55066 -0.0403739 2.72841 222 226 238
-1.03724 0.657138 1.8267 122 122 112
-0.989512 0.917344 1.75129 212 212 210
-0.919921 1.27045 1.63913 245 246 241
-1.05824 0.256346 1.90629 118 120 119
-0.929559 1.16163 1.67684 220 216 213
-1.03949 0.441103 1.87808 87 87 85
-0.921861 1.17085 1.67614 216 213 208
-0.921861 1.17085 1.67614 216 213 208
-1.4737 0.58087 2.70058 24 24 22
-0.920936 1.11345 1.69757 225 216 211
-1.50861 0.594184 2.81734 30 32 29
-0.988629 0.647397 1.8479 157 152 148
-1.03996 0.163865 1.94462 112 112 112
-1.01291 0.314046 1.89469 44 45 39
-0.988624 0.557355 1.87345 120 124 127
-1.04265 -0.0190434 1.9849 218 224 236
-0.767045 1.64908 1.46614 145 143 146
-1.00586 0.26714 1.92624 122 126 127
-1.15681 -0.326879 2.2161 215 221 233
-0.973426 0.5604 1.87743 127 133 133
-0.970084 0.507555 1.89709 12 17 11
-0.776245 1.4384 1.52329 213 214 209
-0.959807 0.560538 1.88357 131 133 132
-0.9645 0.439062 1.90565 25 27 24
-0.82301 1.38646 1.62839 108 105 96
-0.772047 1.43696 1.54638 128 119 112
-1.50222 0.878469 3.04071 130 131 135
-0.94993 0.375268 1.93514 44 46 45
-0.44165 0.312505 1.21421 33 34 29
-0.884219 0.775634 1.82685 15 18 11
-0.751179 1.44137 1.55225 178 173 170
-0.911564 0.609772 1.89063 176 176 176
-1.64257 1.29155 2.99456 157 159 158
-0.863159 0.862277 1.79962 160 162 161
-0.780214 1.39412 1.64822 210 209 205
-0.839343 0.965547 1.77486 221 221 219
-0.722817 1.50206 1.52913 215 214 209
-1.00343 1.99575 2.12755 223 224 219
-0.88856 0.709595 1.90519 221 221 219
-0.759515 1.40488 1.63857 214 213 208
-0.891058 0.151522 2.1636 206 207 202
-1.21595 0.239993 3.04581 207 208 203
-0.868334 0.108977 2.17669 205 204 199
-1.13605 0.885223 2.86529 142 146 147
-0.805392 0.163084 2.18815 202 198 189
-0.793706 0.107394 2.1971 197 190 180
-0.791625 0.169779 2.19913 201 201 193
-1.10391 0.154297 3.12683 119 119 111
-0.762286 0.110614 2.20431 155 157 156
-0.737967 0.189302 2.20883 118 112 100
-0.727226 0.0729791 2.20543 212 211 207
-0.972475 0.269634 3.23277 210 207 200
-0.645727 0.0860964 2.23445 210 207 200
-0.634268 0.202912 2.24748 209 209 199
-0.917951 0.202988 3.29275 207 204 197
-0.629039 0.137091 2.25683 207 204 197
-0.491491 0.732994 2.13067 194 194 194
-0.48444 0.742111 2.13064 200 200 198
-0.472593 0.787014 2.09893 218 218 216
-0.511104 0.232413 2.30104 152 151 149
-0.648592 0.994622 2.98355 178 178 178
-0.465896 0.714192 2.14396 178 178 178
-0.448693 0.82296 2.11094 226 226 224
-0.463407 0.481616 2.24055 27 29 24
-0.664445 0.617237 3.34484 40 42 37
-0.47803 -0.143278 2.43787 210 209 205
-0.449537 0.115111 2.31392 211 210 206
-0.585626 0.949217 3.02869 147 147 147
-0.461975 -0.0482136 2.39673 213 212 208
-0.442856 0.115509 2.31766 213 209 206
-0.438068 0.0915907 2.32489 208 207 203
-0.368284 0.118268 2.31007 212 211 207
-0.0614806 -3.00746 4.05848 30 23 15
0.185596 -2.36574 3.60819 27 27 19
0.281005 -2.24321 3.74021 26 25 21
0.286404 -2.38088 3.96873 26 25 21
0.274068 -1.75631 3.5439 63 62 57
0.280163 -2.52803 3.62134 231 223 220
0.292077 -2.25377 3.74407 20 24 23
0.292853 -2.65625 3.56299 35 31 30
0.316871 -2.07499 3.71327 145 140 134
0.313362 -2.0005 3.66778 66 58 55
0.31809 -2.12864 3.7123 87 82 78
0.34271 -2.16762 3.75231 56 59 52
0.332472 -2.73102 3.60739 109 115 115
0.332472 -2.73102 3.60739 109 115 115
0.337679 -1.86373 3.63105 81 78 71
0.38146 -1.94365 3.69557 56 63 56
0.434361 -2.18295 3.81873 27 29 26
0.433149 -2.67506 3.77715 90 91 83
0.429215 -1.84735 3.68055 68 68 58
0.435022 -1.95934 3.72897 74 74 64
0.461522 -2.11307 3.80048 87 82 76
0.487645 -2.30394 4.01899 87 84 77
0.468477 -2.69312 3.79515 93 90 83
0.462866 -1.86374 3.71482 62 65 58
0.49026 -2.09514 3.8182 56 56 54
0.388118 -1.41969 3.01952 68 69 63
0.49953 -1.87512 3.73862 58 51 45
0.506424 -1.97786 3.78456 73 70 65
0.523448 -2.20761 3.88309 72 68 57
0.541709 -2.1283 4.00004 73 72 68
0.530296 -1.87171 3.75756 71 72 66
0.533925 -1.92746 3.78207 70 73 64
0.477311 -1.07628 3.37598 203 202 197
0.552633 -2.15131 3.88036 64 65 57
0.570637 -2.7944 3.89925 99 97 85
0.567356 -2.1069 3.86639 91 86 80
0.66288 -2.77002 3.95118 120 113 103
0.66288 -2.77002 3.95118 120 113 103
0.675625 -2.82151 3.97502 122 115 107
0.686967 -2.93671 3.94951 118 111 101
0.729264 -2.82144 4.15032 120 111 102
0.739258 -2.21993 4.02319 19 19 11
0.753544 -2.87883 4.24594 120 116 107
0.793804 -2.86733 4.25631 114 110 99
0.738205 -1.42486 3.77699 169 162 152
0.805681 -2.88601 4.06164 115 111 102
0.606729 -1.14104 2.94217 165 158 148
0.862805 -2.74025 4.06634 103 98 94
0.914069 -2.81584 4.24803 81 82 76
0.872797 -1.95627 4.01387 160 153 143
0.806511 -1.24257 3.69499 145 137 126
0.806511 -1.24257 3.69499 145 137 126
0.883158 -1.97257 4.02124 159 150 141
0.900602 -1.85463 3.98676 154 149 143
0.844502 -1.51785 3.73021 146 141 135
0.93224 -2.05994 4.08617 148 148 140
0.93224 -2.05994 4.08617 148 148 140
0.886438 -1.48912 3.96942 104 94 84
1.01887 -2.82948 4.32165 47 39 36
1.01724 -2.9802 4.1891 75 77 72
1.01724 -2.9802 4.1891 75 77 72
0.90067 -1.14405 3.69158 140 143 136
1.03871 -2.14439 4.20041 126 122 113
1.02046 -2.13098 4.16372 126 122 113
0.916512 -1.26523 3.73247 114 115 107
1.03111 -2.07845 4.17694 103 104 98
1.04217 -2.74547 4.18401 28 30 25
1.02831 -1.78282 4.12537 114 115 109
1.03369 -1.95973 4.1141 119 116 109
1.03369 -1.95973 4.1141 119 116 109
0.988841 -1.24862 3.92897 122 121 116
0.988841 -1.24862 3.92897 122 121 116
1.12624 -3.11129 4.41798 64 65 60
1.12624 -3.11129 4.41798 64 65 60
1.14665 -2.80645 4.36168 120 119 114
1.14323 -2.98056 4.25975 58 60 57
1.14323 -2.98056 4.25975 58 60 57
1.18889 -2.81192 4.31332 148 149 141
1.18889 -2.81192 4.31332 148 149 141
1.20812 -2.26595 4.33439 107 108 102
1.20812 -2.26595 4.33439 107 108 102
1.17985 -2.07012 4.2229 113 115 110
1.24691 -2.73803 4.32235 102 103 95
1.25633 -2.80049 4.33567 87 88 80
1.19594 -1.41694 4.07533 118 117 112
1.33531 -2.7808 4.42891 96 97 91
1.36404 -3.06424 4.49067 45 49 48
1.32245 -1.79892 4.2412 102 103 97
1.38752 -2.05099 4.34348 124 121 112
1.39109 -2.07572 4.38439 124 121 112
1.41163 -2.20268 4.44239 113 114 108
1.42188 -2.205 4.45557 121 122 116
1.41146 -1.85114 4.31092 110 107 100
1.47821 -2.25867 4.50524 105 108 101
1.43014 -1.90639 4.3488 113 115 110
1.42124 -1.83232 4.31735 132 129 122
1.45496 -2.0712 4.36356 129 130 124
1.48588 -1.22264 4.19662 115 105 95
1.62267 -2.08774 4.53869 119 109 99
1.11963 1.58409 3.13262 133 109 85
1.46247 -1.06674 4.05552 128 122 110
1.62827 -2.03934 4.51458 118 109 100
1.64687 -2.059 4.54336 119 111 100
1.42166 -0.748334 3.93746 128 122 110
1.61719 -1.86385 4.45131 107 100 90
1.61719 -1.86385 4.45131 107 100 90
1.57511 -1.30382 4.23364 108 99 90
1.39105 0.274595 3.46529 101 94 86
1.43283 0.282163 3.51225 0 0 0
1.61207 -0.44155 3.93079 0 0 0
1.94765 -3.13279 4.66378 0 0 0
1.49676 0.52612 3.4957 0 0 0
1.87079 -1.47143 4.36932 0 0 0
1.44235 0.812991 3.34387 0 0 0
2.1964 -2.46145 4.52539 0 0 0
2.18265 -2.38222 4.48866 0 0 0
2.21138 -2.29944 4.48542 0 0 0
2.23743 -2.40984 4.53569 0 0 0
2.18294 -1.3192 4.19693 0 0 0
2.43027 -3.485 4.8582 0 0 0
2.5111 -3.13795 4.68185 0 0 0
2.5337 -3.06032 4.71122 0 0 0
2.76462 -2.832 5.04009 0 0 0
2.60754 -2.40252 4.75105 0 0 0
2.60197 -3.13628 4.72787 0 0 0
2.60197 -3.13628 4.72787 0 0 0
2.68687 -2.3281 4.76686 0 0 0
2.62519 -3.09188 4.83804 0 0 0
2.70587 -2.889 4.77434 0 0 0
2.75914 -2.39659 4.83455 0 0 0
2.69872 -3.07655 4.85882 0 0 0
2.11079 0.565836 3.54564 0 0 0
2.4276 0.705663 4.00165 0 0 0
2.43378 0.673633 4.00094 0 0 0
2.29493 1.20522 3.74234 0 0 0
2.64153 0.74208 4.28864 0 0 0
2.52626 1.30922 4.03665 0 0 0
2.57418 0.543747 4.10184 0 0 0
2.65486 0.691286 4.13834 0 0 0
2.58308 1.42696 4.00869 0 0 0
2.67286 0.654466 4.13447 0 0 0
2.57944 1.49814 3.97941 0 0 0
2.64438 0.72726 4.05029 0 0 0
2.54109 1.17646 3.88849 0 0 0
2.54533 1.65565 3.8893 0 0 0
2.47263 1.86813 3.74541 0 0 0
2.31989 2.28454 3.48629 0 0 0
2.81239 0.768727 4.20947 0 0 0
2.74374 0.726726 4.08514 0 0 0
2.55755 0.844587 3.78874 0 0 0
2.77016 0.924938 4.09787 0 0 0
2.61179 0.503369 3.85092 0 0 0
2.91262 0.574458 4.29466 0 0 0
3.10955 0.201628 4.57853 0 0 0
2.88622 0.718826 4.24463 0 0 0
2.85616 0.855388 4.19 0 0 0
2.6761 1.24711 3.91675 0 0 0
2.78476 1.04602 4.07231 0 0 0
2.41831 1.98892 3.49208 0 0 0
2.70854 1.36899 3.9077 0 0 0
2.26813 2.33079 3.25559 0 0 0
2.55708 1.77441 3.6573 0 0 0
2.74581 1.3749 3.92672 0 0 0
2.79383 1.286 3.97908 0 0 0
2.75857 1.33005 3.91131 0 0 0
2.70838 1.5264 3.83452 0 0 0
2.96936 0.809336 4.19598 0 0 0
2.39464 2.23911 3.3806 0 0 0
2.35881 2.31361 3.32634 0 0 0
3.01237 0.576101 4.24678 0 0 0
2.39156 2.28068 3.36247 0 0 0
2.99218 0.830596 4.20063 0 0 0
3.00022 0.811041 4.2118 0 0 0
2.39232 2.29286 3.35385 0 0 0
2.81156 1.25176 3.93857 0 0 0
3.30481 0.219389 4.62794 0 0 0
3.06054 0.636211 4.28394 0 0 0
2.91496 1.02044 4.07754 0 0 0
2.9708 0.700924 4.14021 0 0 0
2.71626 1.51175 3.79535 0 0 0
2.42811 2.25211 3.3839 0 0 0
2.53412 2.01211 3.529 0 0 0
2.97046 0.943482 4.13564 0 0 0
2.93149 1.08092 4.08089 0 0 0
2.65659 1.67311 3.69803 0 0 0
2.94952 1.00537 4.09135 0 0 0
2.45938 2.20477 3.40573 0 0 0
2.67511 1.70708 3.68949 0 0 0
2.77496 1.53893 3.81531 0 0 0
2.8875 1.29446 3.9634 0 0 0
2.43582 2.23819 3.34116 0 0 0
3.00971 0.947333 4.12716 0 0 0
2.63729 1.86429 3.6098 0 0 0
3.06256 0.930469 4.16659 0 0 0
3.09316 0.862191 4.20374 0 0 0
3.09316 0.862191 4.20374 0 0 0
2.50394 2.22691 3.39687 0 0 0
3.07051 0.958806 4.16203 0 0 0
2.70438 1.7652 3.6657 0 0 0
3.12496 0.866746 4.22323 0 0 0
2.33665 2.39341 3.15778 0 0 0
2.29902 2.49296 3.09633 0 0 0
3.47916 0.387821 4.66619 0 0 0
3.41644 0.475639 4.57801 0 0 0
3.00493 1.30883 4.01455 0 0 0
3.03046 1.17237 4.03983 0 0 0
2.84975 1.6523 3.80172 0 0 0
3.30159 0.75509 4.37924 0 0 0
3.09332 1.29885 4.09143 0 0 0
3.04961 1.41853 4.02544 0 0 0
2.4842 2.3109 3.27662 0 0 0
2.4842 2.3109 3.27662 0 0 0
2.92334 1.24292 3.85071 0 0 0
3.05572 1.32497 4.02063 0 0 0
3.36342 0.710689 4.42374 0 0 0
3.15269 1.03571 4.1288 0 0 0
2.96021 1.65671 3.88402 0 0 0
2.98994 1.57048 3.92061 0 0 0
3.40067 0.646244 4.43543 0 0 0
3.40067 0.646244 4.43543 0 0 0
2.77731 2.07164 3.62156 0 0 0
2.86838 1.86573 3.7377 0 0 0
2.86959 1.91781 3.68949 0 0 0
2.59216 2.33673 3.33129 0 0 0
2.6865 2.41877 3.33848 0 0 0
-0.865683 1.55558 1.41238 128 128 126
-0.892837 1.39272 1.4754 42 37 34
-0.854796 1.44499 1.45975 215 214 209
-0.831766 1.56014 1.43031 151 151 151
-0.956182 0.893972 1.71075 200 199 195
-1.34235 -0.0935237 2.95148 213 220 228
-1.09971 -0.0287939 1.94378 220 227 235
-1.00899 0.396327 1.86157 179 180 175
-1.04231 0.138904 1.93002 220 227 235
-0.720538 1.43893 1.5337 45 47 42
-0.931024 -0.0199218 2.02514 217 214 209
-0.846887 0.162785 2.13714 205 201 192
-0.778071 0.609834 1.98192 21 23 18
-0.731214 0.107237 2.11969 212 209 200
-0.71671 0.0712748 2.19978 145 135 126
-0.671915 0.181074 2.23894 217 214 207
-0.469807 0.446248 2.22909 209 206 199
-0.447116 0.417441 2.25334 210 209 204
-0.147483 1.30546 1.70445 10 15 9
-0.149214 0.972856 1.8119 164 164 156
-0.118911 1.6491 1.5993 10 12 9
-0.121307 1.06418 1.79689 189 186 179
-0.247424 -3.40248 3.86763 71 54 46
0.11877 1.48482 1.81499 30 31 26
0.474817 -2.3467 4.00505 113 106 96
0.476864 -1.77056 3.74834 23 24 19
0.125717 -3.56537 4.06253 109 105 94
0.213926 -2.91418 3.21426 112 108 96
0.486011 -2.99046 3.904 72 62 53
0.787069 -2.90461 4.19018 81 80 75
0.68148 -1.36565 3.52408 148 142 128
0.78091 -1.48125 3.80798 169 163 149
0.825251 -1.36041 3.74921 138 134 125
1.90405 -2.79613 4.6624 105 101 90
1.89897 -3.07535 4.68973 113 109 100
2.12748 -2.64226 4.44693 110 106 94
2.905 0.584029 4.28169 0 0 0
2.61022 1.79373 3.68941 0 0 0
3.03633 0.613417 4.1762 0 0 0
-8.03488e+07 2.38844e+07 1.44523e+08 69 66 61
2.54734e+09 -7.35091e+08 -4.54144e+09 26 27 21
2.67848e+09 -7.74209e+08 -4.79791e+09 67 68 62
2.67848e+09 -7.74209e+08 -4.79791e+09 67 68 62
-2.43747e-11 1.04576e-11 4.53512e-11 21 23 18
-3.40432 0.625663 6.99019 153 153 153
2.84251e+09 -6.68767e+08 -5.44011e+09 96 101 104
-1.20807 2.05272 2.90725 220 221 216
3.24924e+09 -1.33146e+09 -8.83673e+09 207 207 199
-1.57314 0.346143 7.27897 210 209 204
-0.469503 1.60431 4.28972 227 227 225
-0.446102 1.60753 4.3137 226 227 222
-0.394447 1.60956 4.36971 227 228 223
-0.362164 1.73248 4.32096 220 221 216
-0.362164 1.73248 4.32096 220 221 216
-0.288607 1.65957 4.45992 233 232 227
-0.418447 1.75755 4.05499 152 149 144
-0.146296 1.61016 4.67113 162 163 157
-0.330531 1.75231 4.10119 161 162 154
0.328421 -1.58703 2.80615 61 61 53
0.480505 -2.26462 4.01506 63 64 56
0.483075 -2.16311 3.98907 101 101 91
0.553265 -2.99819 4.19916 102 93 84
0.420366 -1.88723 2.73734 107 103 94
0.438594 -2.03357 2.72267 106 101 95
0.767107 -3.03837 4.27979 122 118 107
0.774348 -2.30625 4.12908 18 19 13
0.887608 -2.90553 4.26894 113 109 98
0.927926 -3.04222 4.3359 86 85 80
0.956661 -2.89443 4.29462 82 81 77
0.657241 -1.83851 2.80597 44 46 43
1.27694 -2.21849 4.32775 107 106 102
1.29313 -3.07348 4.46617 48 53 49
0.990471 -1.8213 2.97459 91 91 83
1.56897 -2.3408 4.5053 102 95 85
1.13093 -1.37224 3.11951 118 110 99
1.72763 1.51875 2.92536 0 0 0
2.58028 0.751248 4.18848 0 0 0
3.11062 0.775591 4.64269 0 0 0
3.10161 0.225109 4.38708 0 0 0
-1.63152 -0.184333 3.67668 219 226 234
-1.52619 -0.00941432 14.0366 137 130 120
2.88537e+09 -1.14379e+09 -1.14023e+10 209 206 199
-1.25964 0.731487 3.82447 208 205 196
5.84305e+09 -1.68702e+09 -9.77023e+09 217 214 207
-0.459665 2.24615 10.5173 219 216 209
0.650614 -2.86723 4.14395 118 111 101
0.459033 -2.6851 3.55072 116 109 99
0.748448 -2.94587 4.21901 81 80 75
0.85388 -3.03282 4.26711 77 76 71
1.61494 -2.22769 4.47363 123 116 106
1.18038 -2.33904 3.81455 29 31 26
2.96724 1.69022 3.88627 0 0 0
-1.98347 0.468883 2.95733 72 67 61
-2.00468 0.0767614 3.01385 73 71 59
19.7358 -2.28954 -26.4373 216 218 215
-2.97791e+09 1.83609e+09 4.30915e+09 222 228 240
-1.77537e+07 6.29606e+06 2.75489e+07 159 162 151
-3.61296e+09 1.27293e+09 5.70573e+09 159 162 151
-28.9768 8.4619 41.0505 143 147 132
-1.71961 0.172949 3.09538 214 216 215
6.49837 -2.58532 -9.11444 218 217 215
-1.36066 0.264044 3.17292 184 182 183
-1.34202 0.258722 3.18005 186 184 185
-2.68225e+10 1.50576e+10 5.50223e+10 40 40 38
-0.120467 -1.87996 2.08341 38 35 30
0.539246 -0.06588 -0.0441948 214 210 207
0.539246 -0.06588 -0.0441948 214 210 207
0.393802 -0.345484 0.542664 214 215 209
-0.329677 -2.82986 3.6957 17 23 11
0.301617 -0.684036 1.10052 83 83 75
-0.289768 -3.04395 4.05616 38 34 23
2.3071e+09 7.3522e+08 -1.2387e+10 45 43 31
-0.0570948 -2.54106 4.06412 71 71 63
1.47369e+09 3.62537e+08 -7.22223e+09 99 104 100
0.0094396 -3.70453 4.28155 46 42 31
0.410029 -2.69768 4.82376 87 80 72
0.450319 -2.26443 4.00405 87 80 72
0.566684 -3.21529 4.2675 17 19 16
0.548451 -2.13692 4.00814 66 69 60
0.633671 -3.17811 4.24374 86 92 82
0.594126 -1.83967 3.964 205 206 200
0.722215 -2.88789 4.24257 72 73 65
0.73367 -3.00782 4.27128 64 59 55
0.764679 -2.1158 4.08124 115 102 94
0.749663 -2.11643 4.0762 115 102 94
0.890268 -3.15648 4.35652 25 28 21
0.890268 -3.15648 4.35652 25 28 21
0.883852 -1.7788 4.03963 211 210 206
0.988284 -2.83039 4.30776 162 158 146
0.915308 -1.33654 3.9701 21 22 17
0.984059 -1.86918 4.10379 188 182 170
1.07042 -3.12661 4.40834 136 132 123
1.45472 -3.77756 4.68199 79 80 75
1.20486 -3.10149 4.44565 114 111 104
1.20486 -3.10149 4.44565 114 111 104
1.29817 -3.89789 4.66517 79 80 75
1.19407 -2.79493 4.3766 125 126 120
1.33632 -3.84601 4.67033 85 74 70
1.23906 -2.78804 4.39319 111 112 106
1.22973 -2.29327 4.31608 142 142 132
1.27688 -2.78578 4.40764 108 109 103
1.43999 -3.77151 4.69742 122 123 117
1.34176 -2.84621 4.43893 116 117 111
1.47507 -3.75243 4.70723 98 99 93
1.52727 -3.87436 4.75309 88 90 79
1.3466 -2.05156 4.32722 135 130 124
1.40995 -2.76333 4.44557 110 111 105
1.36693 -1.91916 4.2984 115 103 91
1.58417 -3.8773 4.77846 99 99 91
1.39994 -2.08066 4.35047 141 142 136
1.50094 -2.74408 4.47353 125 121 110
1.64211 -1.87864 4.36035 132 124 113
2.10671 -3.53438 4.78215 0 0 0
2.68921 -3.98691 5.14003 0 0 0
2.70882 -4.05563 5.16171 0 0 0
2.70882 -4.05563 5.16171 0 0 0
2.34178 -3.19396 4.77234 0 0 0
2.71968 -3.97627 5.14833 0 0 0
2.82667 -4.0155 5.19357 0 0 0
2.4771 -3.24329 4.81677 0 0 0
2.87012 -4.03062 5.21161 0 0 0
2.54924 -3.23059 4.83512 0 0 0
2.57534 -2.57578 4.73451 0 0 0
2.67116 -3.2033 4.86913 0 0 0
2.71823 -3.45288 4.93491 0 0 0
2.71823 -3.45288 4.93491 0 0 0
2.78372 -3.41322 4.95445 0 0 0
2.33929 0.640946 3.89756 0 0 0
2.38682 0.679895 3.91934 0 0 0
2.39159 0.681459 3.9313 0 0 0
2.42834 0.554915 3.94427 0 0 0
2.57273 0.561649 4.00704 0 0 0
2.76112 0.700058 4.08502 0 0 0
2.80092 0.852321 4.06434 0 0 0
3.02735 0.865619 4.10198 0 0 0
3.01766 1.15685 4.03399 0 0 0
3.04507 1.12789 4.05073 0 0 0
-43.5107 12.111 81.2962 21 23 18
-7.28301e+09 1.8016e+09 1.35772e+10 130 131 133
-42.9373 10.0655 82.4693 28 30 27
-2.02025e+09 2.73844e+08 4.14879e+09 109 105 104
-2.78663 0.629198 7.84096 206 203 196
0.658009 1.7469 7.68882 177 176 171
0.805424 -2.91927 4.23458 120 117 108
0.810128 -2.86057 4.20791 116 112 103
0.990183 -2.81523 4.28631 43 43 41
1.30118 -3.06344 4.46095 48 53 49
1.50826 -2.78922 4.51096 97 98 92
6.33483 6.16244 12.9428 0 0 0
2.41566 -2.86333 4.79927 0 0 0
1.26399 1.7607 2.30757 0 0 0
2.34642 -3.61179 4.89406 0 0 0
-4.42452 -1.56389 24.9497 209 208 203
-3.07212 2.80799 14.1185 216 213 204
1.58407 -0.882414 5.49574 20 22 17
0.223009 -2.31914 3.72291 6 22 12
0.578817 -2.04013 3.10223 32 34 31
0.0277919 -0.247221 0.790264 0 0 0
-1.89546e+09 4.90865e+08 2.56185e+09 119 118 113
-6.26386 1.48758 8.65134 97 96 91
-6.25587 1.48623 8.64647 102 99 94
-8.03689 0.6889 11.1702 197 203 199
-2.24583e+09 6.03657e+08 2.96076e+09 216 218 215
-5.52454 1.63971 8.05991 216 218 215
-6.2918e+06 3.1989e+06 1.00712e+07 232 232 230
-1.10302e+09 4.87916e+08 1.84107e+09 197 197 197
-1.04867e+09 4.8144e+08 1.87924e+09 185 185 185
-2.00168 0.419737 5.06224 198 198 200
-1.99059 0.439656 5.10876 203 201 202
0.512472 -2.418 3.96582 87 88 80
0.860579 -2.82505 4.22427 71 72 66
2.03269 -2.04303 4.31063 0 0 0
-35.161 -58.6809 -131.251 0 0 0
1.33266 2.1021 2.48933 0 0 0
2.29977 -3.82159 4.91172 0 0 0
1.34214 -0.956139 1.6628 0 0 0
1.36154 1.32499 2.20115 0 0 0
1.39501 1.36809 2.2526 0 0 0
1.82713 -1.59483 2.58307 0 0 0
1.52289 1.4848 2.42051 0 0 0
1.56986 1.51241 2.46902 0 0 0
1.73546 2.07867 2.71712 0 0 0
2.45616 0.782029 3.81071 0 0 0
2.56754 0.70404 3.9119 0 0 0
2.6524 1.00261 3.50991 0 0 0
-0.957097 1.87116 4.53501 88 84 75
-0.957097 1.87116 4.53501 88 84 75
0.112777 -0.390907 6.77919 130 146 146
0.135369 -0.422566 6.79711 164 177 186
0.141928 -0.409367 6.77909 37 38 30
0.161085 -0.472983 6.82471 164 174 184
0.159226 -0.462218 6.81823 163 173 183
0.165507 -0.490784 6.829 166 174 185
-1.22808 -3.83094 5.62455 165 173 184
0.163621 -0.463851 6.8147 165 173 184
-0.897959 1.61487 4.45129 62 66 51
0.192326 -0.513906 6.83913 163 171 182
0.197501 -0.538297 6.84723 162 172 182
0.201391 -0.544118 6.84937 161 171 181
-0.622634 0.856382 5.07859 188 185 176
-0.676479 0.989955 4.92313 197 190 180
-0.570839 0.695888 5.17811 185 181 170
0.19096 -0.40937 6.76067 21 26 19
0.214941 -0.543234 6.83932 165 171 183
0.214941 -0.543234 6.83932 165 171 183
-0.599381 0.794806 5.0773 194 187 177
-0.684788 1.05741 4.8539 94 84 72
0.213978 -0.499128 6.80815 36 29 36
-0.655981 0.959958 4.90942 91 83 70
-0.655981 0.959958 4.90942 91 83 70
-0.60021 0.820609 5.03831 187 183 172
0.222426 -0.505606 6.80592 25 24 20
0.1754 -0.270187 6.65565 92 102 93
0.207632 -0.407204 6.74885 103 99 98
0.207386 -0.394634 6.74307 15 24 21
-0.583929 0.745517 5.06942 171 165 153
-0.76369 1.2988 4.60042 206 203 198
0.211756 -0.414935 6.75083 29 34 27
-0.677454 1.05237 4.81214 198 195 186
0.219067 -0.434573 6.76094 17 18 12
0.221323 -0.44507 6.76659 17 20 13
-0.492279 0.611331 5.24439 184 180 169
0.217801 -0.427751 6.75488 25 31 21
-0.675502 1.03298 4.79366 201 197 186
0.213564 -0.374441 6.71303 27 29 18
-0.664926 1.00797 4.8032 208 203 197
-0.654158 0.966394 4.82272 207 204 197
-0.673401 1.04536 4.75987 201 194 184
-0.702199 1.12948 4.68546 213 212 207
-0.702199 1.12948 4.68546 213 212 207
-0.938161 1.84834 4.07015 102 95 85
-0.656081 1.00666 4.7856 206 203 194
0.194755 -0.192912 6.60596 184 190 202
-0.940949 1.8601 4.04403 117 123 113
-1.58903 -0.205254 3.45719 199 186 180
-0.468831 0.565827 5.21843 199 186 180
-0.646907 0.999835 4.78492 203 200 191
-0.917458 1.80479 4.07856 122 125 114
-0.93028 1.85932 4.0405 108 108 98
-0.463035 0.543174 5.22184 201 193 182
-0.709096 1.1614 4.61638 203 199 190
-0.952404 1.9096 3.98356 116 118 107
-0.613475 0.914999 4.85197 205 202 195
-0.931286 1.87416 4.02538 119 120 112
-0.905119 1.78377 4.09613 81 81 73
0.202139 -0.173575 6.58921 185 191 203
-0.879378 1.70619 4.15832 123 123 115
-0.562035 0.71306 4.98926 209 202 194
-0.742697 1.3071 4.50447 179 179 167
-0.855067 1.64079 4.21329 122 123 115
0.203894 -0.159818 6.57765 184 192 203
0.198855 -0.133396 6.56126 190 196 208
-0.859041 1.6863 4.18036 107 104 95
-0.85552 1.65499 4.19295 87 82 76
-0.713572 1.21151 4.56221 182 183 169
-0.787931 1.4875 4.34816 67 65 52
-0.57825 0.852453 4.89317 207 205 193
-0.57825 0.852453 4.89317 207 205 193
-0.573209 0.727298 4.93382 207 204 195
-0.762944 1.40484 4.40315 81 79 67
-0.720242 1.27679 4.51096 90 81 72
-0.699301 1.22585 4.55913 73 67 53
-0.78609 1.48827 4.32457 83 80 73
-0.660271 1.13788 4.63994 91 85 71
-0.617631 1.00519 4.74648 181 177 168
-0.548817 0.701592 4.94869 209 206 197
-0.603416 0.988519 4.763 118 127 110
-0.600058 0.974085 4.77269 185 196 179
-0.600058 0.974085 4.77269 185 196 179
-0.584961 0.921258 4.80934 187 184 177
-0.592871 0.950832 4.77481 86 80 66
-0.595661 0.984037 4.75989 82 79 62
-0.535641 0.805057 4.90793 181 174 166
-0.686839 1.222 4.51744 94 92 80
-0.786408 1.51062 4.23963 69 61 50
-0.384754 0.422443 5.23721 201 199 187
-0.624706 1.09733 4.5194 68 69 55
-0.496909 0.768486 4.74414 109 103 89
-0.603987 1.28547 4.40706 116 116 108
-0.486301 0.73981 4.74187 82 76 62
0.0511482 -1.22679 5.72291 71 72 66
0.0511482 -1.22679 5.72291 71 72 66
0.0817441 -1.28245 5.64844 43 39 36
-0.144359 -0.522341 4.95735 116 105 101
0.242906 -1.27974 5.98158 55 54 52
0.242906 -1.27974 5.98158 55 54 52
-0.104198 -0.552222 4.97186 193 192 187
-0.104198 -0.552222 4.97186 193 192 187
0.247042 -1.29154 5.95466 178 157 166
-0.0717564 -0.796714 5.01826 188 192 178
0.121597 -1.36989 5.52167 33 30 23
0.298887 -1.41845 5.95761 28 30 17
0.155482 -1.47522 5.55045 41 38 33
0.302034 -1.44783 5.93323 83 84 68
0.141935 -1.42538 5.47453 69 70 62
0.312583 -1.44292 5.92012 34 30 19
0.209944 -1.67317 5.50291 105 110 106
0.111928 -1.12081 5.13005 26 31 25
0.233144 -1.71641 5.48444 27 28 22
0.233144 -1.71641 5.48444 27 28 22
0.205825 -1.58393 5.3868 16 21 15
0.221337 -1.62748 5.36249 8 10 5
0.0321484 -1.1215 4.76579 211 208 201
-1.16521 2.69297 1.01385 28 31 24
0.0851931 -1.1307 4.89385 189 185 182
0.106214 -1.21937 4.95742 179 177 182
0.105962 -1.18661 4.94267 129 125 122
0.105962 -1.18661 4.94267 129 125 122
0.213877 -1.42256 5.27972 70 66 63
0.207843 -1.28851 5.25199 47 47 39
0.400437 -1.61537 5.82395 42 38 29
0.24976 -1.71184 5.36176 18 24 12
0.24976 -1.71184 5.36176 18 24 12
-0.792624 1.7364 1.98695 159 160 155
0.421386 -1.67039 5.8305 66 65 63
0.245482 -1.50988 5.27721 33 41 30
0.245482 -1.50988 5.27721 33 41 30
-0.931178 2.32117 1.49412 214 213 208
-0.736226 1.74501 2.063 160 162 159
-0.906061 2.29817 1.51804 212 212 204
-0.918201 2.34743 1.47553 215 215 207
-0.423463 0.846511 3.04095 168 172 173
-0.869072 2.18881 1.6107 185 186 181
-0.72265 1.74109 2.05735 130 132 129
-0.54002 1.18678 2.61439 205 204 209
-0.701801 1.69652 2.09054 193 192 190
0.315606 -1.9066 5.36658 150 149 144
-0.798743 2.02455 1.76109 32 33 27
-0.508906 1.13712 2.68972 180 178 181
-0.508906 1.13712 2.68972 180 178 181
-0.332271 0.601262 3.23548 21 27 13
-0.681299 1.66283 2.10804 179 180 175
-0.451624 1.00485 2.79987 45 46 30
-0.246454 0.423795 3.4551 35 35 23
-0.246454 0.423795 3.4551 35 35 23
0.298195 -1.12821 5.21914 49 41 30
-0.750011 1.9613 1.81555 29 34 30
0.164609 -0.675931 4.75036 203 202 198
-0.104243 0.00876617 3.86573 209 210 204
-0.104243 0.00876617 3.86573 209 210 204
0.3364 -1.60281 5.3078 69 69 69
0.181821 -0.790324 4.79544 13 24 16
0.214142 -0.865925 4.88909 207 207 199
0.214142 -0.865925 4.88909 207 207 199
0.334626 -1.5591 5.27835 52 49 42
0.22689 -0.908698 4.92461 213 210 205
0.170453 -0.679031 4.73366 205 204 200
0.363769 -1.76718 5.35957 62 68 64
0.363769 -1.76718 5.35957 62 68 64
0.135471 -0.68317 4.58573 212 211 206
0.135471 -0.68317 4.58573 212 211 206
0.370551 -1.61744 5.33328 78 84 74
0.224401 -0.816604 4.8326 167 167 157
0.219591 -0.797728 4.81542 106 119 109
0.387653 -1.69898 5.35631 33 35 24
0.387653 -1.69898 5.35631 33 35 24
-0.220922 0.366356 3.33048 39 40 34
-0.224138 0.427416 3.29486 28 29 21
-1.00039 2.75075 0.721973 32 33 27
0.323198 -1.13548 5.09685 150 147 140
0.323198 -1.13548 5.09685 150 147 140
0.378119 -1.35221 5.28026 35 35 25
-0.326124 0.84279 2.8972 14 16 11
-0.154496 0.274719 3.45451 41 42 28
0.390609 -1.51298 5.27015 33 33 21
0.369667 -1.15727 5.16606 48 51 42
-0.121591 0.276413 3.4673 62 62 54
0.37763 -1.15937 5.15335 44 25 21
0.264752 -0.883168 4.75774 168 169 161
0.445553 -1.74161 5.35524 56 58 47
0.249545 -0.87079 4.70165 36 44 33
0.255018 -0.857426 4.7189 31 39 28
0.385765 -1.17112 5.1558 36 16 9
0.28567 -1.00266 4.80529 211 210 205
0.140232 -0.425049 4.31346 29 31 18
0.267103 -0.869145 4.74101 134 142 129
0.100324 -0.279583 4.17185 172 149 141
0.290886 -0.969947 4.79023 208 207 202
0.290886 -0.969947 4.79023 208 207 202
0.293996 -0.993347 4.7923 212 211 206
0.33581 -1.09008 4.91886 197 196 192
0.407109 -1.22838 5.16169 95 97 86
0.408636 -1.22228 5.14705 187 174 165
0.167134 -0.431131 4.31751 67 61 49
0.250091 -0.662141 4.58568 215 212 205
0.442873 -1.42096 5.22801 17 20 13
0.307651 -0.822311 4.77112 40 53 44
0.423369 -1.23951 5.16146 192 183 174
0.42274 -1.13248 5.16472 177 180 173
0.469915 -1.73837 5.27845 63 65 54
0.314426 -0.852177 4.77126 141 143 132
0.423843 -1.11893 5.15172 153 155 150
0.423843 -1.11893 5.15172 153 155 150
0.333655 -0.93938 4.82245 209 208 203
0.326628 -0.909048 4.79808 201 201 193
0.432507 -1.1432 5.15775 179 179 171
0.432507 -1.1432 5.15775 179 179 171
0.177437 -0.43862 4.26578 75 72 63
0.595594 -1.54823 5.7266 105 106 100
0.453938 -1.60132 5.17447 13 16 7
0.501643 -1.78044 5.2511 23 26 15
0.327199 -0.806245 4.62527 199 198 194
0.327199 -0.806245 4.62527 199 198 194
0.445253 -1.13546 5.0359 184 183 178
0.494507 -1.43638 5.17559 36 27 20
0.639096 -1.60217 5.6751 40 42 31
0.555844 -1.83365 5.25055 14 17 8
0.499696 -1.23898 5.05283 184 184 174
0.471116 -1.13173 4.86637 204 201 196
0.50741 -1.2312 4.98584 143 125 111
0.457649 -1.09836 4.76674 211 210 205
0.589254 -1.70764 5.19142 193 190 183
0.484497 -1.16319 4.84389 200 199 194
0.5693 -1.66549 5.08743 193 190 183
0.592372 -1.70541 5.06327 190 190 182
0.553514 -1.33064 4.91242 184 184 176
0.607853 -1.74044 5.04225 191 191 183
0.556225 -1.27713 4.75056 198 197 193
0.585077 -1.35005 4.8653 121 121 111
0.559334 -1.26756 4.69199 206 206 198
0.564075 -1.27004 4.67251 208 207 202
0.56545 -1.21461 4.59255 210 209 204
0.614192 -1.38709 4.77464 167 172 165
0.606626 -1.36995 4.70712 186 182 179
0.608521 -1.35741 4.68942 191 190 186
0.645357 -1.4612 4.82018 184 184 176
0.634285 -1.40589 4.68976 173 169 166
0.653301 -1.46036 4.76283 188 185 176
0.607234 -1.32874 4.55997 210 209 204
0.556966 -1.20457 4.27736 23 18 14
0.742528 -2.0051 4.95112 194 194 186
0.658194 -1.44141 4.67069 161 160 158
0.949605 -2.19305 5.50073 177 170 160
0.643766 -1.29859 4.16212 40 25 22
0.643766 -1.29859 4.16212 40 25 22
0.800166 -1.70873 4.65404 184 181 172
0.999841 -2.28036 5.45283 174 174 164
0.900045 -1.87785 4.44685 186 186 174
0.764058 -1.52169 3.68538 202 201 197
0.758568 -1.41927 3.52273 211 210 205
0.812168 -1.62968 3.65801 188 189 184
0.900837 -1.74035 4.09439 213 210 205
0.960986 -1.93759 4.37705 187 187 179
0.932378 -1.83712 4.16573 202 201 196
0.970713 -1.93889 4.31816 184 185 177
0.990476 -1.99803 4.38795 188 185 178
0.857936 -1.69188 3.60142 183 182 180
1.08743 -2.64301 4.50018 191 190 185
0.963968 -1.87427 4.05487 207 206 202
1.02317 -2.04568 4.37053 181 181 173
1.00124 -1.93824 4.05288 202 201 197
1.24318 -2.70221 5.27291 170 170 160
1.02956 -2.00391 4.04559 196 195 191
0.965739 -1.90749 3.57515 165 168 159
1.05475 -2.05006 4.14932 185 186 178
1.05475 -2.05006 4.14932 185 186 178
1.07607 -2.10764 4.22816 190 187 180
1.26134 -2.69832 5.25051 64 66 55
1.00013 -1.82843 3.65506 159 160 152
0.983719 -1.84347 3.43881 177 176 172
1.03906 -1.36776 4.2644 198 198 190
1.05533 -1.94995 3.63444 199 199 191
1.35689 -2.72297 5.66095 10 15 9
1.04685 -1.87229 3.64816 175 176 168
1.29783 -3.20463 4.37901 187 187 177
1.066 -1.87465 3.56188 125 135 126
1.36113 -2.92231 5.18577 53 53 45
1.34374 -3.16952 4.31923 188 187 182
1.44612 -3.23578 4.09997 72 78 64
1.54115 -3.16349 5.00712 51 51 39
1.56256 -3.53928 3.9781 65 69 55
1.46862 -2.77696 3.91646 32 34 21
1.46363 -2.7298 3.75388 33 36 25
1.49859 -2.75962 3.73248 25 27 16
1.51509 -2.76206 3.53292 197 172 165
1.56457 -2.843 3.66785 21 22 14
1.58967 -2.91953 3.69292 21 24 17
1.60326 -2.921 3.72175 21 24 15
1.59767 -2.86533 3.38697 52 29 23
1.55087 -2.64269 3.00597 211 208 203
1.8057 -3.98155 3.7271 89 80 65
1.60194 -2.84347 3.25486 188 187 182
1.66855 -3.03623 3.57354 16 19 12
1.66855 -3.03623 3.57354 16 19 12
1.67323 -2.9965 3.33893 52 38 25
1.68036 -3.01249 3.47197 26 29 20
1.68076 -2.98421 3.38598 43 40 25
1.69465 -3.05066 3.47496 30 34 20
1.72761 -3.08765 3.3581 22 28 16
1.93124 -4.15921 3.50525 162 159 150
2.02179 -4.31423 3.39846 159 155 146
1.71743 -2.71535 1.89709 210 207 202
1.96469 -3.41365 3.08323 124 124 116
1.96124 -3.24981 2.15891 125 118 108
1.96816 -3.19031 1.94306 144 137 127
1.40269 -0.447452 5.16346 120 117 110
1.98163 -3.20087 1.98472 116 113 106
1.90742 -2.14961 -3.44018 32 34 29
2.04517 -2.18689 -4.21297 31 33 28
2.19422 -3.56794 1.63522 130 132 121
3.97723 -10.8403 -0.439838 172 154 144
5.85125 -16.917 -2.32889 44 47 38
4.94231 -12.6017 -2.37823 157 154 145
11.284 -31.6691 -21.7085 133 127 115
10.4473 -29.5543 -13.7015 179 176 169
20.2983 -54.9727 -49.1542 130 128 116
9.01666 -25.1126 -8.13703 120 114 100
10.7556 -27.8657 -15.6042 74 74 62
11.1639 -31.8362 -9.35274 99 95 84
5.12138 -11.6147 1.42311 101 103 92
16.8352 -47.3496 -16.9157 91 93 82
27.2929 -76.0875 -31.1838 81 83 72
18.0918 -43.7451 -23.4456 104 104 94
54.1996 -150.412 -68.3488 90 91 83
36.1327 -96.5576 -45.7128 107 108 100
14.4224 -31.0223 -20.2241 65 61 50
231.429 -619.472 -353.849 91 92 84
478.407 -1273.68 -739.365 85 85 75
631024 -1.33759e+06 -1.31921e+06 109 109 97
748909 -1.60036e+06 -1.47375e+06 99 92 82
13.165 -20.0403 -17.2906 117 107 95
911974 287727 -4.61729e+06 38 31 21
911974 287727 -4.61729e+06 38 31 21
13.9769 -22.1607 -16.8422 113 103 91
13.1627 -23.2035 -10.5687 100 94 82
20.5102 -38.2971 -19.7055 89 81 70
1.45025 1.46537 5.6513 114 104 92
610351 -115094 -2.46839e+06 114 108 96
954.422 -2054.83 -1142.58 75 75 65
9.78967 -15.3982 -5.62427 110 86 62
724144 896148 -4.28051e+06 122 108 95
690.368 -455.927 -2212.07 122 116 104
25.0954 -16.9272 -65.6016 121 113 102
940104 1.6575e+06 -6.0918e+06 114 108 96
3994.58 -8070.99 -5043.46 83 71 57
10.1341 -13.6531 -8.34801 89 85 76
10.1341 -13.6531 -8.34801 89 85 76
23.9986 -16.1087 -60.5785 113 107 93
21.6912 -14.4254 -53.4405 115 109 95
21.6912 -14.4254 -53.4405 115 109 95
1.0496e+06 1.33136e+06 -5.98704e+06 115 107 94
25.8008 -13.806 -69.5436 112 108 97
268286 -69120.6 -961681 125 112 103
32.6872 -23.4532 -83.3806 112 93 78
18.6032 -11.0572 -44.4692 116 105 87
381427 -117303 -1.32802e+06 118 112 100
18.9386 -11.4117 -44.5512 141 108 73
18.9386 -11.4117 -44.5512 141 108 73
549377 -1.11267e+06 -634168 69 71 60
837.755 -1617.27 -1038.27 78 75 68
21.6975 -13.7236 -51.5918 126 91 61
18.8043 -10.916 -43.9537 120 94 71
20.2823 -10.5005 -49.6121 98 80 66
368888 -28984.2 -1.3176e+06 128 98 70
27.0098 -16.8897 -64.0635 89 86 77
16.5872 -8.88308 -35.654 0 0 0
37.2815 -25.0578 -88.8248 0 0 0
23.5204 -14.1608 -53.0137 0 0 0
440360 -854446 -477602 0 0 0
97.6849 -70.6728 -245.146 0 0 0
59.9273 -42.8796 -138.711 0 0 0
24.3574 -13.7457 -52.1407 0 0 0
18.1014 -9.09901 -36.6126 0 0 0
44.7922 -28.4413 -101.345 0 0 0
1.77601 1.07267 5.50594 0 0 0
18.4768 -9.15402 -36.9608 0 0 0
15.3845 -6.94263 -27.4497 0 0 0
14.7363 -6.38504 -25.4633 0 0 0
77.2449 -50.3732 -165.082 0 0 0
34.5485 -19.4246 -64.7816 0 0 0
238.352 -63.77 -587.868 0 0 0
11.7608 -4.37113 -15.7083 0 0 0
10.3565 -3.37545 -12.626 0 0 0
10.3565 -3.37545 -12.626 0 0 0
13.3405 -5.37845 -18.0556 0 0 0
7.24077 -1.25514 -5.15189 0 0 0
6.42357 -1.007 -3.05672 0 0 0
6.23944 -0.904008 -2.6294 0 0 0
5.98783 -0.773823 -2.09169 0 0 0
6.03576 -0.739819 -2.17977 0 0 0
5.75707 -0.638593 -1.56539 0 0 0
6.48004 -0.759688 -3.1421 0 0 0
81.7766 -10.7849 -167.764 0 0 0
81.7766 -10.7849 -167.764 0 0 0
10.9579 -1.34466 -12.6851 0 0 0
5.26432 -0.356712 -0.407 0 0 0
5.26432 -0.356712 -0.407 0 0 0
10.0356 -1.00971 -10.7007 0 0 0
7.35906 -0.68046 -4.88379 0 0 0
5.02299 -0.234752 0.0817266 0 0 0
9.28415 -0.619053 -9.19272 0 0 0
4.91577 -0.174065 0.323408 0 0 0
4.91577 -0.174065 0.323408 0 0 0
3.38847 0.0803948 3.54535 0 0 0
720408 -9498.48 -1.62008e+06 0 0 0
267273 -34310.8 -563121 0 0 0
17.8512 -1.93119 -26.5258 0 0 0
1.10294e+06 503083 -2.93733e+06 0 0 0
8.33087 -2.11741 -4.72675 0 0 0
1.22464e+06 -31153.9 -2.58457e+06 0 0 0
5.42465 -0.424981 -0.0172448 0 0 0
6.0987 -0.908094 -0.980225 0 0 0
1.00557e+06 155536 -2.28998e+06 0 0 0
6.66933 -1.21409 -1.79652 0 0 0
31.0561 -6.17346 -47.7182 0 0 0
1.20279e+06 756703 -3.24323e+06 0 0 0
1.19151e+06 207920 -2.6709e+06 0 0 0
4.32718 -0.137716 2.27493 0 0 0
1.22774e+06 596137 -3.10423e+06 0 0 0
22.8792 -4.06872 -31.6466 0 0 0
8.46618 -0.811017 -5.40051 0 0 0
2.28108 0.769844 5.64149 0 0 0
1.16494e+06 352648 -2.70171e+06 0 0 0
-213837 38894.9 384714 0 0 0
-213837 38894.9 384714 0 0 0
45.6831 -7.30294 -72.17 0 0 0
6.08086 -0.158445 -0.81825 0 0 0
8.89073 -0.819278 -5.66842 0 0 0
2.27055 1.30213 5.23993 0 0 0
-307334 57581.5 543193 0 0 0
206362 -35761.3 -368351 0 0 0
1.18803e+06 405220 -2.71396e+06 0 0 0
6.41379 -0.0779237 -1.46876 0 0 0
639343 -117269 -1.10899e+06 0 0 0
3.38363 0.629827 3.84598 0 0 0
3.38363 0.629827 3.84598 0 0 0
995887 -185965 -1.71452e+06 0 0 0
1.21628e+06 443040 -2.73207e+06 0 0 0
19.8735 -2.60356 -24.0337 0 0 0
1.40727e+06 874514 -3.48332e+06 0 0 0
2.7665 0.838358 4.85861 0 0 0
2.72739 0.843263 4.9304 0 0 0
2.59974 0.868406 5.16019 0 0 0
1.05147e+06 115618 -2.06539e+06 0 0 0
18.2265 -2.2809 -20.7203 0 0 0
1.26768e+06 565420 -2.87258e+06 0 0 0
2.64087 0.893088 5.09921 0 0 0
724302 -120521 -1.21399e+06 0 0 0
