ply
format ascii 1.0 
element vertex 1337
property float32 x 
property float32 y 
property float32 z
property uchar red  
property uchar green
property uchar blue
element face 0
property list uchar int vertex_indices
end_header
0.709133 -0.536337 0.104714 0 0 0
-18415.9 27714.8 -29598.7 0 0 0
0.281455 -1.69363 0.950392 0 0 0
-48984.2 69950.3 -80993.2 0 0 0
8.68845 -19.3548 15.3103 0 0 0
8.65204 -13.4074 13.6785 0 0 0
126634 -101595 18351.3 0 0 0
161058 -148724 240242 0 0 0
1.87517 3.4134 0.391668 0 0 0
186308 -146496 269202 0 0 0
-19822.6 26967 -30479.1 0 0 0
0.717153 -0.676803 0.0975758 0 0 0
41900.6 38834.9 39566.8 0 0 0
-88573.2 -85010.1 -82720.2 0 0 0
-72719.6 -68644.4 -68027.4 0 0 0
2.11357 -4.0784 3.5202 0 0 0
58700 60704.2 56948.9 0 0 0
89517.8 -107079 136151 0 0 0
1.6932 2.58546 0.328169 0 0 0
0.733107 -0.639669 0.0934749 0 0 0
8.04736 -11.4359 11.8815 0 0 0
1.77481 2.91127 0.32547 0 0 0
1.67957 2.52323 0.3227 0 0 0
160119 213508 142143 0 0 0
1.69543 2.58303 0.318446 0 0 0
0.73864 -0.618364 0.0921671 0 0 0
114050 -126344 168467 0 0 0
2.56835 -3.96763 3.93795 0 0 0
-17878.8 22366.2 -25597.6 0 0 0
1.54842 1.97767 0.303124 0 0 0
1.54842 1.97767 0.303124 0 0 0
132550 107028 126086 0 0 0
2.2517 -3.75569 3.49253 0 0 0
12.1499 -16.8922 17.4701 0 0 0
-15036.7 19925.5 -22387.2 0 0 0
230355 -123154 300206 0 0 0
6.2072 -4.33378 0.728516 0 0 0
233708 -113051 300598 0 0 0
-12893.3 18010.2 -18973.4 0 0 0
-12450 16688.5 -18034.5 0 0 0
1.69241 2.52512 0.279198 0 0 0
1.52022 1.83689 0.276248 0 0 0
69295.6 56131.3 62874.2 0 0 0
256320 122468 255956 0 0 0
1.56578 1.98185 0.240642 0 0 0
1.62305 2.20496 0.239948 0 0 0
286574 89422.8 295345 0 0 0
286212 91135.6 291913 0 0 0
-1912.3 18.1562 -1995.44 0 0 0
223257 131396 212463 0 0 0
223257 131396 212463 0 0 0
271603 110160 270669 0 0 0
271603 110160 270669 0 0 0
310558 32092.2 332948 0 0 0
8.81324 1.15999 9.07414 0 0 0
302854 52005.6 318296 0 0 0
-11168.7 -1368.09 -11411.6 0 0 0
268407 112222 265371 0 0 0
4.20576 1.71728 4.20695 0 0 0
-284.928 -85.9133 -272.688 0 0 0
-3848.82 -1122.11 -3794.13 0 0 0
-6018.92 -1446.16 -5985.15 0 0 0
291763 75755 298512 0 0 0
-3981.26 -1019.22 -3941.21 0 0 0
-4691.29 -1042.44 -4667.97 0 0 0
-7407.49 -1243.42 -7453.44 0 0 0
-2717.75 -664.424 -2684.92 0 0 0
-1460.85 -393.558 -1431.33 0 0 0
311399 27074.5 330341 0 0 0
153891 107910 139618 0 0 0
267503 105875 262781 0 0 0
13351.5 9049.07 12138 0 0 0
-7016.5 -1264.06 -7026.65 0 0 0
276959 98905.2 274721 0 0 0
3029.51 1108.62 2940.38 0 0 0
13843.1 9515.01 12552.1 0 0 0
23397.7 18773.3 20593.2 0 0 0
217983 122420 204789 0 0 0
-2872.17 -684.921 -2835.75 0 0 0
8013.11 3847.41 7580.72 0 0 0
230254 120411 218416 0 0 0
8671.33 4258.97 8180.44 0 0 0
-941.754 -248.562 -917.89 0 0 0
12558 7754.89 11537.7 0 0 0
232782 119492 221185 0 0 0
267897 104644 262450 0 0 0
277335 93074.7 275328 0 0 0
277335 93074.7 275328 0 0 0
292091 67243.8 297494 0 0 0
40.4136 6.40326 40.6918 0 0 0
16548.7 13482.8 14579.9 0 0 0
-1530.31 -373.371 -1500.7 0 0 0
-1530.31 -373.371 -1500.7 0 0 0
39288 30768.3 34581.6 0 0 0
-5470.31 -1004.97 -5448.97 0 0 0
6.24992 1.44325 6.26706 0 0 0
-336.172 -81.0651 -322.46 0 0 0
65463.1 49891.9 57877 0 0 0
10377 8271.35 9063.46 0 0 0
1404.66 1122.46 1210.39 0 0 0
-20877.3 -17101.9 -18158.4 0 0 0
9.17667 4.9985 0.778261 0 0 0
-9035.19 -7319.47 -7881.06 0 0 0
13820.2 8581.28 12639.9 0 0 0
232590 118173 220099 0 0 0
-425.283 -106.17 -409.314 0 0 0
1.55766 1.92752 0.209999 0 0 0
-377.956 -91.8777 -362.872 0 0 0
-118065 -105518 -99925.3 0 0 0
15728 10384.6 14247 0 0 0
309001 45662.8 319448 0 0 0
16975.6 13341.5 14975.2 0 0 0
-1725.77 -415.016 -1684.13 0 0 0
-7758.06 -1044.24 -7752.71 0 0 0
183805 113867 167679 0 0 0
-2181.93 -513.332 -2129.52 0 0 0
123290 85883.7 109948 0 0 0
-6754.86 -970.807 -6718.86 0 0 0
303423 52380.3 309491 0 0 0
4720.85 1810.76 4487.63 0 0 0
296070 58651.9 299282 0 0 0
208286 115543 192238 0 0 0
7560.7 3478.09 7065.04 0 0 0
129331 87930.1 115315 0 0 0
9507.99 4904.64 8773.99 0 0 0
-55749.5 -46121.6 -47183.3 0 0 0
57818.2 41310.3 50259.5 0 0 0
98419.1 65080.9 86230.8 0 0 0
98798.7 64835.7 86527.1 0 0 0
19045.2 14090.7 16248.1 0 0 0
2.81137e+09 -2.65483e+09 3.53507e+09 0 0 0
34744.8 25081 29791.7 0 0 0
34744.8 25081 29791.7 0 0 0
4.30563e+08 -4.18995e+08 5.50516e+08 0 0 0
2.53584e+09 -2.35642e+09 3.18955e+09 0 0 0
3.00467e+09 -2.77453e+09 3.7432e+09 0 0 0
-11206.7 8103.54 -13048.8 0 0 0
3.79223e+09 -3.41376e+09 4.62092e+09 0 0 0
4.47326e+09 -4.09834e+09 5.38736e+09 0 0 0
4.47326e+09 -4.09834e+09 5.38736e+09 0 0 0
4.1017e+09 -3.52601e+09 4.92585e+09 0 0 0
-1.53541e+08 1.0565e+08 -1.83047e+08 0 0 0
-1.53541e+08 1.0565e+08 -1.83047e+08 0 0 0
-2.04195e+08 1.19623e+08 -2.37904e+08 0 0 0
-1.22106e+08 6.20001e+07 -1.39953e+08 0 0 0
-3.73198e+08 2.55925e+08 -4.43434e+08 0 0 0
-1.294e+08 7.1011e+07 -1.49408e+08 0 0 0
-1.294e+08 7.1011e+07 -1.49408e+08 0 0 0
-1.5452e+08 9.27588e+07 -1.8011e+08 0 0 0
-1.54669e+08 9.90799e+07 -1.81345e+08 0 0 0
106768 61546.3 93470.8 0 0 0
-9.70791e+07 2.95845e+07 -1.0566e+08 0 0 0
-9.64181e+07 2.93373e+07 -1.04851e+08 0 0 0
-168821 114570 10972.5 100 93 83
-7.98454 5.42166 0.535314 188 179 172
-1.283e+06 6525.85 -647824 220 226 238
-184190 19967 12776.1 88 86 74
36591.9 -29172 32600.3 130 130 128
36591.9 -29172 32600.3 130 130 128
-187793 26799.3 13189.5 108 112 115
37560.4 -28612.5 33208.2 200 195 192
41861.1 -38306.8 38050.4 118 119 113
42085.3 -38323.6 38218.9 110 111 105
39146.7 -30013.8 34618.7 205 204 199
-190371 46158.3 13646.3 125 122 115
-166533 -4399.77 11952.5 220 226 238
-5.37341 0.0155256 0.386405 222 226 238
-190406 47001.4 13699.4 122 122 112
-189816 67331.1 13710 212 212 210
41452.6 -28180.5 35951.5 245 246 241
-180617 18348.4 13235.4 118 120 119
40987.8 -25634.8 35150.5 220 216 213
-186476 31525.3 13696.5 87 87 85
42955.6 -27176.4 36863.6 216 213 208
42955.6 -27176.4 36863.6 216 213 208
-6.31354 0.988582 0.469079 24 24 22
44299.2 -26863.5 37783.9 225 216 211
-6.49718 1.01436 0.490069 30 32 29
32153.8 -12556.9 26269.5 157 152 148
23060.9 -4655.6 18153.4 112 112 112
24497.6 -6321.6 19507.9 44 45 39
32442.1 -11499.8 26286.4 120 124 127
-171060 1236.69 13100.2 218 224 236
60873.5 -58880 55395.2 145 143 146
28318.5 -6849.53 22424.8 122 126 127
-180681 -16125.7 13905.9 215 221 233
36179.5 -12964.6 29290.8 127 133 133
37819.4 -12775 30455 12 17 11
63826.6 -53620.7 56661.3 213 214 209
40135.9 -14476.9 32457.2 131 133 132
-186330 33212.8 14694.2 25 27 24
67779.4 -53133.9 59397.5 108 105 96
68945.2 -58019.9 61091.1 128 119 112
-25.5186 16.5236 2.73818 130 131 135
-185549 28902.9 14988.4 44 46 45
-1.18815e+06 -181674 767841 33 34 29
-187968 61530.1 15350.9 15 18 11
75903.8 -65051.3 67269.2 178 173 170
-189148 47889.7 15494 176 176 176
-58.4411 21.3832 4.79434 157 159 158
-186856 69140.3 15368.5 160 162 161
-174339 112992 14484.6 210 209 205
-185411 78357.5 15417.8 221 221 219
80793.3 -73631.8 72185.1 215 214 209
-6.90669 4.95555 0.575639 223 224 219
-191443 56965.3 16091.8 221 221 219
-172376 115042 14557.2 214 213 208
-192173 14386.6 17761.3 206 207 202
-4.75816 0.396991 0.450185 207 208 203
-191264 11388.8 18103.7 205 204 199
-6.96708 1.95552 0.66255 142 146 147
-193122 16494 19396.8 202 198 189
-191760 12078.2 19523.9 197 190 180
-193932 17288.3 19795.9 201 201 193
-3.93108 0.251145 0.407019 119 119 111
-192005 12721.3 20174.2 155 157 156
-194385 19902.7 20932.6 118 112 100
-190418 9884.35 20696.9 212 211 207
-5.87862 0.629125 0.681357 210 207 200
-192011 12040.8 22868.2 210 207 200
-195747 23492.4 23690.3 209 209 199
-6.41176 0.56947 0.782591 207 204 197
-194775 17221.4 23770.4 207 204 197
-188059 84986.7 25957.8 194 194 194
-187607 86487.4 26131.8 200 200 198
-184744 91701.9 25893.9 218 218 216
0.169826 -0.0263656 -0.0240082 152 151 149
-5.93072 2.69366 0.849437 178 178 178
-187610 85286.3 26875 178 178 178
-183429 97911.5 26639 226 226 224
-194245 60502.6 28670.5 27 29 24
-6.54229 1.81341 0.989449 40 42 37
-200455 -10687.5 30536.8 210 209 205
-195315 18778 29917 211 210 206
-5.58747 2.56854 0.858578 147 147 147
-198782 -330.544 30588 213 212 208
-195458 18999.5 30230.7 213 209 206
-195526 16367.1 30487.6 208 207 203
-193492 21300.5 33123.9 212 211 207
-764404 -245018 369136 30 23 15
-144654 -465122 81550.8 27 27 19
-142338 -449150 87194.9 26 25 21
-590079 -219697 281772 26 25 21
-134604 -388748 91998.5 63 62 57
-142151 -480350 80268.7 231 223 220
-142363 -450623 87319.9 20 24 23
-142329 -494229 77540.1 35 31 30
-147655 -453377 95282.3 145 140 134
-142591 -433485 93474.5 66 58 55
-147736 -459162 94008.9 87 82 78
-147060 -459473 93703.3 56 59 52
-143976 -503935 78199.9 109 115 115
-143976 -503935 78199.9 109 115 115
-140915 -417892 96551.7 81 78 71
-146805 -442000 100340 56 63 56
-152056 -474756 99273.6 27 29 26
-146566 -502100 84204 90 91 83
-144768 -427857 103116 68 68 58
-154247 -464730 106567 74 74 64
-133258 -412575 89387.2 87 82 76
-164332 -507490 107131 87 84 77
-142009 -487723 81976.7 93 90 83
-143848 -425018 103041 62 65 58
-89975.1 -277180 61173.7 56 56 54
-0.116133 -3.00129 0.740161 68 69 63
-83528.3 -247141 60338.4 58 51 45
-65987.3 -199326 46564.3 73 70 65
-103706 -324861 69286 72 68 57
-1.52471 -4.20708 0.978812 73 72 68
75629.5 223184 -55186.9 71 72 66
-110291 -329070 79360.8 70 73 64
-114945 -265340 108519 203 202 197
-54605.8 -169276 37259.2 64 65 57
-38641.7 -133676 22455 99 97 85
-90533.3 -278096 62490.9 91 86 80
-19833.9 -68271 11823.6 120 113 103
-19833.9 -68271 11823.6 120 113 103
-20227 -69908.8 11944.7 122 115 107
-19446.3 -68455.6 11150.7 118 111 101
-1.40818 -4.86804 0.87965 120 111 102
-15191.9 -49396.3 11700.4 19 19 11
-197720 -681346 124843 120 116 107
-23313.1 -86058.5 17278.4 114 110 99
22146.5 62666.1 -23972.5 169 162 152
-13.1121 -49.0917 9.24604 115 111 102
1.02179 -2.46152 0.742671 165 158 148
-3.74258 -14.1232 2.88333 103 98 94
-1.37955 -4.78921 0.905404 81 82 76
-2.69221 -10.1709 3.25606 160 153 143
-34292.8 -133980 72110.3 145 137 126
-34292.8 -133980 72110.3 145 137 126
-2.39242 -9.09516 2.89696 159 150 141
-1.94385 -7.68721 2.69509 154 149 143
-6.28199 -27.9019 12.3108 146 141 135
-1.58291 -6.14323 1.90973 148 148 140
-1.58291 -6.14323 1.90973 148 148 140
-7.34561 -39.6561 20.8489 104 94 84
-107525 -808794 262192 47 39 36
-1.34368 -5.30944 1.04566 75 77 72
-1.34368 -5.30944 1.04566 75 77 72
-12292.1 -146475 108144 140 143 136
-0.928396 -3.57277 1.07769 126 122 113
-0.96378 -3.93345 1.23551 126 122 113
-10664.2 -133552 89997 114 115 107
-28.783 -393.28 185.026 103 104 98
-1.10937 -4.4107 0.973848 28 30 25
-0.817039 -3.06899 1.14434 114 115 109
-0.824993 -3.60402 1.29012 119 116 109
-0.824993 -3.60402 1.29012 119 116 109
-0.594652 -2.30216 1.35169 122 121 116
-0.594652 -2.30216 1.35169 122 121 116
7.45422 -41.5936 27.0326 64 65 60
7.45422 -41.5936 27.0326 64 65 60
59865.1 1.27241e+06 -510525 120 119 114
-0.841343 -3.44155 0.712425 58 60 57
-0.841343 -3.44155 0.712425 58 60 57
-0.693768 -2.88481 0.664037 148 149 141
-0.693768 -2.88481 0.664037 148 149 141
-0.507847 -2.31492 0.751369 107 108 102
-0.507847 -2.31492 0.751369 107 108 102
-0.480609 -2.32925 0.846469 113 115 110
-0.574124 -2.46036 0.600801 102 103 95
-0.576007 -2.46422 0.585751 87 88 80
-0.0447303 -2.14782 1.52042 118 117 112
-0.33358 -4.00678 1.50018 96 97 91
-0.378053 -4.22118 1.45459 45 49 48
-14854.8 54710.8 -45232.9 102 103 97
0.0596298 -2.73543 1.54994 124 121 112
-0.227351 -1.60009 0.686599 124 121 112
-0.258477 -1.58364 0.618674 113 114 108
-0.251183 -1.56131 0.614223 121 122 116
-32443.4 94902.4 -83412.1 110 107 100
-0.227319 -1.45902 0.571554 105 108 101
-21741.3 63900 -55456.3 113 115 110
17988.8 -50223.9 45114.9 132 129 122
12.2212 -41.2716 32.8179 129 130 124
84276.5 -104500 156766 115 105 95
-0.0570846 -1.25096 0.650857 119 109 99
0.299356 1.85296 0.410475 133 109 85
91408.9 -95607.4 163879 128 122 110
-21319.8 45481.9 -43664 118 109 100
-22253.7 46705.5 -45060.3 119 111 100
4.31175 -3.13216 7.78466 128 122 110
41882.2 -78757.9 82480.7 107 100 90
41882.2 -78757.9 82480.7 107 100 90
84601.9 -98808.5 148067 108 99 90
27025.7 10261.5 35166.5 101 94 86
26380.5 9539.84 33791.8 0 0 0
113101 -27399.8 158107 0 0 0
-0.197111 -1.11629 0.296748 0 0 0
366.872 179.184 438.202 0 0 0
87449.1 -82847.2 132178 0 0 0
0.396715 0.865298 0.596611 0 0 0
0.0144436 -0.830228 0.410635 0 0 0
0.0468088 -0.844467 0.452475 0 0 0
-5915.54 7373.83 -8717.01 0 0 0
0.0562714 -0.82624 0.450824 0 0 0
81432.9 -51271 106202 0 0 0
1.86758 -3.6824 3.12017 0 0 0
-0.0786712 -0.768121 0.246627 0 0 0
12.0552 -18.066 17.9335 0 0 0
0.0545881 -0.680064 0.361669 0 0 0
8958.7 -8823.74 12036.3 0 0 0
12.7096 -18.7213 18.6571 0 0 0
-0.0633165 -0.733075 0.246894 0 0 0
14362.3 -12970.5 18846.5 0 0 0
2.15262 -3.14606 3.23326 0 0 0
0.00623841 -0.677121 0.301466 0 0 0
11999.4 -10764.4 15647.6 0 0 0
2.22462 -3.07344 3.26858 0 0 0
42.367 10.91 44.862 0 0 0
8.90958 2.48748 9.32071 0 0 0
16.845 4.25432 17.5862 0 0 0
0.153966 0.463834 0.199824 0 0 0
8.41029 1.53734 0.889052 0 0 0
0.144862 0.438819 0.184829 0 0 0
45.49 8.16892 47.4494 0 0 0
13.3311 3.01893 13.7523 0 0 0
0.128711 0.444759 0.159682 0 0 0
0.520204 0.337976 0.599936 0 0 0
0.123871 0.458129 0.150639 0 0 0
-298169 -64535.7 -304516 0 0 0
0.156044 0.405232 0.196521 0 0 0
0.117877 0.493505 0.135593 0 0 0
0.117923 0.551757 0.123045 0 0 0
0.132723 0.687708 0.111401 0 0 0
-92.7445 -18.921 -94.0825 0 0 0
19.6044 9.68113 19.3883 0 0 0
8.3045 1.70202 0.781534 0 0 0
0.337713 0.362329 0.387762 0 0 0
8.32456 1.05032 0.778807 0 0 0
25.9652 3.99993 26.6095 0 0 0
3149.62 122.853 3282.54 0 0 0
8.68394 1.8399 8.86189 0 0 0
0.612437 0.393853 0.667142 0 0 0
0.138395 0.389772 0.170802 0 0 0
0.208748 0.35403 0.250711 0 0 0
0.119566 0.586484 0.111331 0 0 0
0.123702 0.404226 0.149302 0 0 0
0.136655 0.712727 0.104743 0 0 0
0.112094 0.50607 0.116539 0 0 0
0.12287 0.399258 0.147529 0 0 0
0.132647 0.378216 0.160931 0 0 0
0.125149 0.385422 0.151209 0 0 0
0.113227 0.430278 0.129887 0 0 0
1.15132 0.464476 1.20302 0 0 0
0.126722 0.64644 0.103093 0 0 0
0.130835 0.674634 0.101989 0 0 0
19.6992 2.82895 20.0414 0 0 0
0.128015 0.656047 0.10185 0 0 0
0.818603 0.403161 0.866115 0 0 0
1.16949 0.462952 1.21905 0 0 0
0.128376 0.658346 0.101313 0 0 0
0.133826 0.367914 0.16168 0 0 0
1935.05 65.1489 1993.92 0 0 0
14.0159 2.23594 14.2078 0 0 0
0.216052 0.331163 0.253589 0 0 0
0.203811 0.253175 0.256378 0 0 0
0.112074 0.424466 0.12795 0 0 0
0.125404 0.63779 0.101019 0 0 0
0.114984 0.557462 0.105142 0 0 0
0.299873 0.327406 0.340072 0 0 0
0.183402 0.333283 0.218015 0 0 0
0.109002 0.463798 0.116759 0 0 0
0.226563 0.326058 0.263713 0 0 0
0.122524 0.61767 0.100804 0 0 0
0.108239 0.466252 0.113842 0 0 0
0.109665 0.41851 0.123497 0 0 0
0.126716 0.36309 0.15118 0 0 0
0.124415 0.631002 0.099143 0 0 0
0.284268 0.317956 0.322538 0 0 0
0.109304 0.503086 0.106658 0 0 0
0.322268 0.317936 0.359766 0 0 0
0.549112 0.343112 0.588598 0 0 0
0.549112 0.343112 0.588598 0 0 0
0.120917 0.607813 0.0975632 0 0 0
0.27891 0.31407 0.314934 0 0 0
0.106753 0.470002 0.108658 0 0 0
0.538579 0.338238 0.576926 0 0 0
0.134479 0.696617 0.095803 0 0 0
0.140544 0.733445 0.0946589 0 0 0
442.664 28.4042 448.842 0 0 0
208.771 17.6658 210.955 0 0 0
0.123135 0.349101 0.145092 0 0 0
0.136895 0.321771 0.164207 0 0 0
0.104755 0.424226 0.112033 0 0 0
4.45449 0.879292 4.47842 0 0 0
0.125284 0.33808 0.147188 0 0 0
0.112658 0.359559 0.129894 0 0 0
0.124009 0.628926 0.0930297 0 0 0
0.124009 0.628926 0.0930297 0 0 0
9.76814 2.44547 0.795073 0 0 0
0.120121 0.341293 0.140731 0 0 0
6.82257 1.12676 6.84175 0 0 0
0.191834 0.298705 0.221527 0 0 0
0.102817 0.407531 0.109942 0 0 0
0.104562 0.389627 0.11509 0 0 0
9.66999 1.34006 9.69584 0 0 0
9.66999 1.34006 9.69584 0 0 0
0.107533 0.509982 0.0948152 0 0 0
0.10305 0.456725 0.100131 0 0 0
0.102287 0.463374 0.0962679 0 0 0
0.11987 0.602179 0.089178 0 0 0
0.118217 0.591675 0.084161 0 0 0
-283228 374221 -269689 128 128 126
-278288 314795 -254863 42 37 34
-285835 350393 -265310 215 214 209
-280752 384037 -267732 151 151 151
-283205 190913 -233345 200 199 195
-1738.92 198.875 -1252.9 213 220 228
-192275 22316.7 -138557 220 227 235
-242284 84286.2 -183994 179 180 175
-210328 42910.7 -153969 220 227 235
-281527 391254 -260624 45 47 42
-157966 20576.5 -110251 217 214 209
-184262 44127.7 -129720 205 201 192
-599757 327759 -454208 21 23 18
-80671.1 18198 -54763.2 212 209 200
-119238 24163.8 -79819.6 145 135 126
-1.86253e+06 69100.2 -926948 217 214 207
-234998 129851 -156891 209 206 199
-272977 148009 -179303 210 209 204
-100283 395006 -89304.1 10 15 9
-42465.4 106440 -29422.6 164 164 156
-100236 740493 -128178 10 12 9
-55963.7 173249 -40366.6 189 186 179
-7.89914 -8.46017 -3.61209 71 54 46
-14.3774 90.4002 -12.8624 30 31 26
-3.59096 -5.09926 -0.602647 113 106 96
-3.69573 -4.80866 -0.417571 23 24 19
-5.24699 -7.4231 -1.74852 109 105 94
-5.25557 -7.54509 -1.77106 112 108 96
-4.99901 -9.60489 -0.431234 72 62 53
-2.18621 -5.20125 0.331385 81 80 75
-1.90022 -8.36424 3.84059 148 142 128
-1.903 -4.79785 1.50886 169 163 149
-1.32346 -3.38315 1.18136 138 134 125
2.6483 -9.01401 6.25737 105 101 90
4.60495 -13.6257 9.8083 113 109 100
-2.66235 -0.0306787 -3.51275 110 106 94
-11346.7 -1665.65 -11595.9 0 0 0
6365.89 3233.55 6005.65 0 0 0
4.37185 0.834263 4.45613 0 0 0
-4.24558e+09 -5.51859e+08 2.72746e+09 69 66 61
4.57803e+09 6.04521e+08 -2.93861e+09 26 27 21
4.84008e+09 6.10139e+08 -3.07248e+09 67 68 62
4.84008e+09 6.10139e+08 -3.07248e+09 67 68 62
-1.85076e-14 3.12172e-15 1.39105e-15 21 23 18
-12.8185 1.01926 1.04202 153 153 153
5.60287e+09 5.8162e+08 -3.28411e+09 96 101 104
-29.0943 17.5539 2.67651 220 221 216
7.74878e+09 1.3191e+09 -6.20097e+09 207 207 199
-17.9712 1.55248 2.58332 210 209 204
-10.4485 13.8403 2.58697 227 227 225
-10.021 13.7631 2.57068 226 227 222
-9.15504 13.5972 2.54428 227 228 223
-6.97572 13.443 2.26452 220 221 216
-6.97572 13.443 2.26452 220 221 216
-6.83168 13.2564 2.38881 233 232 227
-20.3934 14.4635 3.92029 152 149 144
-2.4742e+09 1.03702e+09 -6.77473e+08 162 163 157
-19.5316 14.0921 4.06273 161 162 154
-0.267705 -3.42673 0.697533 61 61 53
-69161.1 -28984.8 34428.1 63 64 56
7.98312 2.54182 11.2961 101 101 91
-454334 -252476 297060 102 93 84
0.234888 -4.20057 0.696994 107 103 94
0.338625 -4.56463 0.697585 106 101 95
-345108 -243264 264481 122 118 107
-15839.3 -9449.02 9755.14 18 19 13
1.61716 -6.68244 1.12326 113 109 98
-265444 -223506 230353 86 85 80
2.0106 -6.82181 1.15861 82 81 77
1.36883 -4.05925 0.709791 44 46 43
4.2645 -6.46187 1.43753 107 106 102
4.20936 -7.97212 1.33465 48 53 49
2.87644 -3.95673 0.741946 91 91 83
7.70817 -7.94434 1.7908 102 95 85
3.37148 -2.85936 0.755921 118 110 99
77868.3 449096 -727268 0 0 0
982241 112710 -665768 0 0 0
9.97817 1.58815 0.9479 0 0 0
1.26081e+06 -63856.5 -538691 0 0 0
-778556 71337.8 83592.5 219 226 234
-691584 -397453 799170 137 130 120
1.02468e+10 1.6907e+09 -6.83041e+09 209 206 199
-49.1013 19.2064 -38.0847 208 205 196
1.0505e+10 8.39031e+08 -5.91464e+09 217 214 207
4.17436e+09 4.70064e+08 -2.80232e+09 219 216 209
-1.71705 -5.54084 0.402749 118 111 101
-5.09639 -17.8689 2.9994 116 109 99
-290761 -186194 207397 81 80 75
-1.02026 -5.34164 0.843311 77 76 71
15.8349 -70.9101 52.7992 123 116 106
1.22643 -7.09802 3.88958 29 31 26
-2177.44 -1089.71 -2041.22 0 0 0
-704898 102774 33419.1 72 67 61
-667092 76212.4 54588.6 73 71 59
-3.32209e+08 -5.3234e+07 2.22353e+08 216 218 215
-5.42392e+09 2.48507e+08 2.33101e+09 222 228 240
1.36913e+09 8.78008e+07 -7.47678e+08 159 162 151
-6.50564e+09 -4.55856e+08 3.60186e+09 159 162 151
-37.9251 11.9078 -30.3878 143 147 132
-700526 86437.1 45496 214 216 215
-1.21765e+06 -702486 1.6835e+06 218 217 215
-732320 99349.1 29413.4 184 182 183
-733468 99088.2 29441.6 186 184 185
-1.55576e+10 1.65326e+10 5.96148e+10 40 40 38
-420065 -366046 -219673 38 35 30
-240575 -97092.9 -135995 214 210 207
-240575 -97092.9 -135995 214 210 207
-321575 -175594 -169833 214 215 209
7.17724 2.93904 11.5621 17 23 11
-264238 -189170 -126144 83 83 75
-746568 -210108 338992 38 34 23
4.50533e+09 5.74847e+09 -1.07925e+10 45 43 31
-736183 -182190 298238 71 71 63
3.03727e+09 3.27204e+09 -6.33964e+09 99 104 100
-681554 -270624 387848 46 42 31
-5.08322 -7.3784 -0.666288 87 80 72
-533733 -220162 262578 87 80 72
-472325 -293042 338910 17 19 16
-3.14135 -4.64796 -0.268016 66 69 60
-2.74906 -5.6576 -0.064703 86 92 82
-284813 -107594 119627 205 206 200
-360064 -238407 259793 72 73 65
-363799 -253139 275292 64 59 55
-2.06414 -4.14108 0.412589 115 102 94
174138 91849 -94592.8 115 102 94
-1.63825e+07 -2.69306e+08 9.8978e+07 25 28 21
-1.63825e+07 -2.69306e+08 9.8978e+07 25 28 21
-28.4747 -141.608 60.0147 211 210 206
-1.35251 -4.65469 0.878396 162 158 146
-2.8107 -23.0571 15.0376 21 22 17
-11.7903 -115.914 56.6275 188 182 170
-141223 -1.41668e+06 468464 136 132 123
-0.923998 -4.94029 1.05887 79 80 75
-50234.9 -2.41382e+06 969042 114 111 104
-50234.9 -2.41382e+06 969042 114 111 104
5.43484e+06 -2.47123e+07 1.49499e+07 79 80 75
-0.70125 -4.23133 1.27605 125 126 120
734513 -3.83825e+06 2.19901e+06 85 74 70
-0.572882 -4.14911 1.35524 111 112 106
-0.374841 -3.46695 1.43139 142 142 132
-0.463369 -4.15174 1.45408 108 109 103
2.27225e+06 -9.72076e+06 5.9778e+06 122 123 117
11767.7 -142730 73064.7 116 117 111
1.81695e+06 -7.56006e+06 4.68881e+06 98 99 93
2.24221e+06 -8.48338e+06 5.40596e+06 88 90 79
-0.0245742 -2.87077 1.55372 135 130 124
-601732 4.54797e+06 -2.55932e+06 110 111 105
0.100029 -2.61562 1.59348 115 103 91
2.61164e+06 -9.43736e+06 6.10143e+06 99 99 91
0.0794425 -2.82088 1.60093 141 142 136
90.3517 -474.963 291.929 125 121 110
11.7368 -24.7291 24.2069 132 124 113
38.2847 -76.8095 64.0728 0 0 0
-1.89663e+06 4.59253e+06 -3.29935e+06 0 0 0
923914 -2.21439e+06 1.59592e+06 0 0 0
923914 -2.21439e+06 1.59592e+06 0 0 0
24.5782 -36.0807 36.6357 0 0 0
1.00539e+06 -2.42036e+06 1.74186e+06 0 0 0
-646322 1.51647e+06 -1.09982e+06 0 0 0
1.89326 -3.26847 3.03079 0 0 0
-1.02918e+06 2.39134e+06 -1.73943e+06 0 0 0
2.0739 -3.3224 3.21486 0 0 0
18.1567 -18.7514 24.6425 0 0 0
2.08056 -3.07236 3.12114 0 0 0
2.10873 -3.29375 3.18779 0 0 0
2.10873 -3.29375 3.18779 0 0 0
24.2938 -29.4913 33.2283 0 0 0
-35.935 -8.13237 -37.5831 0 0 0
-47.6575 -11.0802 -49.5627 0 0 0
-356587 -87048 -371041 0 0 0
-37.9547 -7.0529 -39.6886 0 0 0
465830 81643.2 483060 0 0 0
-0.662141 0.107009 -0.615261 0 0 0
-0.662147 0.107007 -0.615267 0 0 0
-0.662118 0.107013 -0.615238 0 0 0
-0.662111 0.107017 -0.615232 0 0 0
-0.662113 0.107016 -0.615233 0 0 0
4.54235e+09 -7.80733e+08 -3.41634e+08 21 23 18
-6.78147e+09 1.60262e+09 1.40945e+10 130 131 133
4.51123e+09 -8.1308e+08 -3.45331e+08 28 30 27
-4.96742e+09 -2.24221e+09 -2.3125e+09 109 105 104
-12.0981 1.1156 1.24662 206 203 196
-3.11064e+06 9.56234e+06 1.70168e+06 177 176 171
1.1073 -6.42164 1.06422 120 117 108
1.14745 -6.47368 1.08838 116 112 103
2.23929 -6.81307 1.18852 43 43 41
4.20199 -7.96107 1.33269 48 53 49
6.44442 -8.44473 1.58716 97 98 92
21.0161 13.4435 3.01778 0 0 0
21.5105 -14.1974 2.84525 0 0 0
371063 320969 45699.2 0 0 0
17.8062 -14.3846 2.3764 0 0 0
4.03449e+09 -1.44436e+08 -5.39376e+09 209 208 203
-1.09343e+06 303482 -806315 216 213 204
-0.396089 0.0239252 -1.10601 20 22 17
-3.96005 -6.48712 -0.762888 6 22 12
-1.11304 -10.9153 3.64806 32 34 31
5.08155 -3.10899 5.90138 0 0 0
-4.94456e+09 -2.06875e+09 -2.17671e+09 119 118 113
-9.22462 2.43319 -7.46783 97 96 91
-9.21337 2.43061 -7.45836 102 99 94
-11.9692 2.26368 -9.50343 197 203 199
-3.87612e+09 1.22703e+09 -3.12155e+09 216 218 215
-7.83864 2.29222 -6.35995 216 218 215
3.50511e+09 2.27116e+09 1.61085e+09 232 232 230
3.07868e+09 2.00604e+09 1.4017e+09 197 197 197
-2.61936e+09 -1.62803e+09 -1.2011e+09 185 185 185
-3.40096 0.818442 -2.64726 198 198 200
-3.40856 0.835843 -2.64967 203 201 202
-3.2896 -5.09312 -0.422445 87 88 80
-1.81756 -4.86654 0.55612 71 72 66
1.38448 -2.30461 2.42967 0 0 0
1.45377e+09 9.53638e+08 1.51732e+09 0 0 0
34.6187 51.2218 30.476 0 0 0
1.84117 -3.61606 3.05116 0 0 0
1.03592 -1.69416 1.70461 0 0 0
18.6236 19.0806 17.7442 0 0 0
19.3238 19.5012 18.3429 0 0 0
1.68131 -2.41478 2.51374 0 0 0
21.3594 19.9976 20.1045 0 0 0
21.8589 19.8119 20.535 0 0 0
33.7176 33.6444 30.2483 0 0 0
19.3988 11.0765 19.3976 0 0 0
19.216 10.0659 19.1695 0 0 0
3.08719 1.14497 3.06091 0 0 0
-15.8843 12.7939 6.10115 88 84 75
-15.8843 12.7939 6.10115 88 84 75
7.74772 2.76933 12.0101 130 146 146
7.86437 2.71979 12.0322 164 177 186
7.84414 2.72898 12.0194 37 38 30
8.01798 2.65277 12.0655 164 174 184
7.99368 2.66357 12.0587 163 173 183
8.05472 2.63632 12.0737 166 174 185
-0.394046 -0.363321 17.1645 165 173 184
8.00284 2.65964 12.058 165 173 184
-11.2319 10.7825 7.13002 62 66 51
8.15584 2.59205 12.0902 163 171 182
8.20495 2.57007 12.1021 162 172 182
8.22512 2.56207 12.105 161 171 181
-0.357219 6.18054 9.90322 188 185 176
-1.80105 6.78761 9.52162 197 190 180
0.898031 5.64736 10.2162 185 181 170
7.943 2.68726 12.0167 21 26 19
8.24803 2.55252 12.1019 165 171 183
8.24803 2.55252 12.1019 165 171 183
0.0191523 6.01757 9.97973 194 187 177
-2.6451 7.14321 9.28683 94 84 72
8.1636 2.59042 12.0729 36 29 36
-1.66013 6.72484 9.53492 91 83 70
-1.67908 6.73276 9.52976 91 83 70
-0.278589 6.14218 9.89066 187 183 172
8.18844 2.5788 12.0756 25 24 20
7.59393 2.84312 11.9053 92 102 93
7.97196 2.67632 12.0113 103 99 98
7.94863 2.68692 12.0039 15 24 21
0.292877 5.89832 10.0344 171 165 153
-5.88675 8.51037 8.4242 206 203 198
7.99458 2.66636 12.0156 29 34 27
-2.79808 7.20378 9.22373 198 195 186
8.04682 2.64237 12.0291 17 18 12
8.07384 2.63134 12.0353 17 20 13
1.49292 5.39582 10.3344 184 180 169
8.03073 2.65044 12.0229 25 31 21
-2.69817 7.15843 9.23963 201 197 186
7.90507 2.70638 11.9811 27 29 18
-2.47471 7.06322 9.29113 208 203 197
-2.06536 6.88909 9.39456 207 204 197
-2.96712 7.26989 9.15448 201 194 184
-4.04537 7.72465 8.87158 213 212 207
-4.04537 7.72465 8.87158 213 212 207
-21.4974 15.0941 4.28968 102 95 85
-2.55527 7.09542 9.25566 206 203 194
7.46121 2.90494 11.845 184 190 202
-22.3012 15.4309 4.06408 117 123 113
-1.2434 5.52807 10.7076 199 186 180
1.6641 5.31936 10.3523 199 186 180
-2.52729 7.08299 9.25442 203 200 191
-20.2644 14.5679 4.5816 122 125 114
-22.709 15.6013 3.93576 108 108 98
1.78932 5.26543 10.3813 201 193 182
-4.70893 8.00045 8.67572 203 199 190
-8.82575 11.4971 5.65829 116 118 107
-1.63595 6.70633 9.48206 205 202 195
-23.6062 15.9795 3.69052 119 120 112
-19.5821 14.2792 4.75241 81 81 73
7.42729 2.92083 11.8265 185 191 203
-6.36126 8.75042 8.28776 123 123 115
0.206633 5.92659 9.96666 209 202 194
-7.04574 8.98708 8.0513 179 179 167
-14.7499 12.238 6.01885 122 123 115
7.39394 2.9359 11.813 184 192 203
7.31393 2.97134 11.7899 190 196 208
-16.3732 12.9234 5.57843 107 104 95
-15.3623 12.4948 5.84596 87 82 76
-5.43603 8.30685 8.46823 182 183 169
-10.8932 10.6096 7.01782 67 65 52
-1.05271 6.45924 9.61941 207 205 193
-1.05271 6.45924 9.61941 207 205 193
-0.0438252 6.02898 9.8906 207 204 195
-6.10247 8.60875 8.29981 81 79 67
-6.73934 8.85519 8.10946 90 81 72
-5.89497 8.49963 8.33067 73 67 53
-11.1298 10.7064 6.93941 83 80 73
-4.58818 7.94868 8.66924 91 85 71
-2.84591 7.21382 9.12882 181 177 168
0.156509 5.94403 9.92909 209 206 197
-2.6715 7.14014 9.16822 118 127 110
-2.50583 7.07018 9.21219 185 196 179
-2.50583 7.07018 9.21219 185 196 179
-1.93235 6.8277 9.36301 187 184 177
-2.30322 6.98307 9.25948 86 80 66
-2.67072 7.13902 9.15982 82 79 62
-0.746528 6.32768 9.66831 181 174 166
-6.17081 8.61054 8.22438 94 92 80
-12.3691 11.2196 6.5621 69 61 50
2.40189 5.00119 10.4888 201 199 187
-4.92552 8.07372 8.48644 68 69 55
-1.12767 6.47063 9.46952 109 103 89
-8.65262 9.64212 7.40406 116 116 108
-0.932365 6.38611 9.51137 82 76 62
7.70806 2.72165 11.7847 71 72 66
7.70806 2.72165 11.7847 71 72 66
7.76617 2.69281 11.7717 43 39 36
5.28914 3.72604 11.0417 116 105 101
8.37278 2.44691 11.926 55 54 52
8.37278 2.44691 11.926 55 54 52
5.4314 3.66512 11.0598 193 192 187
5.4314 3.66512 11.0598 193 192 187
8.37125 2.44632 11.9181 178 157 166
6.07794 3.38941 11.2403 188 192 178
7.83268 2.65755 11.7468 33 30 23
8.60389 2.34419 11.9604 28 30 17
8.03506 2.5705 11.7949 41 38 33
8.61743 2.33676 11.9586 83 84 68
7.88815 2.63078 11.7445 69 70 62
8.62633 2.33268 11.9527 34 30 19
8.28955 2.45677 11.8367 105 110 106
7.08919 2.95899 11.4519 26 31 25
8.35833 2.42596 11.8426 27 28 22
8.35833 2.42596 11.8426 27 28 22
8.09535 2.53608 11.7584 16 21 15
8.1434 2.51378 11.7615 8 10 5
6.50304 3.18712 11.2565 211 208 201
-38.159 37.5657 -21.4722 28 31 24
6.7614 3.08416 11.3253 189 185 182
7.01188 2.98052 11.4028 179 177 182
6.95057 3.00616 11.3799 129 125 122
6.95057 3.00616 11.3799 129 125 122
7.83637 2.64359 11.6518 70 66 63
7.64317 2.72658 11.5863 47 47 39
8.88925 2.21284 11.968 42 38 29
8.27651 2.45579 11.7882 18 24 12
8.27908 2.45476 11.7886 18 24 12
-33.8352 32.6583 -17.9248 159 160 155
8.98286 2.17183 11.9875 66 65 63
7.99912 2.57272 11.684 33 41 30
8.00035 2.57223 11.6842 33 41 30
-37.1065 36.2989 -20.7967 214 213 208
-1.23257e+07 5.04871e+06 -3.88992e+06 160 162 159
-37.0813 36.2494 -20.8161 212 212 204
-37.5351 36.701 -21.2345 215 215 207
-13.6223 11.4061 4.86817 168 172 173
-36.5574 35.6479 -20.3809 185 186 181
-1.15376e+07 4.72584e+06 -3.65163e+06 130 132 129
2.53276e+07 -1.0184e+07 8.34499e+06 205 204 209
-33.8798 32.632 -18.1219 193 192 190
8.57998 2.32374 11.8508 150 149 144
-1.12505e+07 4.63132e+06 -3.50042e+06 32 33 27
1.54714e+07 -6.20696e+06 5.12831e+06 180 178 181
1.54714e+07 -6.20696e+06 5.12831e+06 180 178 181
-7.90788 9.05483 6.61425 21 27 13
-1.25766e+07 5.13525e+06 -4.00735e+06 179 180 175
-21.9637 14.7922 2.12025 45 46 30
-4.58008 7.69436 7.63555 35 35 23
-4.58008 7.69436 7.63555 35 35 23
7.58375 2.75159 11.4908 49 41 30
-1.16353e+07 4.78324e+06 -3.64956e+06 29 34 30
5.75122 3.5015 10.8981 203 202 198
0.625324 5.57213 9.27171 209 210 204
0.625324 5.57213 9.27171 209 210 204
8.31347 2.43844 11.7327 69 69 69
6.15414 3.33409 11.0265 13 24 16
6.5056 3.19098 11.1357 207 207 199
6.50083 3.19287 11.1347 207 207 199
8.23687 2.47011 11.703 52 49 42
6.67486 3.12154 11.188 213 210 205
5.77099 3.49164 10.8944 205 204 200
8.56694 2.33039 11.8109 62 68 64
8.56694 2.33039 11.8109 62 68 64
5.48749 3.59945 10.8022 212 211 206
5.48749 3.59945 10.8022 212 211 206
8.42707 2.39075 11.751 78 84 74
6.33118 3.26016 11.0559 167 167 157
6.26472 3.28738 11.0332 106 119 109
8.55611 2.33548 11.789 33 35 24
8.55611 2.33548 11.789 33 35 24
-4.71326 7.71993 7.50444 39 40 34
-5.74522 8.13847 7.15564 28 29 21
-8.56311e+06 3.55724e+06 -2.60153e+06 32 33 27
7.49207 2.78208 11.4181 150 147 140
7.49207 2.78208 11.4181 150 147 140
8.12106 2.52211 11.6248 35 35 25
-17.6447 12.9758 3.25413 14 16 11
-3.3195 7.14794 7.9047 41 42 28
8.30988 2.43863 11.6836 33 33 21
7.70611 2.69464 11.4651 48 51 42
-3.18013 7.09255 7.89762 62 62 54
7.71489 2.69008 11.4582 44 25 21
6.41404 3.2166 11.0345 168 169 161
8.72451 2.26257 11.8057 56 58 47
6.31745 3.25353 11.002 36 44 33
6.32038 3.25351 11.0009 31 39 28
7.75269 2.67391 11.465 36 16 9
6.77477 3.0669 11.1513 211 210 205
4.14656 4.1314 10.2793 29 31 18
6.34773 3.24309 11.0066 134 142 129
3.14611 4.53444 9.94792 172 149 141
6.71798 3.08964 11.1218 208 207 202
6.68451 3.10374 11.1128 208 207 202
6.73973 3.0804 11.1301 212 211 206
7.21214 2.8891 11.278 197 196 192
7.88292 2.61759 11.4954 95 97 86
7.86403 2.62489 11.484 187 174 165
4.20182 4.1056 10.268 67 61 49
5.61653 3.53736 10.7292 215 212 205
8.28201 2.44877 11.6224 17 20 13
6.38008 3.23043 10.9801 40 53 44
7.93429 2.59541 11.4993 192 183 174
7.78595 2.6603 11.4439 177 180 173
8.70709 2.26629 11.7698 63 65 54
6.50259 3.17867 11.0144 141 143 132
7.75199 2.67401 11.4281 153 155 150
7.75151 2.67425 11.4279 153 155 150
6.76862 3.06932 11.1041 209 208 203
6.65678 3.11479 11.0659 201 201 193
7.81951 2.64526 11.445 179 179 171
7.81899 2.64552 11.4448 179 179 171
4.12656 4.12929 10.218 75 72 63
9.21283 2.07184 11.9171 105 106 100
8.44613 2.37416 11.669 13 16 7
8.7889 2.2294 11.7719 23 26 15
6.1955 3.29295 10.8619 199 198 194
6.1955 3.29295 10.8619 199 198 194
7.67159 2.69928 11.3596 184 183 178
8.36124 2.41135 11.5975 36 27 20
9.32178 2.02142 11.9134 40 42 31
8.96232 2.1544 11.7923 14 17 8
7.97668 2.56886 11.4231 184 184 174
7.50424 2.75628 11.2412 204 201 196
7.89291 2.59931 11.3739 143 125 111
7.28822 2.83951 11.1559 211 210 205
8.87551 2.189 11.7169 193 190 183
7.55874 2.73075 11.2447 200 199 194
8.6823 2.26646 11.6458 193 190 183
8.74771 2.23643 11.6485 190 190 182
8.05136 2.52448 11.378 184 184 176
8.7976 2.21365 11.6515 191 191 183
7.79401 2.6205 11.2446 198 197 193
8.10456 2.49778 11.3566 121 121 111
7.71466 2.64858 11.1996 206 206 198
7.70637 2.65011 11.1875 208 207 202
7.4638 2.74411 11.0786 210 209 204
8.09115 2.49485 11.3105 167 172 165
7.92931 2.55794 11.2481 186 182 179
7.981 2.53519 11.2504 191 190 186
8.35208 2.38755 11.3855 184 184 176
8.05087 2.50401 11.2606 173 169 166
8.30711 2.40153 11.3488 188 185 176
7.76347 2.61358 11.1432 210 209 204
6.79599 2.98824 10.7856 23 18 14
9.25743 2.00965 11.7067 194 194 186
8.19763 2.44017 11.2812 161 160 158
10.3564 1.56038 12.036 177 170 160
7.02045 2.87383 10.7446 40 25 22
7.02045 2.87383 10.7446 40 25 22
8.87015 2.15111 11.4055 184 181 172
10.4942 1.49798 12.043 174 174 164
9.11529 2.02876 11.3658 186 186 174
7.29344 2.69258 10.6042 202 201 197
6.24188 3.07553 10.1555 211 210 205
7.58019 2.57069 10.6644 188 189 184
8.6106 2.20677 11.0502 213 210 205
9.27538 1.95422 11.348 187 187 179
8.88915 2.0967 11.1596 202 201 196
9.24824 1.95996 11.3117 184 185 177
9.42733 1.89094 11.3847 188 185 178
7.74331 2.49374 10.6608 183 182 180
10.1928 1.58406 11.7295 191 190 185
8.88922 2.08142 11.104 207 206 202
9.54739 1.83965 11.3967 181 181 173
9.08059 2.00437 11.1368 202 201 197
11.1635 1.19916 12.0965 170 170 160
9.21187 1.94711 11.1705 196 195 191
8.32282 2.26254 10.7706 165 168 159
9.44642 1.86159 11.2608 185 186 178
9.44642 1.86159 11.2608 185 186 178
9.62406 1.79435 11.3391 190 187 180
11.1996 1.18242 12.0875 64 66 55
8.44878 2.20195 10.7637 159 160 152
7.88794 2.39792 10.527 177 176 172
11.4723 3.56658 9.66388 198 198 190
8.81909 2.07018 10.8302 199 199 191
11.7143 0.970165 12.2802 10 15 9
8.69019 2.11501 10.7745 175 176 168
10.8623 1.29595 11.8618 187 187 177
8.60909 2.11762 10.7048 125 135 126
11.4636 1.06556 12.1231 53 53 45
10.9424 1.25886 11.826 188 187 182
11.1159 1.17472 11.7517 72 78 64
11.8808 0.879307 12.1226 51 51 39
11.4175 1.04509 11.7978 65 69 55
10.983 1.21033 11.4642 32 34 21
10.8439 1.2547 11.3457 33 36 25
10.9579 1.20838 11.3452 25 27 16
10.8809 1.2253 11.2204 197 172 165
11.1629 1.11955 11.3406 21 22 14
11.2844 1.07402 11.3939 21 24 17
11.3601 1.04324 11.4076 21 24 15
11.0871 1.12952 11.1749 52 29 23
10.5038 1.30565 10.7554 211 208 203
11.995 0.79525 11.8286 89 80 65
11.0205 1.14918 11.0697 188 187 182
11.5007 0.97902 11.3738 16 19 12
11.5007 0.97902 11.3738 16 19 12
11.3592 1.01998 11.2085 52 38 25
11.4777 0.980953 11.2977 26 29 20
11.4223 0.998225 11.2278 43 40 25
11.5367 0.959179 11.3189 30 34 20
11.5868 0.932488 11.2628 22 28 16
12.2431 0.686672 11.7885 162 159 150
12.4485 0.597956 11.7911 159 155 146
-1.11118e+06 -836755 -1.61987e+06 210 207 202
12.3301 0.629383 11.2356 124 124 116
11.7376 0.793449 10.435 125 118 108
412419 538929 823282 144 137 127
1.19713 -28.7261 20.2994 120 117 110
224444 309010 463244 116 113 106
-611128 329274 -936305 32 34 29
-573395 410789 -1.10157e+06 31 33 28
12.4585 0.545328 10.1638 130 132 121
-6.80489e+06 -1.74576e+08 -1.47759e+08 172 154 144
14.6578 -0.325792 12.2767 44 47 38
-5.25948e+08 2.94909e+09 2.31722e+09 157 154 145
-3.44906e+08 2.49934e+09 2.25322e+09 133 127 115
-6.19554e+08 2.6138e+09 1.97152e+09 179 176 169
-5.91391e+08 2.77753e+09 2.76161e+09 130 128 116
5.29395e+07 -3.06364e+08 -2.26417e+08 120 114 100
-7.2613e+08 2.29481e+09 1.78893e+09 74 74 62
-9.85761e+08 3.10037e+09 2.01642e+09 99 95 84
7.25828e+07 -2.09236e+08 -1.3076e+08 101 103 92
4.28716e+07 -1.51376e+08 -1.00091e+08 91 93 82
1.51681e+09 -3.43246e+09 -2.05692e+09 81 83 72
8.28056e+07 -2.03689e+08 -1.40797e+08 104 104 94
-1.62101e+09 3.33185e+09 1.93621e+09 90 91 83
1.46636e+09 -2.886e+09 -1.7045e+09 107 108 100
5.06997e+09 -2.51397e+09 -9.45193e+08 65 61 50
-1.09822e+09 2.07397e+09 1.23663e+09 91 92 84
-2.0841e+09 3.7089e+09 2.17268e+09 85 85 75
3.43623e+09 -1.62947e+09 -6.97096e+08 109 109 97
2.90838e+09 -1.35274e+09 -5.24194e+08 99 92 82
9.57293e+07 -4.103e+07 -2.1545e+07 117 107 95
1.65403e+08 2.23845e+08 -4.11416e+08 38 31 21
1.65403e+08 2.23845e+08 -4.11416e+08 38 31 21
9.92436e+07 -4.41247e+07 -1.78834e+07 113 103 91
3.19462e+08 -1.51046e+08 -2.74285e+07 100 94 82
4.30172e+08 -2.02177e+08 -3.22162e+07 89 81 70
10.1551 2.19875 14.0395 114 104 92
2.15926e+08 1.67471e+08 -3.68622e+08 114 108 96
2.70194e+09 -1.26339e+09 -1.2866e+08 75 75 65
7.51747e+08 -3.50239e+08 -6.42314e+07 110 86 62
-1.12283e+09 -1.9155e+09 3.16411e+09 122 108 95
-3.64861e+09 -1.11562e+09 3.97536e+09 122 116 104
-3.38021e+09 -7.56084e+08 3.316e+09 121 113 102
4.46566e+08 1.00679e+09 -1.56892e+09 114 108 96
1.36874e+09 -6.36484e+08 -7.19663e+07 83 71 57
2.88772e+09 -1.24727e+09 -4.10438e+08 89 85 76
2.88772e+09 -1.24727e+09 -4.10438e+08 89 85 76
1.18906e+09 2.54524e+08 -1.14235e+09 113 107 93
-3.28092e+09 -6.56743e+08 3.08435e+09 115 109 95
-3.28092e+09 -6.56743e+08 3.08435e+09 115 109 95
-1.42229e+09 -2.26867e+09 3.75881e+09 115 107 94
-9.94511e+07 -3.14756e+07 1.07379e+08 112 108 97
5.46082e+08 3.26587e+08 -7.80686e+08 125 112 103
6.07482e+08 1.10095e+08 -5.52993e+08 112 93 78
9.95925e+08 2.33246e+08 -9.69746e+08 116 105 87
-6.83543e+07 -3.72221e+07 9.27166e+07 118 112 100
-1.69392e+09 -3.64331e+08 1.59728e+09 141 108 73
-1.69392e+09 -3.64331e+08 1.59728e+09 141 108 73
1.75728e+09 -8.11918e+08 -6.5271e+07 69 71 60
1.549e+09 -7.12895e+08 -7.55548e+07 78 75 68
5.60387e+08 1.11889e+08 -5.15904e+08 126 91 61
5.99517e+08 1.34682e+08 -5.69086e+08 120 94 71
5.72976e+08 1.57424e+08 -5.77088e+08 98 80 66
3.59124e+08 2.32644e+08 -5.22215e+08 128 98 70
1.42526e+09 2.62468e+08 -1.25456e+09 89 86 77
1.54627e+09 3.1621e+08 -1.39192e+09 0 0 0
-1.13693e+08 -1.7031e+07 9.42065e+07 0 0 0
-1.21844e+08 -2.10262e+07 1.04125e+08 0 0 0
2.68882e+09 -1.22675e+09 -7.11617e+07 0 0 0
2.19709e+09 2.93648e+08 -1.76921e+09 0 0 0
-1.22774e+08 -1.22324e+07 9.1618e+07 0 0 0
-1.34625e+08 -2.11888e+07 1.09014e+08 0 0 0
1.50992e+06 266489 -1.255e+06 0 0 0
-1.4618e+08 -1.88886e+07 1.12733e+08 0 0 0
521.068 91.6598 -407.2 0 0 0
1.4798e+06 254571 -1.2123e+06 0 0 0
4.45651e+08 6.89876e+07 -3.47506e+08 0 0 0
1.16385e+06 176858 -896574 0 0 0
-1.85172e+08 -1.49497e+07 1.26339e+08 0 0 0
-1.64074e+08 -1.30465e+07 1.08131e+08 0 0 0
-2.18194e+08 -6.22661e+07 1.9689e+08 0 0 0
842195 91722.5 -576257 0 0 0
745958 86848.3 -514269 0 0 0
3.12377e+08 3.6609e+07 -2.15683e+08 0 0 0
859569 74454.4 -557638 0 0 0
654308 76889.7 -436286 0 0 0
703691 65475.4 -444074 0 0 0
710424 64973.5 -445679 0 0 0
716945 64657.8 -447664 0 0 0
1.81563e+08 1.71366e+07 -1.14054e+08 0 0 0
1.57842e+08 1.40809e+07 -9.79823e+07 0 0 0
1.86024e+08 2.04341e+07 -1.20008e+08 0 0 0
7.41893e+08 1.85152e+08 -5.9879e+08 0 0 0
7.41893e+08 1.85152e+08 -5.9879e+08 0 0 0
2.87149e+08 4.94801e+07 -2.05219e+08 0 0 0
740382 61346.4 -448705 0 0 0
740382 61346.4 -448705 0 0 0
2.69128e+08 4.62926e+07 -1.9168e+08 0 0 0
658602 88546.4 -439532 0 0 0
744261 60956.7 -449116 0 0 0
674338 120579 -484223 0 0 0
747122 60394 -448718 0 0 0
747122 60394 -448718 0 0 0
879250 -12701.9 -428260 0 0 0
9.5377e+08 2.9703e+08 -8.33337e+08 0 0 0
1.67497e+06 408322 -1.32504e+06 0 0 0
969814 192999 -714337 0 0 0
2.77655e+08 1.50789e+08 -3.16947e+08 0 0 0
796782 24131.4 -421536 0 0 0
9.79514e+08 2.7247e+08 -8.04116e+08 0 0 0
1.32689e+08 7.25991e+06 -7.37433e+07 0 0 0
1.5094e+08 5.49843e+06 -8.05838e+07 0 0 0
2.58259e+08 9.50446e+07 -2.39045e+08 0 0 0
1.73208e+08 5.21145e+06 -9.08474e+07 0 0 0
1.08006e+06 157527 -711978 0 0 0
2.78901e+08 1.66415e+08 -3.32133e+08 0 0 0
2.7986e+08 1.02232e+08 -2.56472e+08 0 0 0
1.10094e+08 1.1402e+06 -5.45899e+07 0 0 0
8.79777e+08 4.5644e+08 -9.64241e+08 0 0 0
975382 133092 -627383 0 0 0
2.14271e+08 2.23458e+07 -1.29608e+08 0 0 0
2.1744 5.02422 13.6102 0 0 0
2.92405e+08 1.22825e+08 -2.85481e+08 0 0 0
-2.02376e+08 -3.31738e+07 1.35604e+08 0 0 0
-2.02376e+08 -3.31738e+07 1.35604e+08 0 0 0
1.16442e+06 180790 -767580 0 0 0
759860 60712.2 -432165 0 0 0
714913 70241.6 -421999 0 0 0
8339.38 1306.27 -5472.8 0 0 0
-2.0541e+08 -3.20873e+07 1.35198e+08 0 0 0
1.3657e+06 224241 -911740 0 0 0
9.13702e+08 3.87348e+08 -8.89829e+08 0 0 0
736968 70706.7 -432085 0 0 0
1.24551e+06 188441 -807511 0 0 0
820465 35765.9 -426698 0 0 0
1.07431e+08 4.71172e+06 -5.59089e+07 0 0 0
6.11813e+08 8.90451e+07 -3.91436e+08 0 0 0
3.01345e+08 1.27096e+08 -2.90913e+08 0 0 0
3.80206e+08 4.82847e+07 -2.34486e+08 0 0 0
3.0599e+08 1.65847e+08 -3.38226e+08 0 0 0
9.45463e+07 2.9794e+06 -4.76081e+07 0 0 0
832718 23050.7 -415369 0 0 0
853462 14840.2 -414549 0 0 0
9.85245e+08 2.8454e+08 -7.93251e+08 0 0 0
3.62674e+08 4.35968e+07 -2.19672e+08 0 0 0
8.99834e+08 4.0461e+08 -8.93287e+08 0 0 0
831760 22313.7 -411327 0 0 0
1.06994e+09 1.56437e+08 -6.79343e+08 0 0 0
8.80301e+08 4.29088e+08 -9.0959e+08 0 0 0
3.10904e+08 1.18089e+08 -2.81808e+08 0 0 0
9.58457e+08 3.35671e+08 -8.34652e+08 0 0 0
3.21679e+08 1.62879e+08 -3.37379e+08 0 0 0
-6.64671 19.3644 4.03399 156 155 150
3.6833e-07 -1.59422e-06 2.51624e-07 112 105 97
624692 -239768 78106.7 0 0 0
4.98229 2.84141 0.532632 0 0 0
-132.7 87.2438 -114.406 70 67 58
-10.4304 63.7415 -8.84577 174 171 164
-1.64864 -11.0372 3.22152 80 79 74
-4.30785 -30.2025 9.60661 74 75 69
669714 -2.5004e+06 1.42102e+06 164 164 156
669714 -2.5004e+06 1.42102e+06 164 164 156
0.422374 -7.98062 3.59342 30 32 27
1.93134 -12.1555 8.36087 111 113 102
0.528239 -7.80387 3.60645 28 30 25
5.93571 -4.87278 7.45807 0 0 0
6.02373 6.11925 4.37887 0 0 0
3.49269 -3.64994 3.95633 0 0 0
-93.8131 28.6647 -75.0196 215 216 211
-3.81959 0.681087 -2.99585 33 35 34
-63.4249 11.7618 -47.6012 43 45 42
4.80727 4.89814 4.54719 0 0 0
-59.2667 21.9484 -35.1862 0 0 0
2.00569e+09 7.96067e+08 2.693e+09 0 0 0
-1.29788 6.09585 10.1994 189 185 174
-0.67404 5.64822 10.5266 202 199 190
-2.17745 7.02081 9.26258 206 203 194
-2.34096 7.28793 8.95069 181 189 174
-0.993815 6.25711 9.79143 178 175 166
6.69268 3.80368 10.7258 197 192 189
3.81671 2.4727 12.3805 202 199 194
8.47267 3.38476 10.7671 123 128 124
4.20666 2.26944 12.5344 95 101 99
6.10638 3.4866 10.9533 172 158 155
-738376 -254644 371029 34 36 23
-624283 -349571 457599 66 65 63
-669356 -306677 416114 87 89 84
-663372 -311886 420008 35 36 28
-35.7747 34.5591 -20.0165 122 124 123
-3.99749 12.6316 2.14004 34 36 33
10.6644 3.08528 10.7294 56 55 53
-825198 -195690 296277 211 210 205
-7.18894 16.2648 -1.56538 25 26 20
6.21045 1.99966 12.3262 95 97 86
4.56413 3.98416 10.3584 69 66 49
-24.7176 22.3168 -10.9828 42 45 38
6.79511 2.07599 12.0766 189 186 179
-24.5462 21.4459 -11.645 23 23 15
757754 445863 -362310 208 208 200
632305 351369 -278540 197 197 189
1.45666e+06 344769 684359 200 199 195
-2.29903e+09 2.4867e+09 -1.18142e+09 84 84 74
-2.28111e+09 2.56616e+09 -1.34121e+09 106 106 98
-1.98231e+09 1.52217e+09 -5.82151e+08 69 66 59
-36.6018 -4.96609 52.6391 0 0 0
6.44236e+08 3.59843e+08 -7.50467e+08 0 0 0
-15.8533 -9.97117 39.7345 0 0 0
-15.7284 -9.93491 39.6215 0 0 0
-15.7284 -9.93491 39.6215 0 0 0
-40.4084 -31.2191 76.2561 0 0 0
-44.3099 -21.2548 65.8867 0 0 0
-43.5423 -27.0089 72.2006 0 0 0
-16.8093 -5.96656 35.0097 0 0 0
-16.5488 -5.49514 34.2481 0 0 0
-57.618 -31.0384 82.3904 0 0 0
-53.8149 -2.10567 -21.3837 83 79 67
12.9748 5.81832 16.4614 159 169 181
12.9748 5.81833 16.4614 164 172 183
12.9747 5.81843 16.4614 167 177 189
12.9747 5.8184 16.4614 168 176 189
12.9748 5.81837 16.4614 174 180 192
-52.5176 -0.851209 -20.8879 56 55 50
-50.7219 -0.447855 -19.8847 72 75 64
-44.4544 0.477348 -16.1166 79 79 69
12.9749 5.8182 16.4614 23 27 13
-54.4246 -0.80829 -22.1987 194 194 186
-46.4645 0.26176 -17.3804 112 112 104
-54.4687 -0.773549 -22.2512 194 194 186
-45.8399 0.368699 -17.0303 115 116 111
-43.7955 0.68331 -15.8245 98 94 85
-53.4626 -0.56819 -21.6965 197 197 187
-46.1321 0.404091 -17.2777 99 95 83
12.975 5.81812 16.4613 16 15 10
-50.4006 -0.141529 -19.8675 93 95 94
-49.2411 0.0149608 -19.1735 121 123 120
-48.802 0.0885343 -18.9202 128 130 125
12.8618 5.7123 16.3397 17 23 11
15.2885 7.998 18.9605 36 36 26
-9.60143 7.54198 5.80924 128 129 121
-45.6169 0.572086 -17.0582 128 129 121
-42.1147 1.05332 -14.9547 105 99 87
-43.2011 0.906654 -15.6261 124 121 116
-50.0958 0.0719497 -19.7982 115 117 116
-35.6509 1.90817 -11.1446 108 101 91
-6.64587 4.01853 5.17519 117 118 110
-34.9872 2.01946 -10.7709 114 116 105
14.7437 7.44889 18.3598 21 20 15
-1.40881e+06 381245 -520687 181 180 176
-1.39562e+06 391905 -510785 187 188 183
-3.22565 1.20385 4.90021 190 186 183
14.9687 6.38692 17.885 190 186 183
-1.36716e+06 412866 -490715 192 192 190
12.9752 5.81863 16.4617 25 31 29
15.183 6.49154 18.0822 135 112 106
-1.34305e+06 427658 -474795 197 196 192
-33.7928 30.8553 -17.0477 208 209 203
-33.7928 30.8553 -17.0477 208 209 203
3.43889 -2.42992 6.15325 11 14 7
12.9751 5.81832 16.4615 11 14 7
-1.10941e+06 510241 -300357 215 215 207
-1.10941e+06 510241 -300357 215 215 207
14.4926 6.41347 17.6694 203 204 198
12.975 5.8188 16.4617 191 186 182
12.9877 5.82432 16.4722 47 43 42
12.9751 5.81881 16.4618 44 40 41
12.9752 5.81848 16.4616 32 31 27
12.9752 5.81821 16.4614 4 9 5
12.9818 5.8211 16.4669 183 180 175
13.0047 5.83589 16.4889 49 42 34
-1.17036e+06 493910 -356277 198 195 186
-1.18956e+06 487805 -371260 217 214 205
-1.22683e+06 474579 -400862 213 213 205
-42.3135 3.17287 -16.6689 205 208 215
-1.09414e+06 510813 -305696 171 172 167
-31.146 3.52654 -10.0633 184 187 180
-1.26639e+06 456982 -439808 136 138 137
12.9771 5.81965 16.4634 207 206 201
-35.2763 3.50211 -12.6228 197 202 196
-1.1168e+06 507793 -325205 149 150 142
12.975 5.81842 16.4614 47 46 28
-1.13942e+06 501988 -342311 213 213 203
-1.27915e+06 448131 -456068 191 190 186
-1.23687e+06 468218 -419449 104 100 97
-1.37116e+06 386784 -547319 52 47 25
-1.33213e+06 415250 -508141 89 100 94
-39.9176 3.54197 -15.4873 58 66 68
-1.34447e+06 406184 -521431 214 215 220
-1.37125e+06 385180 -550369 195 192 185
-1.32078e+06 421859 -498906 22 21 17
-45.1422 4.93045 -18.971 154 142 142
-39.0406 3.58215 -15.0133 23 23 13
-41.2397 3.57991 -16.3424 100 118 128
-39.7441 3.59703 -15.4449 58 51 33
-34.7626 3.66116 -12.4906 101 107 97
-1.51108e+06 233495 -727975 58 84 97
-33.9089 3.70584 -11.9795 199 198 193
12.9749 5.81789 16.461 40 40 30
10.846 4.53884 14.4301 43 43 43
-52.6493 45.3774 -35.0267 216 215 210
-33.63 3.69802 -11.8839 199 199 191
-430422 -896370 -53287.6 215 214 209
4.74005 -2.66267 6.38193 24 28 14
12.9749 5.81785 16.461 32 34 23
-25.936 4.00986 -7.41693 29 26 19
12.8519 5.75139 16.327 13 19 15
-23.9233 3.79995 -6.22459 21 16 10
5.96159 3.7165 11.0542 209 208 203
12.9759 5.81903 16.4623 24 26 21
12.9749 5.81803 16.4611 16 15 11
10.3591 4.18551 13.9084 22 33 25
12.9766 5.81945 16.463 207 206 201
9.93157 4.18375 13.6544 216 191 187
10.0966 4.18306 13.7497 23 21 8
12.9764 5.8194 16.4628 151 144 136
12.975 5.81826 16.4613 25 27 16
-1.4907e+06 246991 -737518 113 101 85
12.9754 5.81851 16.4617 21 21 13
12.9761 5.81923 16.4625 196 195 191
12.9761 5.81922 16.4625 183 184 179
12.9761 5.81922 16.4625 183 184 179
-40.1706 4.49476 -16.6585 101 81 70
12.976 5.81915 16.4624 174 173 169
12.976 5.81915 16.4624 174 173 169
12.9761 5.81917 16.4625 171 172 166
12.976 5.81911 16.4624 192 189 180
12.9759 5.81911 16.4624 188 185 178
12.9759 5.81908 16.4623 190 187 182
12.9759 5.81903 16.4623 191 188 181
11.0748 2.8719 13.3601 14 19 13
11.0038 2.06757 12.7022 9 10 4
5.21626 1.77658 8.54034 185 185 175
8.45868 1.59435 10.6044 184 185 171
8.83487 1.45949 10.7218 179 179 171
2.69107 1.53029 6.45727 207 206 202
6.54953 1.4809 9.09814 203 202 197
8.6385 1.19602 10.3439 184 181 174
6.44957 1.22967 8.78318 204 203 198
6.12731 1.09411 8.44273 207 207 199
9.01289 0.339841 9.73453 190 187 178
6.45302 0.153348 7.30353 208 207 202
9.5919 -0.763571 8.93268 186 186 178
9.6116 -0.939065 8.71637 188 187 182
-1.07613e+06 1.1403e+06 -117584 209 208 203
