ply
format ascii 1.0 
element vertex 1247
property float32 x 
property float32 y 
property float32 z
property uchar red  
property uchar green
property uchar blue
element face 0
property list uchar int vertex_indices
end_header
11.0256 616.718 -1.49792 148 149 141
8.32322 443.986 -1.39844 107 108 102
8.32322 443.986 -1.39844 107 108 102
7.88621 413.032 -1.40542 113 115 110
9.82576 549.538 -1.38034 102 103 95
9.96102 559.654 -1.37446 87 88 80
-6.10252 -1.46419 6.58653 118 117 112
-5.72562 -0.497288 6.7486 96 97 91
-158.331 185.082 157.941 45 49 48
-687859 -3.10369e+07 127322 102 103 97
-6.19349 -1.39504 6.63146 124 121 112
6.24056 331.299 -1.17878 124 121 112
6.45511 347.171 -1.16701 113 114 108
6.39555 344.122 -1.15913 121 122 116
-677724 -3.08161e+07 124268 110 107 100
6.20474 336.672 -1.11525 105 108 101
7754.54 236.014 -0.926361 113 115 110
-1.37023e+06 -39954.9 163.477 132 129 122
0.572997 0.0192129 -6.79916e-05 129 130 124
4.02724 182.765 -1.25405 115 105 95
5.18824 279.517 -1.03063 119 109 99
-2.77574 -235.97 -0.53443 133 109 85
-120555 -230830 114746 128 122 110
475411 -3.55814e+06 -530472 118 109 100
-644501 -3.01343e+07 113247 119 111 100
6.25834 128.354 -4.21932 128 122 110
-38554.2 -75729.7 36669.8 107 100 90
-38554.2 -75729.7 36669.8 107 100 90
-80532 -155181 76639.3 108 99 90
221567 400608 -211236 101 94 86
221976 401697 -211624 0 0 0
-314888 -587316 299958 0 0 0
5.99683 356.829 -0.838583 0 0 0
-158.863 -314.069 151.038 0 0 0
-936855 -14488.5 80.9089 0 0 0
-0.733216 -66.6376 -0.268729 0 0 0
-3.43913e-06 -8.45371e-08 2.56055e-10 0 0 0
-3.03725e-05 -7.2241e-07 2.25635e-09 0 0 0
754992 16939.9 -55.1949 0 0 0
-2.30845e-05 -5.40929e-07 1.6865e-09 0 0 0
-544592 5.45108e+06 641504 0 0 0
-6.67397 -1.51138 6.49186 0 0 0
-4.88369e-06 -1.36688e-07 3.23778e-10 0 0 0
-129.264 6.97063 126.482 0 0 0
-3.2231e-05 -7.18928e-07 2.08369e-09 0 0 0
397599 -4.30467e+06 -462963 0 0 0
-128.781 7.9568 126.013 0 0 0
-9.99253e-06 -2.68257e-07 6.43207e-10 0 0 0
385302 -4.25358e+06 -450434 0 0 0
-5721.56 -3295.92 -1841.58 0 0 0
-8.46113e-05 -1.97265e-06 5.26744e-09 0 0 0
-180559 -3295.56 11.1554 0 0 0
-424.433 -603.583 406.808 0 0 0
-10674.2 -19426.4 10176 0 0 0
-0.237618 0.00271867 1.37003e-05 0 0 0
-0.237417 0.002627 1.36467e-05 0 0 0
-0.253667 0.00441755 1.44473e-05 0 0 0
-699.34 7.83152 0.0396385 0 0 0
-0.266201 0.00456177 1.48182e-05 0 0 0
-9498.65 -17360.4 9054.48 0 0 0
-0.102022 17.8499 0.0932569 0 0 0
-0.277112 0.00495082 1.49283e-05 0 0 0
-0.000942757 30.1494 0.163135 0 0 0
-0.2803 0.0051979 1.49998e-05 0 0 0
-871965 9280.94 46.4547 0 0 0
-0.273007 0.00422299 1.44772e-05 0 0 0
-0.286076 0.00580074 1.51452e-05 0 0 0
-0.292574 0.00670609 1.53388e-05 0 0 0
-0.303403 0.00872212 1.57661e-05 0 0 0
-38.522 -84.8063 36.2598 0 0 0
-165667 -109739 -32620 0 0 0
-455.66 5.46448 0.0233053 0 0 0
-0.2783 0.00332716 1.421e-05 0 0 0
-33080.2 279.844 1.68306 0 0 0
-1.2561e+06 -2.30374e+06 1.19731e+06 0 0 0
-109460 557.373 5.56051 0 0 0
-0.276475 0.00270878 1.40257e-05 0 0 0
-0.279921 0.00309577 1.41609e-05 0 0 0
-0.287234 0.00440196 1.44934e-05 0 0 0
-0.284158 0.00369027 1.43243e-05 0 0 0
-0.305401 0.00741363 1.5178e-05 0 0 0
-0.293857 0.00477112 1.4592e-05 0 0 0
-0.313829 0.00924151 1.54917e-05 0 0 0
-0.303577 0.00636896 1.49292e-05 0 0 0
-0.29641 0.00476002 1.45751e-05 0 0 0
-0.295863 0.0044397 1.44824e-05 0 0 0
-0.297425 0.00459541 1.44928e-05 0 0 0
-0.301631 0.0053062 1.4667e-05 0 0 0
-0.100082 20.5399 0.0975927 0 0 0
-0.315792 0.00852731 1.5305e-05 0 0 0
-0.317518 0.00894101 1.53696e-05 0 0 0
-240595 -441654 229330 0 0 0
-0.317543 0.00871934 1.53205e-05 0 0 0
-0.105698 20.0126 0.0936139 0 0 0
-0.0970066 21.1154 0.100586 0 0 0
-0.318408 0.0087745 1.5313e-05 0 0 0
-0.356855 -5.42546 -0.0180482 0 0 0
851.137 1625.22 -810.698 0 0 0
-0.288771 0.00246351 1.38667e-05 0 0 0
-0.295375 0.00358258 1.41732e-05 0 0 0
-0.306103 -1.81925 -0.00960413 0 0 0
-0.304186 0.00527673 1.45769e-05 0 0 0
-0.318891 0.00852389 1.52356e-05 0 0 0
-0.314387 0.00734125 1.5009e-05 0 0 0
-0.29546 0.00333607 1.41037e-05 0 0 0
-0.297997 0.00374966 1.42226e-05 0 0 0
-0.307966 0.00591007 1.46965e-05 0 0 0
-0.188869 10.8728 0.0434922 0 0 0
-0.319302 0.00827017 1.51481e-05 0 0 0
-0.310841 0.00601188 1.46821e-05 0 0 0
-0.545127 -20.9432 -0.0573933 0 0 0
-0.357334 -4.85271 -0.0158173 0 0 0
-0.321805 0.00849339 1.51063e-05 0 0 0
-0.299311 0.00335337 1.40501e-05 0 0 0
-0.315489 0.00663771 1.47766e-05 0 0 0
-0.133703 17.3247 0.074398 0 0 0
-0.101596 21.1531 0.0964731 0 0 0
-0.101596 21.1531 0.0964731 0 0 0
-0.324124 0.00829733 1.50314e-05 0 0 0
-0.302943 0.0033396 1.40389e-05 0 0 0
-0.727274 -35.2388 -0.0833386 0 0 0
-0.0986001 21.6455 0.0986757 0 0 0
-0.327631 0.00948194 1.51272e-05 0 0 0
-0.330326 0.0100525 1.51937e-05 0 0 0
66.524 169.598 -63.049 0 0 0
0.000282994 43.007 0.2981 0 0 0
-0.330656 -1.70026 -0.00558581 0 0 0
-0.327352 -1.63246 -0.00593192 0 0 0
-0.584334 -23.2356 -0.0598919 0 0 0
-0.0420983 29.9124 0.153456 0 0 0
-0.312772 0.226822 0.000778557 0 0 0
-0.374827 -5.23612 -0.0160663 0 0 0
-0.331255 0.00875618 1.48913e-05 0 0 0
-0.331255 0.00875618 1.48913e-05 0 0 0
-694.63 9.61782 0.0311926 0 0 0
-0.31959 -0.295807 -0.000989953 0 0 0
-0.308037 0.00257673 1.3809e-05 0 0 0
-0.31317 0.00353451 1.40095e-05 0 0 0
-0.54002 -19.0499 -0.0498453 0 0 0
-0.479288 -14.0226 -0.0386765 0 0 0
-0.0103783 36.2381 0.207031 0 0 0
-0.0103783 36.2381 0.207031 0 0 0
-0.889983 -46.5721 -0.0950315 0 0 0
-0.709212 -32.5069 -0.0746005 0 0 0
-0.739725 -34.545 -0.0764478 0 0 0
-1.20504 -70.1939 -0.119958 0 0 0
-1.19172 -68.1457 -0.113129 0 0 0
-660238 74805.9 395766 128 128 126
-609682 73214.3 366436 42 37 34
-657952 76438.2 394839 215 214 209
-671992 74622.6 402451 151 151 151
-534833 73845 323715 200 199 195
-1.10282e+06 182604 674651 213 220 228
324245 612776 -308916 220 227 235
-338688 51830.4 206190 179 180 175
-546228 -1.03769e+06 520331 220 227 235
-697810 74900.5 417290 45 47 42
-214420 35059.7 131063 217 214 209
-240976 37842.3 146925 205 201 192
2.53495e+06 1.61826e+06 590462 21 23 18
-126956 19862.3 77386.9 212 209 200
305010 581224 -290545 145 135 126
-9.61513e+06 -6.57246e+06 -1.58785e+06 217 214 207
-327005 43874.9 197589 209 206 199
-354113 47441.8 213949 210 209 204
314593 23150.9 -174580 10 15 9
-277845 495024 277125 164 164 156
425658 72930.9 -226387 10 12 9
1.727e+06 124077 -958896 189 186 179
-9.65762 -1.90598 5.39404 71 54 46
17.801 1273.57 -1.5956 30 31 26
-10.1123 -2.65571 5.25896 113 106 96
-2274.56 317.44 1378.26 23 24 19
-9.5943 -1.9275 5.42631 109 105 94
5.91542e+06 -1.11037e+07 -5.98347e+06 112 108 96
-2268.19 343.19 1380.78 72 62 53
-391.799 735.956 396.425 81 80 75
-114713 12756 68759.5 148 142 128
-3783.14 -7632.66 3593.3 169 163 149
-104.251 201.17 106.037 138 134 125
-81.0135 148.042 81.3958 105 101 90
11.6273 -20.1972 -10.9206 113 109 100
-89683.8 -178123 85283 110 106 94
-52320.9 -95929.8 49872 0 0 0
-111180 408324 161001 0 0 0
-18184.4 -31106 5688.79 0 0 0
-4.24559e+09 -5.51868e+08 2.72744e+09 69 66 61
4.57804e+09 6.04529e+08 -2.9386e+09 26 27 21
4.84009e+09 6.10147e+08 -3.07246e+09 67 68 62
4.84009e+09 6.10147e+08 -3.07246e+09 67 68 62
8.61799e-13 1.05381e-14 4.3921e-17 21 23 18
36512.5 275.78 2.03079 153 153 153
5.60287e+09 5.81622e+08 -3.28409e+09 96 101 104
1803.29 -177993 16561.5 220 221 216
7.74879e+09 1.31911e+09 -6.20097e+09 207 207 199
37960.8 430.918 4.11288 210 209 204
9764.57 39786.9 79.6838 227 227 225
63543.1 7590.23 15.2458 226 227 222
84939.6 11485.9 23.1103 227 228 223
-61362.6 982495 1802.71 220 221 216
-61362.6 982495 1802.71 220 221 216
-66642.5 950558 1851.92 233 232 227
-3544.71 620.508 -1362.78 152 149 144
-2.47464e+09 1.03618e+09 -6.77121e+08 162 163 157
-3601.79 621.917 -1384.1 161 162 154
-83.1703 -18.9623 0.0543722 61 61 53
-99046.4 -21210.7 61.015 63 64 56
1.81977 4.13538 9.17321 101 101 91
-1.06541e+06 -1.30551e+06 -289111 102 93 84
-142.965 -23.2366 0.0527642 107 103 94
-154.846 -25.3258 0.0524461 106 101 95
-483515 -60798.8 133.557 122 118 107
-21866.3 5558.53 -8600.91 18 19 13
-12.7927 -1.24386 0.00286453 113 109 98
-485406 -45922.3 102.313 86 85 80
-12.5529 -1.08953 0.00253797 82 81 77
-273.507 -21.3607 0.0514627 44 46 43
-11.0881 -0.502548 0.0015936 107 106 102
-11.9148 -0.718171 0.00164353 48 53 49
-416.956 -18.7942 0.0490305 91 91 83
-10.4199 -0.372556 0.00117238 102 95 85
-396.856 -10.7326 0.0419573 118 110 99
-363736 122683 -146012 0 0 0
1.26592e+06 -14176.3 -71.7519 0 0 0
-829.309 8.26147 0.0427716 0 0 0
1.43158e+06 -7314.59 -69.5781 0 0 0
-680455 140782 -265211 219 226 234
1.08895e+06 -287786 430042 137 130 120
1.02467e+10 1.69071e+09 -6.83064e+09 209 206 199
-226077 34098.1 137514 208 205 196
1.04636e+10 8.52871e+08 -5.98567e+09 217 214 207
4.17395e+09 4.7005e+08 -2.80294e+09 219 216 209
14206.6 -3629.1 5604.94 118 111 101
-15799.8 125.777 9087.21 116 109 99
-304533 13219.2 177670 81 80 75
25.7848 19.2971 15.0976 77 76 71
1.55015e+06 -194577 -934103 123 116 106
-293596 33986 176241 29 31 26
-885963 174072 548595 0 0 0
-583396 117672 -227115 72 67 61
-580789 118888 -226252 73 71 59
-3.29872e+08 -5.36437e+07 2.25714e+08 216 218 215
-5.42393e+09 2.48503e+08 2.331e+09 222 228 240
1.36894e+09 8.78979e+07 -7.48002e+08 159 162 151
-6.50562e+09 -4.55852e+08 3.6019e+09 159 162 151
3.63535 173.331 -1.91777 143 147 132
-591907 120267 -230503 214 216 215
-126650 4.57607e+06 177055 218 217 215
-574114 115334 -223454 184 182 183
-563442 113186 -219299 186 184 185
-1.55576e+10 1.65326e+10 5.96148e+10 40 40 38
-941603 -1.59125e+06 899890 38 35 30
-263477 54092.6 -102741 214 210 207
-263477 54092.6 -102741 214 210 207
-324940 62950.4 -126369 214 215 209
28.078 17.3738 21.2087 17 23 11
-576229 -986394 550626 83 83 75
8.31351e+06 1.35597e+07 -7.95352e+06 38 34 23
4.50526e+09 5.74852e+09 -1.07925e+10 45 43 31
2.67425e+06 4.26069e+06 -2.56045e+06 71 71 63
3.03712e+09 3.27213e+09 -6.33966e+09 99 104 100
3.30583e+06 -807727 1.29921e+06 46 42 31
26765.5 12175.6 -26145.4 87 80 72
1.63029e+06 -393509 640194 87 80 72
-962262 249190 -379339 17 19 16
271910 3.84102e+06 -201943 66 69 60
-1518.81 -2186.18 1456.98 86 92 82
-953848 -1.39189e+07 693315 205 206 200
-685599 179167 -270393 72 73 65
2.24718e+06 -593374 886838 64 59 55
-8091.89 -19369.1 7636.62 115 102 94
88.3952 1338.48 -64.834 115 102 94
-1.73233e+07 -2.64179e+08 1.11861e+08 25 28 21
-1.73233e+07 -2.64179e+08 1.11861e+08 25 28 21
35.5856 615.733 -24.8883 211 210 206
67.6826 1018.34 -50.6533 162 158 146
11.2741 344.462 -5.30307 21 22 17
30.8624 537.371 -21.7263 188 182 170
2.79611e+06 6.55009e+06 -2.64298e+06 136 132 123
66.7555 993.968 -50.6025 79 80 75
5.04499e+06 1.12686e+07 -4.77751e+06 114 111 104
5.04499e+06 1.12686e+07 -4.77751e+06 114 111 104
2.00464e+07 4.67883e+07 -1.8955e+07 79 80 75
42.4262 672.879 -31.427 125 126 120
4.75632e+06 1.09275e+07 -4.50004e+06 85 74 70
39.1445 627.973 -28.9289 111 112 106
-130.346 -179.975 125.533 142 142 132
36.787 595.686 -27.1361 108 109 103
1.3535e+07 3.01539e+07 -1.28204e+07 122 123 117
-4.56995e+06 1.57159e+06 -1.83405e+06 116 117 111
7.8932e+06 1.74402e+07 -7.47868e+06 98 99 93
1.57969e+06 2.12621e+07 -1.21799e+06 88 90 79
-150.207 -208.841 144.376 135 130 124
-2.98698e+06 -6.27653e+06 2.83478e+06 110 111 105
-518.932 -742.448 497.672 115 103 91
9.73277e+06 2.12529e+07 -9.22577e+06 99 99 91
-544.626 -779.152 522.301 141 142 136
-122968 55930.4 -50481.3 125 121 110
13.2447 280.223 -8.92083 132 124 113
-173.077 -36.3611 168.823 0 0 0
1.09398e+06 -2.00205e+07 2.11777e+06 0 0 0
1.73857e+06 3.51394e+06 -1.65246e+06 0 0 0
1.73857e+06 3.51394e+06 -1.65246e+06 0 0 0
14.5544 290.083 -10.3078 0 0 0
-768130 1.43906e+07 -1.51552e+06 0 0 0
-1.89141e+06 -3.80331e+06 1.79803e+06 0 0 0
-455.758 -648.642 436.864 0 0 0
656505 -1.33062e+07 1.38232e+06 0 0 0
-446.948 -635.939 428.409 0 0 0
10.0453 229.999 -6.77908 0 0 0
-433.814 -617.013 415.807 0 0 0
-6.76513 -2.05071 6.50455 0 0 0
-6.76513 -2.05071 6.50455 0 0 0
12.9048 267.093 -9.07743 0 0 0
685.107 4039.43 -1597.08 0 0 0
21486.2 65125.9 -20508.8 0 0 0
-471576 115834 -185468 0 0 0
637.499 3709.79 -1462.94 0 0 0
303932 169516 107793 0 0 0
36.7575 64.3168 -35.3455 0 0 0
-7.8116 -13.1683 7.18685 0 0 0
2.74817 25.3549 -2.63381 0 0 0
2.92544 12.5867 -2.99158 0 0 0
2.83769 14.4385 -2.88095 0 0 0
4.5423e+09 -7.80924e+08 -3.4188e+08 21 23 18
-6.78148e+09 1.60262e+09 1.40945e+10 130 131 133
4.51118e+09 -8.13276e+08 -3.4553e+08 28 30 27
-4.97492e+09 -2.23282e+09 -2.30546e+09 109 105 104
32875.6 308.803 2.39474 206 203 196
1.56596e+07 2.44814e+06 5569.46 177 176 171
-13.1389 -1.51959 0.0034451 120 117 108
-13.1045 -1.45682 0.0033576 116 112 103
-12.3856 -0.994318 0.0023871 43 43 41
-11.9139 -0.718098 0.00164338 48 53 49
-11.249 -0.503176 0.00130377 97 98 92
-1949.35 60.6431 0.143783 0 0 0
-6523.86 -4285.67 -1321.61 0 0 0
418064 367206 -52523.5 0 0 0
-5703.25 -4533.5 10.4125 0 0 0
4.03445e+09 -1.44442e+08 -5.39379e+09 209 208 203
6.98261e+06 4.63013e+06 1.3681e+06 216 213 204
231783 237469 -77857.9 20 22 17
-2221.65 988.992 1504.07 6 22 12
-30911.4 2564.78 18319.9 32 34 31
212.919 225.443 -69.674 0 0 0
-4.94602e+09 -2.06692e+09 -2.17512e+09 119 118 113
1.42396 155.449 0.0177661 97 96 91
1.42223 155.473 0.019663 102 99 94
1.34288 134.49 -0.198791 197 203 199
-3.87621e+09 1.22715e+09 -3.12139e+09 216 218 215
1.3436 164.941 0.217166 216 218 215
3.50482e+09 2.27107e+09 1.61163e+09 232 232 230
3.07859e+09 2.00573e+09 1.40233e+09 197 197 197
-2.62208e+09 -1.62482e+09 -1.19951e+09 185 185 185
0.732744 164.157 0.67191 198 198 200
0.740905 166.284 0.687902 203 201 202
-1820.56 -2627.6 1746.89 87 88 80
-14340.7 -36437.5 13507 71 72 66
-408.267 -581.453 391.371 0 0 0
1.45423e+09 9.53007e+08 1.51728e+09 0 0 0
-20507.9 -16202.6 -111.425 0 0 0
-6409.89 -4240.95 -1253.66 0 0 0
1.34334 219.587 1.60404 0 0 0
-9.07636e+07 -1.3026e+08 8.69849e+07 0 0 0
-261964 -401677 289502 0 0 0
1.40315 228.429 1.63901 0 0 0
-72868.6 -473247 620895 0 0 0
16922.3 -9958.66 34986.7 0 0 0
169.611 160.756 -164.017 0 0 0
-19009.8 -12489.8 -3881.38 0 0 0
-24887.7 -16415.7 -4991.14 0 0 0
0.355313 5.80569 -0.563926 0 0 0
-98.69 163.707 -345.815 88 84 75
-98.69 163.707 -345.815 88 84 75
49.1377 31.7319 25.1994 130 146 146
0.795728 4.36659 8.77292 164 177 186
0.808021 4.36468 8.77766 37 38 30
77.3482 48.5626 33.5048 164 174 184
0.789841 4.36268 8.77107 163 173 183
99.2997 61.2382 40.5934 166 174 185
9.77571 2.16331 12.3033 165 173 184
69.5499 44.0541 30.9881 165 173 184
-107.462 146.284 -330.309 62 66 51
55.7588 36.0975 26.5235 163 171 182
55.7873 36.1175 26.5286 162 172 182
220.913 131.461 79.8548 161 171 181
-35643.4 -24168 -6164.46 188 185 176
-24721.8 -16740.1 -4304.57 197 190 180
-27404.1 -18506.5 -4847.44 185 181 170
52.7249 34.0494 25.9378 21 26 19
242.833 144.105 86.9377 165 171 183
242.833 144.105 86.9377 165 171 183
-30510.4 -20651.8 -5327.78 194 187 177
-18577.1 -12544.9 -3282.22 94 84 72
188.073 112.46 69.2751 36 29 36
-22190.9 -15005.9 -3892.74 91 83 70
-13977 2816.73 -5432.32 91 83 70
-36457 -24720.6 -6303.92 187 183 172
55.8562 36.1268 26.5586 25 24 20
-146.945 -80.922 -39.066 92 102 93
69.5734 44.0116 31.0141 103 99 98
0.856001 4.34986 8.79677 15 24 21
-31391.5 -21244.3 -5487.79 171 165 153
-85392.1 16631.3 -33183.3 206 203 198
84.687 52.7347 35.8988 29 34 27
-19469.6 -13158.5 -3424.37 198 195 186
55.7429 36.0296 26.5457 17 18 12
135.265 81.9368 52.2382 17 20 13
-41057.6 -27778.5 -7192.95 184 180 169
107.663 65.9973 43.3234 25 31 21
-22237.4 -15054.4 -3875.55 201 197 186
0.8771 4.347 8.80486 27 29 18
323940 301225 22555.1 208 203 197
-19005.9 3811.04 -7388.35 207 204 197
-19885.2 -13445.6 -3488.54 201 194 184
-19595.9 -13259.3 -3423.73 213 212 207
-19595.9 -13259.3 -3423.73 213 212 207
1838.52 -334.716 721.449 102 95 85
-21426 -14496.4 -3746.66 206 203 194
-213.622 -119.359 -60.7363 184 190 202
1988.98 -361.751 779.733 117 123 113
-64.8916 18.1895 -16.85 199 186 180
-35196.6 -23782.6 -6209.44 199 186 180
-21935.7 -14845.2 -3830.07 203 200 191
1585.41 -288.528 623.337 122 125 114
2107.48 -383.185 825.649 108 108 98
-33939.8 -22922 -6003.93 201 193 182
-99.1765 128.845 -294.629 203 199 190
-249480 45710.2 -96712.2 116 118 107
-18990.1 -12816 -3367.12 205 202 195
2278.43 -413.882 891.872 119 120 112
1561.9 -284.58 614.252 81 81 73
-230.156 -128.882 -66.1261 185 191 203
-166804 31114.5 -64707.9 123 123 115
-37242.1 -25238.1 -6461.94 209 202 194
-1870.61 -1080.83 -588.961 179 179 167
815.363 -148.196 324.863 122 123 115
-246.216 -138.129 -71.3597 184 192 203
15.8788 12.9135 13.6853 190 196 208
1054.57 -192.112 417.608 107 104 95
902.174 -164.141 358.522 87 82 76
-101671 -94003.7 -7319.32 182 183 169
-102.852 149.508 -329.731 67 65 52
-27406.1 -18562.7 -4766.03 207 205 193
-27406.1 -18562.7 -4766.03 207 205 193
-47540.1 -32275.4 -8165.53 207 204 195
-136199 -51340.8 -45977.7 81 79 67
-1864.4 -1077.28 -586.912 90 81 72
-97.0957 136.016 -302.856 73 67 53
-102.053 150.726 -330.604 83 80 73
-91.9148 133.835 -293.49 91 85 71
16.2702 18.7279 14.4357 181 177 168
-29469.7 -19939 -5157.91 209 206 197
-19674.5 -13298.8 -3457.74 118 127 110
378771 352014 26467.5 185 196 179
378771 352014 26467.5 185 196 179
-13850.5 2776.5 -5381.75 187 184 177
-20335.5 -13747 -3572.31 86 80 66
-20149.3 -13624.5 -3534.54 82 79 62
-98565.2 -67185 -16545.6 181 174 166
-96.2648 137.94 -304.751 94 92 80
-1978.01 -1142.91 -623.584 69 61 50
-25193.9 -16957.5 -4538.93 201 199 187
-105.583 126.281 -298.454 68 69 55
-26108.4 -17679.1 -4546.43 109 103 89
-93.2347 151.767 -321.815 116 116 108
-27827.7 -18850.3 -4836.22 82 76 62
-363.338 -205.569 -109.534 71 72 66
-363.338 -205.569 -109.534 71 72 66
-348.697 -197.137 -104.807 43 39 36
-42.6402 71.1708 -142.228 116 105 101
1.02845 4.29118 8.86588 55 54 52
1.02845 4.29118 8.86588 55 54 52
14.127 7.99603 18.502 193 192 187
14.127 7.99603 18.502 193 192 187
1.03837 4.28901 8.86975 178 157 166
1.93776 84.416 -109.265 188 192 178
-336.815 -190.287 -101.005 33 30 23
100.733 61.7795 41.1519 28 30 17
-256.678 -144.211 -74.8406 41 38 33
107.083 65.4363 43.2097 83 84 68
34.1036 21.402 22.3887 69 70 62
106.18 64.9037 42.9212 34 30 19
-154.266 -85.261 -41.5252 105 110 106
-580.467 -329.072 -182.632 26 31 25
-122.57 -67.0097 -31.2328 27 28 22
-122.57 -67.0097 -31.2328 27 28 22
17.7852 13.8352 14.3242 16 21 15
35.584 22.3261 22.709 8 10 5
-36.3928 49.7304 -103.085 211 208 201
322691 179649 111394 28 31 24
22.3754 13.4104 20.1632 189 185 182
24.4682 14.8238 20.5661 179 177 182
-618.912 -350.479 -196.257 129 125 122
-618.912 -350.479 -196.257 129 125 122
44.0821 27.8844 24.4292 70 66 63
-413.103 -233.907 -126.422 47 47 39
8.85366 2.26727 11.9509 42 38 29
36.7074 23.0655 22.9343 18 24 12
-164.391 -91.1099 -44.8545 18 24 12
-2318.52 -1340.53 -732.363 159 160 155
137.433 82.8872 53.0385 66 65 63
13.8881 11.5278 13.0705 33 41 30
-280.837 -158.075 -82.9045 33 41 30
20616.7 18498.2 1775.01 214 213 208
-1.25679e+07 2.04202e+06 -4.84903e+06 160 162 159
31728.8 28459.2 2728.18 212 212 204
-49807.2 -314029 126336 215 215 207
97.4911 -12.8419 46.2115 168 172 173
30877 22080 3661.92 185 186 181
-1.17856e+07 1.9097e+06 -4.54673e+06 130 132 129
2.67556e+07 -4.617e+06 1.03466e+07 205 204 209
49248.5 11654.2 19995.5 193 192 190
1.15731 4.24849 8.91741 150 149 144
-1.12898e+07 1.7646e+06 -4.34977e+06 32 33 27
1.71024e+07 -2.96621e+06 6.61497e+06 180 178 181
1.71024e+07 -2.96621e+06 6.61497e+06 180 178 181
-1912.87 -1106.56 -601.001 21 27 13
-1.28807e+07 2.09498e+06 -4.96986e+06 179 180 175
-17822.8 -12127.7 -3010.35 45 46 30
2.95542e+06 2.03141e+06 471169 35 35 23
2.95542e+06 2.03141e+06 471169 35 35 23
-430.086 -243.424 -132.445 49 41 30
-1.16977e+07 1.82792e+06 -4.50687e+06 29 34 30
13.3204 7.13596 18.4928 203 202 198
-30532 -20660.1 -5338.9 209 210 204
-30532 -20660.1 -5338.9 209 210 204
1.26474 4.24001 8.95805 69 69 69
-34.7761 60.016 -116.634 13 24 16
18.9788 10.9631 19.5795 207 207 199
-681.892 -381.631 -224.485 207 207 199
1.29399 4.23742 8.96915 52 49 42
-29.6442 49.9595 -95.6112 213 210 205
-44.2312 62.5899 -131.654 205 204 200
20.7241 15.4763 15.2749 62 68 64
20.7241 15.4763 15.2749 62 68 64
-44.4563 68.9208 -141.336 212 211 206
-44.4563 68.9208 -141.336 212 211 206
-87.1558 -46.6882 -19.7777 78 84 74
17.2419 9.75772 19.2601 167 167 157
-40.9086 53.2566 -113.861 106 119 109
56.3419 35.94 26.8924 33 35 24
56.3419 35.94 26.8924 33 35 24
3.719e+06 2.55656e+06 592425 39 40 34
1.36509e+06 939581 215715 28 29 21
-8.1966e+06 1.14677e+06 -3.14619e+06 32 33 27
-461.083 -260.923 -143.104 150 147 140
-461.083 -260.923 -143.104 150 147 140
17.5115 13.5044 14.265 35 35 25
-21518.4 -14680.2 -3580.9 14 16 11
-26591.1 -18058.2 -4551.39 41 42 28
97.5355 59.5854 40.3026 33 33 21
-387.83 -219.198 -118.626 48 51 42
31048.5 19871.3 9435.54 62 62 54
-386.593 -218.475 -118.252 44 25 21
17.4304 9.82724 19.3234 168 169 161
1.2635 4.21571 8.95968 56 58 47
1.75897 4.22154 9.14328 36 44 33
-34.7227 56.7693 -111.83 31 39 28
-373.307 -210.886 -113.843 36 16 9
20.2919 11.7665 19.8712 211 210 205
177010 119768 31056.3 29 31 18
-714.841 -400.173 -235.929 134 142 129
2.25938e+06 1.53228e+06 390975 172 149 141
64.375 40.0089 29.9113 208 207 202
-639.279 -357.455 -210.17 208 207 202
99.6924 60.003 41.9083 212 211 206
1.62663 4.21415 9.09474 197 196 192
-283.875 -156.378 -89.2455 95 97 86
-292.429 -161.19 -92.2038 187 174 165
463823 313571 81739.7 67 61 49
-1236.91 -733.61 -356.98 215 212 205
-129.408 -69.1762 -36.3976 17 20 13
-710.974 -397.849 -234.858 40 53 44
-265.531 -145.967 -83.0694 192 183 174
1.56093 4.20299 9.07129 177 180 173
1.30919 4.20569 8.97751 63 65 54
-693.283 -387.854 -228.822 141 143 132
-330.014 -182.317 -105.23 153 155 150
1.57483 4.20165 9.07658 153 155 150
1.74592 4.20712 9.13967 209 208 203
-650.368 -363.593 -214.19 201 201 193
-306.508 -169.011 -97.2472 179 179 171
1.55758 4.20261 9.07008 179 179 171
2.15407 4.20816 9.29123 75 72 63
1.24056 4.1869 8.95365 105 106 100
1.3871 4.20407 9.0066 13 16 7
1.32744 4.19543 8.98517 23 26 15
-23.5827 68.5549 -116.313 199 198 194
-23.5827 68.5549 -116.313 199 198 194
1.6507 4.18872 9.10587 184 183 178
1.4749 4.1902 9.04041 36 27 20
1.27492 4.16908 8.96795 40 42 31
1.33597 4.18104 8.98957 14 17 8
1.62668 4.1787 9.09779 184 184 174
1.75731 4.17464 9.14667 204 201 196
1.68775 4.16905 9.12131 143 125 111
1.81631 4.17292 9.16873 211 210 205
1.42706 4.16604 9.0247 193 190 183
1.76626 4.17015 9.15037 200 199 194
1.47847 4.16697 9.04372 193 190 183
1.49142 4.15882 9.04922 190 190 182
1.70451 4.15679 9.12857 184 184 176
1.4961 4.15383 9.05138 191 191 183
1.82898 4.14497 9.17581 198 197 193
1.75029 4.14354 9.1467 121 121 111
1.87092 4.14071 9.19176 206 206 198
-422.166 -238 -131.588 208 207 202
-453.605 -252.051 -147.873 210 209 204
28.4355 16.9085 21.605 167 172 165
26.9319 15.8812 21.3211 186 182 179
-335.84 -189.135 -102.298 191 190 186
-156.506 -86.7017 -42.736 184 184 176
27.3652 16.1393 21.4206 173 169 166
-183.655 -102.251 -51.7178 188 185 176
-413.122 -232.696 -128.867 210 209 204
2.17623 4.11407 9.30744 23 18 14
1.51879 4.10724 9.06378 194 194 186
-249.387 -139.827 -73.5387 161 160 158
1.27915 4.04253 8.98031 177 170 160
16.4724 8.56658 19.4257 40 25 22
16.4724 8.56658 19.4257 40 25 22
86.4048 52.5986 36.8618 184 181 172
1.28592 4.01544 8.98512 174 174 164
33.0133 19.6276 22.66 186 186 174
-33.1584 42.9827 -90.3377 202 201 197
89388.6 59885.7 16563.4 211 210 205
-471.501 -257.256 -161.79 188 189 184
24.4899 13.6954 21.1023 213 210 205
280.457 163.801 100.412 187 187 179
2.22602 3.97708 9.33739 202 201 196
246.406 144.164 89.3457 184 185 177
35.1326 20.9314 23.1276 188 185 178
-461.729 -254.111 -155.003 183 182 180
1179.97 682.501 391.83 191 190 185
2.30782 3.95697 9.36943 207 206 202
479.463 278.194 165.296 181 181 173
28.0892 16.0196 21.845 202 201 197
1.22996 3.84972 8.97838 170 170 160
157.596 92.9013 60.4643 196 195 191
18.8988 9.7033 20.1289 165 168 159
2.20236 3.91131 9.33408 185 186 178
2.20236 3.91131 9.33408 185 186 178
2.12468 3.90206 9.30602 190 187 180
1.23847 3.82992 8.98321 64 66 55
-281.302 -156.991 -86.5328 159 160 152
15.6155 7.34482 19.5634 177 176 172
3.33932 3.72698 9.77218 198 198 190
-135.432 -72.2528 -40.3078 199 199 191
0.950445 3.73128 8.8847 10 15 9
19.7369 10.0887 20.3742 175 176 168
58.8638 37.0055 27.6717 187 187 177
16.376 11.5376 14.1748 125 135 126
1.13893 3.7379 8.954 53 53 45
2396.52 1383.61 785.884 188 187 182
2669.34 1540.05 875.076 72 78 64
0.882808 3.44814 8.88319 51 51 39
1.31951 3.47553 9.04249 65 69 55
1.86248 3.46963 9.24409 32 34 21
40.2938 23.706 24.4535 33 36 25
1953.64 1124.73 646.271 25 27 16
36.7987 21.1583 23.8694 197 172 165
2362.03 1359.34 779.416 21 22 14
2698.9 1553.49 888.524 21 24 17
44.7293 26.5572 25.3738 21 24 15
1933.38 1111.56 641.333 52 29 23
796.067 456.407 272.244 211 208 203
60.191 37.4692 28.1276 89 80 65
33.6272 18.7409 23.3892 188 187 182
3231.75 1859.53 1062.3 16 19 12
3231.75 1859.53 1062.3 16 19 12
2512.73 1444.54 830.055 52 38 25
3019.79 1736.8 994.285 26 29 20
2713.64 1560.13 895.355 43 40 25
3205.84 1843.97 1054.61 30 34 20
3210.11 1845.72 1056.78 22 28 16
-2.47686 0.995238 7.83562 162 159 150
61.1482 37.7997 28.4601 159 155 146
1.9342e+06 1.05297e+06 710318 210 207 202
6766.34 3888.2 2216.53 124 124 116
1892.63 1080.41 636.804 125 118 108
-2.75054e+06 -1.76575e+06 -621958 144 137 127
142.065 -16.131 63.2527 120 117 110
-1.70667e+06 -1.09265e+06 -390294 116 113 106
-2.37543e+06 -1.69812e+06 -279537 32 34 29
-1.21709e+06 495926 -496810 31 33 28
2897.59 1650.3 973.394 130 132 121
-7.41645e+06 -1.7686e+08 -1.4499e+08 172 154 144
253320 126342 111157 44 47 38
-5.25913e+08 2.94922e+09 2.31707e+09 157 154 145
-3.44886e+08 2.49946e+09 2.25309e+09 133 127 115
-6.19513e+08 2.61393e+09 1.97136e+09 179 176 169
-5.91386e+08 2.77763e+09 2.76152e+09 130 128 116
5.2544e+07 -3.07581e+08 -2.24853e+08 120 114 100
-7.26094e+08 2.29494e+09 1.78877e+09 74 74 62
-9.85712e+08 3.10049e+09 2.01625e+09 99 95 84
7.18106e+07 -2.11071e+08 -1.28217e+08 101 103 92
4.18878e+07 -1.53866e+08 -9.66583e+07 91 93 82
1.51677e+09 -3.43256e+09 -2.05677e+09 81 83 72
8.23224e+07 -2.05205e+08 -1.38867e+08 104 104 94
-1.62099e+09 3.33199e+09 1.93599e+09 90 91 83
1.46631e+09 -2.88613e+09 -1.70434e+09 107 108 100
5.06995e+09 -2.51404e+09 -9.45133e+08 65 61 50
-1.09816e+09 2.07413e+09 1.23642e+09 91 92 84
-2.08406e+09 3.70899e+09 2.17256e+09 85 85 75
3.43622e+09 -1.62957e+09 -6.96946e+08 109 109 97
2.90835e+09 -1.35284e+09 -5.24103e+08 99 92 82
9.52598e+07 -4.28979e+07 -1.99401e+07 117 107 95
1.61439e+08 2.29899e+08 -4.09653e+08 38 31 21
1.61439e+08 2.29899e+08 -4.09653e+08 38 31 21
9.85347e+07 -4.64333e+07 -1.58658e+07 113 103 91
3.18946e+08 -1.52813e+08 -2.33758e+07 100 94 82
4.2984e+08 -2.03214e+08 -3.00625e+07 89 81 70
11.9139 1.18791 13.1861 114 104 92
2.14254e+08 1.70455e+08 -3.68231e+08 114 108 96
2.70187e+09 -1.26356e+09 -1.28503e+08 75 75 65
7.51553e+08 -3.50959e+08 -6.25434e+07 110 86 62
-1.12201e+09 -1.9167e+09 3.16368e+09 122 108 95
-3.64857e+09 -1.11573e+09 3.97537e+09 122 116 104
-3.38014e+09 -7.56239e+08 3.31603e+09 121 113 102
4.434e+08 1.01118e+09 -1.56699e+09 114 108 96
1.36862e+09 -6.36828e+08 -7.12425e+07 83 71 57
2.88771e+09 -1.24736e+09 -4.1021e+08 89 85 76
2.88771e+09 -1.24736e+09 -4.1021e+08 89 85 76
1.18885e+09 2.54914e+08 -1.14248e+09 113 107 93
-3.28088e+09 -6.56839e+08 3.08437e+09 115 109 95
-3.28088e+09 -6.56839e+08 3.08437e+09 115 109 95
-1.42167e+09 -2.26958e+09 3.7585e+09 115 107 94
-9.77788e+07 -3.54304e+07 1.07689e+08 112 108 97
5.45312e+08 3.27865e+08 -7.8069e+08 125 112 103
6.07088e+08 1.1082e+08 -5.5328e+08 112 93 78
9.95662e+08 2.33726e+08 -9.699e+08 116 105 87
-6.39376e+07 -4.57323e+07 9.20941e+07 118 112 100
-1.69385e+09 -3.64519e+08 1.59731e+09 141 108 73
-1.69385e+09 -3.64519e+08 1.59731e+09 141 108 73
1.75717e+09 -8.12196e+08 -6.46775e+07 69 71 60
1.54889e+09 -7.13187e+08 -7.492e+07 78 75 68
5.59946e+08 1.12699e+08 -5.16206e+08 126 91 61
5.99088e+08 1.35468e+08 -5.69351e+08 120 94 71
5.72489e+08 1.58308e+08 -5.77331e+08 98 80 66
3.58277e+08 2.34284e+08 -5.22064e+08 128 98 70
1.42509e+09 2.62779e+08 -1.25468e+09 89 86 77
1.54611e+09 3.16505e+08 -1.39203e+09 0 0 0
-1.12908e+08 -1.9421e+07 9.46889e+07 0 0 0
-1.21046e+08 -2.3386e+07 1.04553e+08 0 0 0
2.68875e+09 -1.22692e+09 -7.10103e+07 0 0 0
2.19699e+09 2.93832e+08 -1.7693e+09 0 0 0
-1.22236e+08 -1.41021e+07 9.20688e+07 0 0 0
-1.33986e+08 -2.32125e+07 1.09391e+08 0 0 0
-2.9009e+06 -1.89812e+06 -606806 0 0 0
-1.4565e+08 -2.07188e+07 1.13087e+08 0 0 0
-953985 234546 -375224 0 0 0
-4.1135e+06 -2.69371e+06 -857224 0 0 0
4.45165e+08 6.99167e+07 -3.47943e+08 0 0 0
-2.39935e+06 -1.39781e+06 -760372 0 0 0
-1.84901e+08 -1.60598e+07 1.26599e+08 0 0 0
-1.638e+08 -1.42705e+07 1.08393e+08 0 0 0
-2.17609e+08 -6.3967e+07 1.96993e+08 0 0 0
-1.03704e+06 249527 -407401 0 0 0
-1.47577e+06 -974395 -295502 0 0 0
3.1179e+08 3.77917e+07 -2.16328e+08 0 0 0
-1.17197e+06 280096 -460239 0 0 0
-683754 164271 -268582 0 0 0
-1.63432e+06 -1.08293e+06 -321451 0 0 0
-671290 160019 -263575 0 0 0
-636310 151600 -249832 0 0 0
1.80733e+08 1.89519e+07 -1.15082e+08 0 0 0
1.56909e+08 1.61281e+07 -9.91603e+07 0 0 0
1.85167e+08 2.23005e+07 -1.20999e+08 0 0 0
7.41575e+08 1.8582e+08 -5.98978e+08 0 0 0
7.41575e+08 1.8582e+08 -5.98978e+08 0 0 0
2.86478e+08 5.09257e+07 -2.05803e+08 0 0 0
-2.07317e+06 -1.37577e+06 -404681 0 0 0
-2.07317e+06 -1.37577e+06 -404681 0 0 0
2.6842e+08 4.78298e+07 -1.92296e+08 0 0 0
-797187 191834 -313163 0 0 0
-1.5892e+06 -1.05477e+06 -309957 0 0 0
-1.40896e+06 -927534 -286120 0 0 0
-1.0393e+06 246536 -407966 0 0 0
-1.0393e+06 246536 -407966 0 0 0
-1.58179e+07 -8.91424e+06 -5.4768e+06 0 0 0
9.53488e+08 2.97616e+08 -8.3345e+08 0 0 0
-1.75989e+06 434595 -692326 0 0 0
-1.97439e+06 -1.29767e+06 -404050 0 0 0
2.76773e+08 1.5306e+08 -3.16631e+08 0 0 0
-2.08313e+06 486468 -817034 0 0 0
9.79267e+08 2.73011e+08 -8.04233e+08 0 0 0
1.31851e+08 9.3002e+06 -7.50117e+07 0 0 0
1.50279e+08 7.13729e+06 -8.16856e+07 0 0 0
2.57697e+08 9.68902e+07 -2.38911e+08 0 0 0
1.72662e+08 6.58717e+06 -9.17925e+07 0 0 0
-3.0407e+06 -2.00788e+06 -608276 0 0 0
2.77927e+08 1.68954e+08 -3.31668e+08 0 0 0
2.79354e+08 1.03954e+08 -2.56332e+08 0 0 0
1.09413e+08 2.98216e+06 -5.58783e+07 0 0 0
8.7934e+08 4.57352e+08 -9.64207e+08 0 0 0
-1.95949e+06 -1.29527e+06 -389963 0 0 0
2.13644e+08 2.38914e+07 -1.30367e+08 0 0 0
-42.736 71.3614 -140.193 0 0 0
2.91835e+08 1.24691e+08 -2.85256e+08 0 0 0
-2.02148e+08 -3.45585e+07 1.35599e+08 0 0 0
-2.02148e+08 -3.45585e+07 1.35599e+08 0 0 0
-2.43691e+06 -1.60894e+06 -487805 0 0 0
-5.82351e+06 -3.87012e+06 -1.12819e+06 0 0 0
-1.73957e+06 -1.15411e+06 -339901 0 0 0
-14607.8 3522.45 -5730.23 0 0 0
-2.05208e+08 -3.34173e+07 1.35185e+08 0 0 0
-2.19203e+06 528980 -861230 0 0 0
9.13354e+08 3.88135e+08 -8.89843e+08 0 0 0
-580249 137517 -227749 0 0 0
-1.18318e+06 284418 -464758 0 0 0
-1.98175e+06 462533 -777232 0 0 0
1.06661e+08 6.93778e+06 -5.71433e+07 0 0 0
6.11755e+08 8.94807e+07 -3.91426e+08 0 0 0
3.00828e+08 1.29005e+08 -2.9061e+08 0 0 0
3.79854e+08 4.92199e+07 -2.34861e+08 0 0 0
3.05268e+08 1.68216e+08 -3.37709e+08 0 0 0
9.37939e+07 5.28007e+06 -4.88884e+07 0 0 0
-1.54193e+06 358083 -604577 0 0 0
-7.3503e+06 -4.15131e+06 -2.52636e+06 0 0 0
9.85012e+08 2.85115e+08 -7.93334e+08 0 0 0
3.6233e+08 4.45465e+07 -2.2005e+08 0 0 0
8.99317e+08 4.0576e+08 -8.93286e+08 0 0 0
-1.40927e+06 326998 -552537 0 0 0
1.06981e+09 1.56792e+08 -6.79467e+08 0 0 0
8.7992e+08 4.30058e+08 -9.095e+08 0 0 0
3.10506e+08 1.19857e+08 -2.81501e+08 0 0 0
9.58189e+08 3.3636e+08 -8.34682e+08 0 0 0
3.21147e+08 1.65275e+08 -3.36723e+08 0 0 0
-3.29188e+06 -3.01812e+06 -249796 156 155 150
-8.44813e-05 -8.64115e-06 1.8551e-08 112 105 97
-682889 -740486 3067.6 0 0 0
-424.571 12.0091 0.024303 0 0 0
341283 348608 8596.86 70 67 58
-1.08156e+07 -1.63449e+07 2.29971e+06 174 171 164
-21784.1 1621.57 12867.3 80 79 74
-5595.98 487.031 3322.03 74 75 69
-1.01662e+07 3.15029e+06 6.56882e+06 164 164 156
-1.01662e+07 3.15029e+06 6.56882e+06 164 164 156
-22799.8 2411.74 13633.8 30 32 27
-935252 117601 563648 111 113 102
-20009.9 2151.12 11973.5 28 30 25
9.57098e+06 1.47323e+07 -2.12501e+06 0 0 0
-66401.7 14029.6 41350.7 0 0 0
3.40177e+06 -485612 -2.06335e+06 0 0 0
211291 219573 3482.44 215 216 211
0.624145 136.74 0.460366 33 35 34
45198.8 49980.3 -722.275 43 45 42
970.298 3055.56 -912.152 0 0 0
-82524.2 -67413.9 -10244.8 0 0 0
2.00587e+09 7.95896e+08 2.69292e+09 0 0 0
-570.809 -533.186 -23.5128 189 185 174
-584.757 -548.881 -23.1687 202 199 190
-554.549 -512.298 -25.1699 206 203 194
-546.439 -502.913 -25.4976 181 189 174
-589.729 -548.865 -25.7601 178 175 166
6.1843 3.25622 10.8725 197 192 189
41.7296 30.432 21.9809 202 199 194
6.53097 3.08488 11.0162 123 128 124
50.683 40.2068 21.9047 95 101 99
-2343.82 526.656 -908.226 172 158 155
-847806 203245 -332835 34 36 23
-701832 180005 -276555 66 65 63
1.58073e+06 1.54725e+06 72686.2 87 89 84
-647272 161538 -254662 35 36 28
-1.27694e+07 -8.04251e+07 3.23609e+07 122 124 123
28734.4 -4370.68 11069 34 36 33
7.13519 2.67933 11.2761 56 55 53
-1.31929e+06 302035 -516667 211 210 205
36175.4 -4916.28 13881.6 25 26 20
6346.76 3773.08 2080.66 95 97 86
-483.379 -461.039 -13.0484 69 66 49
-872.802 -803.278 -49.7597 42 45 38
6570.77 3902.7 2155.28 189 186 179
-19.3388 8.29043 0.947797 23 23 15
1.48314e+06 -369331 583108 208 208 200
1.43164e+06 -350981 562369 197 197 189
-1.89128e+06 732899 -764474 200 199 195
-2.28917e+09 2.4825e+09 -1.2091e+09 84 84 74
-2.27871e+09 2.56459e+09 -1.34829e+09 106 106 98
-1.98134e+09 1.5225e+09 -5.84573e+08 69 66 59
531000 -131562 208961 0 0 0
6.44023e+08 3.60427e+08 -7.5037e+08 0 0 0
-884.189 -1117.73 96.7966 0 0 0
-879.197 -1110.71 95.9883 0 0 0
-879.197 -1110.71 95.9883 0 0 0
35.392 -5.02987 22.4578 0 0 0
26.1492 -2.2167 18.7752 0 0 0
31.2804 -3.73148 20.8155 0 0 0
-1.67868 4.95637 7.8018 0 0 0
-58889.9 14792 -23179.3 0 0 0
1.1332e+06 -294742 447091 0 0 0
-22879.7 -15559.1 -3884.27 83 79 67
6.62591 1.49643 20.0206 159 169 181
7.46843 2.02796 20.2191 164 172 183
38.1972 24.5587 22.9938 167 177 189
39.8948 25.6816 23.3317 168 176 189
42.9177 27.6105 23.9646 174 180 192
-27139.4 -18528.9 -4501.18 56 55 50
-46485.8 -31827.2 -7586.3 72 75 64
29931.9 27917.8 2056.84 79 79 69
51.5521 33.3254 25.6816 23 27 13
-22941 -15680.1 -3776.42 194 194 186
339.591 319.004 37.1144 112 112 104
-22804.9 -15587.7 -3753.03 194 194 186
201243 187190 13989.7 115 116 111
-21964.3 -14836.9 -3876.3 98 94 85
-22361.2 -15259.9 -3716.07 197 197 187
191393 177878 13378.2 99 95 83
55.8814 36.1825 26.5461 16 15 10
114846 105820 8476.45 93 95 94
-23424.9 -15916 -3997.44 121 123 120
339.595 319.007 37.1144 128 130 125
57.2609 37.0926 26.8217 17 23 11
-1841.64 -1220.11 -347.513 36 36 26
-147954 -101170 -24366.6 128 129 121
-87090.7 -59474.9 -14452.1 128 129 121
-131123 -89314.4 -22109.5 105 99 87
-46434.9 -31552.9 -7933.82 124 121 116
17334.9 15977.7 1289.69 115 117 116
316345 298175 20091.4 108 101 91
-45765.9 -30903.3 -8109.36 117 118 110
-198605 -134569 -34552.8 114 116 105
-1553.43 -1029.52 -290.4 21 20 15
-1.99144e+06 -1.38293e+06 -296568 181 180 176
4.31973e+06 3.94828e+06 333732 187 188 183
-48.6419 64.2648 -139.054 190 186 183
-882.005 -495.33 -291.614 190 186 183
-1.98434e+06 -1.38169e+06 -289997 192 192 190
34.4166 21.6325 22.4401 25 31 29
15.1173 8.60273 18.7218 135 112 106
-2.00004e+06 -1.39464e+06 -289267 197 196 192
-2.5333e+06 -1.59484e+07 6.41765e+06 208 209 203
-2.5333e+06 -1.59484e+07 6.41765e+06 208 209 203
0.758659 -4.70003 21.8451 11 14 7
44.2393 28.1457 24.3869 11 14 7
-1.81238e+06 -1.27902e+06 -239448 215 215 207
-1.81238e+06 -1.27902e+06 -239448 215 215 207
19.8546 11.7207 19.672 203 204 198
20.9557 12.4547 19.8883 191 186 182
-623.238 -348.878 -203.749 47 43 42
23.5235 14.1803 20.3868 44 40 41
38.944 24.5481 23.378 32 31 27
47.2004 30.0708 24.9918 4 9 5
14.6042 8.12056 18.6858 183 180 175
-367.785 -204.168 -117.141 49 42 34
-1.61483e+06 -1.13635e+06 -218162 198 195 186
-1.61281e+06 -1.13377e+06 -219607 217 214 205
-1.91197e+06 -1.3415e+06 -264185 213 213 205
-186935 -128215 -30197 205 208 215
3.48239e+06 3.1155e+06 301687 171 172 167
-255925 -173486 -44393.9 184 187 180
3.68306e+06 3.33576e+06 299408 136 138 137
18.2319 10.4608 19.4347 207 206 201
-297034 -202226 -50226.1 197 202 196
4.1229e+06 3.69477e+06 354165 149 150 142
35.1763 21.869 22.7138 47 46 28
-1.62317e+06 -1.14451e+06 -215864 213 213 203
-2.37526e+06 -1.6621e+06 -334796 191 190 186
-1.77457e+06 -1.24461e+06 -245895 104 100 97
4.15691e+06 3.79379e+06 324001 52 47 25
-2.19187e+06 -1.52905e+06 -315973 89 100 94
-236372 -161813 -38645.2 58 66 68
-2.23343e+06 -1.55689e+06 -323671 214 215 220
-2.38187e+06 -1.65767e+06 -349198 195 192 185
-2.18369e+06 -1.52433e+06 -313310 22 21 17
31035.7 19863.6 9431.42 154 142 142
-290133 -198451 -47682.8 23 23 13
-164490 -112760 -26656.7 100 118 128
-223952 -153292 -36641.6 58 51 33
-303432 -206552 -51348.8 101 107 97
-2.92483e+06 -2.017e+06 -456382 58 84 97
122.905 669.347 -247.714 199 198 193
46.8242 29.65 24.9953 40 40 30
-332.83 -184.033 -105.936 43 43 43
-7976.4 -7055.48 -714.892 216 215 210
-290770 -197720 -49522.2 199 199 191
-1.40583e+06 -1.24504e+06 -127896 215 214 209
12.8416 -20.9043 59.9464 24 28 14
47.9097 30.365 25.2127 32 34 23
89.0768 422.803 -145.875 29 26 19
29.8264 18.1828 21.7171 13 19 15
-227210 -153203 -40622.6 21 16 10
11.2233 5.57745 18.1552 209 208 203
37.1307 23.0945 23.1339 24 26 21
41.2869 25.8959 23.9371 16 15 11
-292.065 -160.901 -92.2219 22 33 25
11.9502 6.05169 18.3028 207 206 201
-440.825 -244.988 -142.964 216 191 187
-388.119 -215.17 -125.029 23 21 8
15.2668 8.27162 18.9505 151 144 136
38.1752 23.7515 23.3572 25 27 16
7.12653e+06 6.56687e+06 525217 113 101 85
38.856 24.1229 23.5294 21 21 13
22.2183 12.8566 20.3398 196 195 191
23.6676 13.8376 20.6177 183 184 179
23.6676 13.8376 20.6177 183 184 179
-107609 -73783.5 -17405.6 101 81 70
23.5938 13.6855 20.6512 174 173 169
23.5938 13.6855 20.6512 174 173 169
39.4219 24.399 23.6877 171 172 166
28.0349 16.6737 21.5112 192 189 180
27.4281 16.258 21.3972 188 185 178
30.1339 18.0641 21.9279 190 187 182
28.7324 17.0375 21.6956 191 188 181
56.8534 36.0197 27.1133 14 19 13
61.0439 38.674 28.0017 9 10 4
15.6409 7.60979 19.4519 185 185 175
33.5243 19.8663 22.8082 184 185 171
36.6087 21.9091 23.4208 179 179 171
-6520.85 -4283.08 -1321.9 207 206 202
21.1476 11.232 20.5571 203 202 197
36.0417 21.4314 23.3559 184 181 174
21.4529 11.3566 20.6536 204 203 198
-160.017 -86.1375 -48.6558 207 207 199
40.0447 23.815 24.2761 190 187 178
19.7465 9.38723 20.7105 208 207 202
43.8917 25.9388 25.2389 186 186 178
43.2912 25.4111 25.1808 188 187 182
-789577 -4.94478e+06 1.9875e+06 209 208 203
-1.98204e+07 1.47754e+09 1.2203e+09 16 17 12
4.4412e+09 -7.27087e+09 7.54743e+09 49 41 30
2.33779e+08 -1.78356e+09 -1.3228e+09 16 18 13
-1.62949e+07 -1.0488e+08 -6.61406e+06 201 195 183
3.15629e+08 -1.72863e+09 -1.2218e+09 15 17 12
-5.00767e+08 -3.88417e+09 8.43719e+08 136 134 122
5.52172e+08 -1.91976e+09 -1.28744e+09 12 17 11
-8.38879e+08 2.38987e+09 2.50071e+09 110 107 100
-8.38879e+08 2.38987e+09 2.50071e+09 110 107 100
-3.59084e+07 -1.17686e+08 -9.28916e+06 119 122 113
5.97056e+08 -1.46769e+09 -9.54552e+08 41 42 37
2.80773e+09 -4.4109e+09 1.56533e+10 132 128 116
6.5553e+08 -1.34961e+09 -8.96623e+08 99 102 93
9.01802e+08 -1.82739e+09 -1.05496e+09 101 98 91
2.27552e+09 -8.47323e+09 -2.54695e+09 164 158 146
2.22132e+09 -2.45018e+09 -1.52294e+09 86 88 77
2.13417e+09 -2.45954e+09 -1.48926e+09 104 104 96
2.14653e+09 -2.50598e+09 -1.46834e+09 97 98 90
-1.39994e+09 1.34418e+09 7.77089e+08 87 83 72
2.66525e+09 -3.54417e+09 -1.72146e+09 77 77 65
2.66525e+09 -3.54417e+09 -1.72146e+09 77 77 65
2.46761e+09 -3.18263e+09 -1.54408e+09 84 80 68
-1.47656e+09 1.3119e+09 7.60234e+08 82 76 62
-1.41734e+09 1.16121e+09 6.58772e+08 102 93 76
-1.94479e+09 1.92422e+09 9.77951e+08 98 89 72
-2.83082e+08 -3.55975e+09 1.35528e+09 85 82 75
-3.39932e+08 -1.486e+09 -2.34523e+08 70 56 43
-5.11869e+07 -2.94588e+07 -1.67233e+07 142 142 132
-1.45518e+09 1.31018e+09 6.62309e+08 95 87 76
1.31846e+09 2.13639e+09 -5.78656e+08 101 97 86
1.84357e+09 1.2162e+09 3.7116e+08 115 105 93
8.94777e+08 2.24817e+09 -6.28951e+08 113 105 92
-9.98978e+06 -4.04158e+09 1.68588e+09 134 134 126
-2.64977e+09 -4.73429e+09 7.20228e+08 129 126 117
-6.92374e+06 -4.36356e+07 1.75451e+07 120 120 112
-4.96779e+07 -2.85811e+07 -1.62431e+07 130 130 118
1.87392e+08 -4.21821e+09 1.81273e+09 124 124 116
-6.40348e+07 -3.75126e+07 -1.51294e+07 137 134 127
2.17884e+09 1.34205e+09 4.85322e+08 118 112 98
1.4084e+08 -2.75419e+09 5.80393e+08 58 59 54
1.84767e+09 -1.90064e+09 -8.66883e+08 90 84 72
2.14803e+09 -2.36239e+09 -1.03666e+09 90 84 70
2.25448e+09 -2.48312e+09 -1.0861e+09 72 60 44
-3.77939e+07 -7.17436e+07 1.2373e+07 150 150 142
-4.04471e+07 -2.41789e+07 -1.18707e+07 89 86 77
-1.119e+08 -6.2027e+07 -2.8141e+07 120 113 103
-1.6036e+07 -1.05728e+07 -3.23756e+06 117 111 97
2.26127e+09 -1.40378e+09 -6.53256e+08 102 98 86
1.74922e+09 -1.4632e+09 -6.47402e+08 98 92 80
1.77619e+09 -1.4697e+09 -6.57483e+08 93 89 77
1.91737e+09 -1.82822e+09 -7.92178e+08 101 79 55
-2.71179e+08 -4.59431e+08 6.14034e+07 115 109 97
1.94686e+09 -1.82292e+09 -7.77181e+08 75 65 55
-3.69924e+07 -1.91041e+07 -9.99152e+06 108 108 98
-9.33662e+06 -1.39092e+07 1.17087e+06 123 115 104
-3.91594e+08 1.13264e+08 -2.59971e+08 123 115 104
1.60178e+09 -8.24975e+08 -3.8948e+08 113 101 87
2.00242e+09 -1.75636e+09 -7.43502e+08 90 78 62
-3.08312e+07 -1.80306e+07 -9.64184e+06 122 119 112
2.60828e+08 1.72101e+08 5.24292e+07 120 112 101
1.59824e+09 -8.38072e+08 -3.87961e+08 114 106 95
4.71451e+06 2.78787e+06 1.10356e+06 116 108 97
-4.57048e+07 -2.06246e+07 -1.37825e+07 130 129 125
1.96164e+09 -1.51539e+09 -6.41954e+08 115 87 63
1.96193e+09 -1.49003e+09 -6.22819e+08 117 86 66
-26138.9 -15781.2 -7419.39 117 117 107
1.80037e+09 -1.86274e+09 -7.68097e+08 61 62 54
-5.58199e+07 -2.04353e+07 -1.91307e+07 118 118 110
-6521.03 -4283.2 -1321.94 119 109 99
1.9963e+09 -1.75602e+09 -7.03659e+08 72 70 58
2.22841e+09 -2.06993e+09 -8.10462e+08 74 68 56
-882389 -5.33028e+06 2.13798e+06 117 109 98
-22935 -14365.8 -5733.78 140 125 106
1.79225e+09 -1.44063e+09 -4.81171e+08 66 67 61
3752.28 39192.4 -17031 130 117 101
3752.28 39192.4 -17031 130 117 101
9062.78 284057 -133791 121 112 97
-34766.5 -22533.1 -7574.15 127 97 71
3.59251e+09 -2.23262e+09 -5.63037e+08 68 65 58
-91.3395 111.106 -255.905 81 78 69
-91.3395 111.106 -255.905 81 78 69
92396.9 63246.2 15187.7 77 77 69
-499542 -340997 -83401.8 74 73 68
268223 255182 15830.7 81 82 74
262121 249198 15557.2 78 75 68
5441.03 6156.49 -141.214 89 86 79
298230 283914 17512.9 83 80 73
150174 101936 25948.4 77 74 69
208199 199102 11797.4 72 71 66
281223 267786 16485 86 83 78
132288 89829.9 22807.2 75 75 67
93763.6 89777.1 5268.34 77 77 67
165855 158883 9268.93 78 75 68
-6521.01 -4283.19 -1321.93 87 84 79
-6521 -4283.18 -1321.93 74 75 69
-6521 -4283.18 -1321.93 86 83 76
-6520.99 -4283.17 -1321.93 0 0 0
-8847.99 -5816.97 -1791.67 0 0 0
-42486.8 -26790 -10366 0 0 0
-6521.01 -4283.18 -1321.93 0 0 0
-720037 -1.00844e+06 114040 0 0 0
-6520.98 -4283.17 -1321.93 0 0 0
389968 439548 -10187.5 0 0 0
-6520.97 -4283.16 -1321.92 0 0 0
-58641.4 -38117.6 -12614.9 0 0 0
-6520.97 -4283.16 -1321.93 0 0 0
-387420 -255539 -77907.6 0 0 0
-18115 -11630.6 -4100.2 0 0 0
-3.10519e+08 -3.58121e+08 -2.58948e+08 0 0 0
-5731.12 -3782.62 -1132.64 0 0 0
-63502 -40577.1 -14702.7 0 0 0
-2.16118e+07 -1.38362e+07 -4.96993e+06 0 0 0
-50999.8 -32457.7 -11999.1 0 0 0
-5.17513e+08 -8.25449e+08 -5.58057e+08 0 0 0
-5.56901e+07 -7.86736e+07 -5.96055e+07 0 0 0
-6521 -4283.18 -1321.93 0 0 0
-6520.95 -4283.15 -1321.92 0 0 0
-6.26466e+07 -1.10089e+08 -7.61505e+07 0 0 0
-7.12741e+08 -1.0856e+09 -7.54916e+08 0 0 0
-1.01486e+07 -6.62892e+06 -2.13789e+06 0 0 0
-1.01486e+07 -6.62892e+06 -2.13789e+06 0 0 0
2.19233e+09 -3.11803e+08 2.65141e+09 0 0 0
-2.61143e+08 -4.86416e+08 -3.21732e+08 0 0 0
-2.61143e+08 -4.86416e+08 -3.21732e+08 0 0 0
-5.2999e+07 -3.49519e+07 -1.06679e+07 0 0 0
6.39459e+07 7.07205e+07 -1.01189e+06 0 0 0
-1.51926e+07 -1.62447e+07 -28924.4 0 0 0
-6.74875e+07 -4.45027e+07 -1.35903e+07 0 0 0
-6520.95 -4283.15 -1321.92 0 0 0
-2.61995e+09 -3.61921e+09 -2.63234e+09 0 0 0
3.29328e+07 3.49129e+07 208357 0 0 0
-8.49698e+08 -1.21108e+09 -8.67262e+08 0 0 0
-3.91994e+07 -2.51975e+07 -8.86248e+06 0 0 0
-1.4051e+08 -2.24043e+08 -1.55221e+08 0 0 0
-2.69729e+08 -4.58539e+08 -3.13447e+08 0 0 0
-2.69729e+08 -4.58539e+08 -3.13447e+08 0 0 0
220938 210615 12852.7 0 0 0
264512 251534 15683.8 0 0 0
274070 260344 16384.9 0 0 0
276401 262375 16612.7 0 0 0
251537 171087 42900.8 0 0 0
233259 221283 14090.5 0 0 0
-67.2718 99.5954 -211.609 0 0 0
108381 102983 6475.23 0 0 0
86600.3 82499.3 5074.75 0 0 0
90865.9 86535 5337.66 0 0 0
-494273 -323447 -103179 0 0 0
41422.4 26109.6 12773.4 206 214 225
78946.8 60027.9 19210.2 204 195 196
8.12014e+06 1.62911e+07 -7.7235e+06 228 227 223
-20285.4 -40444.2 19297.3 189 188 183
-5.3245 -316.247 -0.759995 67 74 66
836048 1.32648e+06 -800568 76 73 66
1.26236e+07 7.69237e+06 4.02547e+06 0 0 0
8.96431e+07 5.99738e+07 2.59089e+07 0 0 0
-20494.5 5022.81 -8046.47 30 30 20
332.56 177.016 128.393 181 181 173
8584.99 5150.44 2787.89 23 26 17
-1.43891e+07 -1.04225e+07 -3.75806e+06 29 29 27
-1.43891e+07 -1.04225e+07 -3.75806e+06 29 29 27
-1.50731e+07 -1.09e+07 -3.94569e+06 30 35 31
2.14417e+07 1.54502e+07 5.64049e+06 30 31 26
2.32728e+07 1.6694e+07 6.16007e+06 37 37 35
2.28122e+07 1.63724e+07 6.03377e+06 36 37 31
2.12326e+07 1.51635e+07 5.65368e+06 32 34 31
-3.91597e+06 -2.78168e+06 -1.05019e+06 42 44 39
12761.1 7689.26 4122.02 187 184 175
1.9851e+07 1.40706e+07 5.33907e+06 36 38 33
1.8969e+07 1.34054e+07 5.12186e+06 34 37 30
29109.2 -2618.42 11051.9 30 32 27
2.29436e+07 1.6235e+07 6.18474e+06 42 44 39
2.32917e+07 1.64457e+07 6.29642e+06 35 36 31
1.95355e+07 1.37992e+07 5.27814e+06 35 35 33
1.77328e+07 -879970 6.6627e+06 83 85 82
1.2064e+07 8.2856e+06 3.3776e+06 90 91 83
2.37265e+07 1.6367e+07 6.60725e+06 42 44 43
1.74395e+07 1.20199e+07 4.86161e+06 119 121 120
-8.26958e+09 5.11665e+09 -9.10748e+09 44 44 42
-100.169 205.727 -410.536 214 213 208
194830 115198 63891.6 215 214 209
-345.608 -191.803 -109.266 26 27 21
-143.209 -77.1479 -40.7254 42 41 36
-858955 -606660 -112730 21 22 16
-668.412 -373.846 -220.244 207 206 201
-1.13039e+06 -746719 -225159 27 27 15
-31.9696 51.5307 -102.009 207 206 202
268871 181804 47289.9 132 128 117
-30.8367 49.6443 -97.8965 207 206 202
223129 126405 75943.5 177 169 156
12813.8 7231.43 4381.32 103 100 93
14286.4 8057.2 4884.79 73 70 55
17335.2 9793.81 5919.82 83 80 65
18253.6 10309 6233.7 98 92 80
2.46099e+06 1.58223e+06 556858 122 114 103
-466835 -335566 -52902.4 85 69 53
-218316 -146592 -40080.6 86 86 78
166625 121007 17049.2 91 68 52
576507 379888 169548 164 171 187
567642 4.06065e+06 -1.65664e+06 65 90 86
706119 4.92107e+06 -2.00001e+06 158 166 179
928957 6.45309e+06 -2.62136e+06 156 166 176
769345 -1.3386e+06 1.14075e+06 155 165 175
1.1861e+06 -2.06456e+06 1.75885e+06 158 168 178
6.69712e+06 -1.24413e+07 1.03216e+07 156 166 176
-150.225 -1081.35 456.904 31 32 26
-3.15345e+06 4.14844e+06 -3.99499e+06 173 181 194
523201 3.75417e+06 -1.53148e+06 14 19 13
-5.58135e+06 -3.4221e+06 -1.76903e+06 48 48 36
-4.97841e+07 -3.08219e+07 -1.56309e+07 129 135 123
-1.63635e+07 8.46188e+06 -1.41055e+07 183 191 176
1.51001e+09 -6.0025e+08 1.06566e+09 87 89 88
1.52689e+09 -6.23191e+08 1.08539e+09 20 23 14
-3.81059e+08 -8.27965e+07 -1.68476e+08 185 173 159
-3.52482e+07 -2.08917e+07 -1.1532e+07 196 192 181
-3.42538e+07 -2.0361e+07 -1.11773e+07 200 196 187
-5.23089e+06 -4.75436e+06 -417054 203 203 193
-5.23089e+06 -4.75436e+06 -417054 203 203 193
-4.23175e+08 -4.05737e+08 -2.35468e+07 109 102 92
-1.55287e+08 -1.49329e+08 -8.4281e+06 128 120 109
-4.00859e+06 3.0936e+06 -3.98746e+06 18 20 9
-408.621 -359.75 -23.1735 204 201 192
-1.1751e+07 -2.34338e+07 4.42964e+06 188 188 178
-5.63762e+07 369084 -3.41568e+07 74 70 58
-878310 -7.06728e+06 2.92171e+06 27 30 23
-728330 -5.99681e+06 2.48589e+06 59 56 51
-6.12663e+06 3.17718e+06 -5.3024e+06 59 59 49
92847.4 84136.2 7540.99 203 200 191
