ply
format ascii 1.0 
element vertex 1074
property float32 x 
property float32 y 
property float32 z
property uchar red  
property uchar green
property uchar blue
element face 0
property list uchar int vertex_indices
end_header
-1.65973 0.915262 2.4562 200 200 190
-1.65078 0.898927 2.46712 105 100 94
-1.65662 0.72253 2.49039 197 198 192
-1.65809 0.686959 2.5065 87 88 74
-1.63835 0.780111 2.49088 180 177 170
-1.64283 0.702048 2.4993 110 106 95
-1.62481 0.85887 2.49108 188 179 172
-1.63732 0.652187 2.54303 140 142 139
-1.68944 -0.245095 2.66944 108 109 104
-1.58827 0.847821 2.51508 129 128 126
-1.68078 -0.39426 2.68246 223 227 239
-1.5817 0.781637 2.52598 114 114 104
-1.57124 0.908526 2.51723 99 98 94
-1.61568 0.610452 2.59558 213 209 206
-1.56447 0.901082 2.52217 110 111 105
-1.66648 -0.359681 2.70393 108 113 109
-2.24733 -0.501296 4.06567 120 122 121
-1.6478 -0.513817 2.67967 220 226 238
-1.63766 0.0594306 2.66529 119 121 107
-1.63766 0.0594306 2.66529 119 121 107
-1.65576 -0.393673 2.70199 218 228 238
-1.64221 -0.201395 2.68021 17 20 13
-1.59523 0.610072 2.62004 216 216 216
-1.59792 0.514526 2.63129 245 246 241
-1.5491 0.699208 2.55018 50 46 43
-1.5491 0.699208 2.55018 50 46 43
-1.53565 0.906591 2.53496 130 129 125
-3.33195 -0.545746 10.1066 58 60 55
-1.53729 0.766364 2.55711 210 210 208
-1.61592 -0.175288 2.69513 33 33 31
-3.29501 -0.812016 10.0452 47 49 44
-1.54172 0.696822 2.57656 30 30 28
-3.2736 -0.760222 10.0689 32 32 30
-1.53092 0.698999 2.56066 30 35 28
-1.60362 -0.213429 2.69206 43 43 41
-1.58948 0.158521 2.68734 107 103 92
-1.59917 -0.018939 2.70408 187 190 183
-1.57116 0.443325 2.66343 214 214 206
-1.59766 -0.349468 2.70721 109 113 112
-1.563 0.60503 2.65046 216 215 211
-2.31382 -0.640228 3.92855 219 225 237
-1.59139 -0.331514 2.71531 112 112 112
-1.51458 0.696631 2.59295 32 39 31
-1.51458 0.696631 2.59295 32 39 31
-1.58265 -0.321331 2.71299 145 147 146
-3.1968 -1.17123 10.1383 145 147 146
-1.58042 -0.159368 2.71397 29 29 27
-2.10917 -0.388797 4.10071 29 29 27
-3.18237 -1.04823 10.1441 132 136 137
-1.57794 -0.284468 2.71226 132 136 137
-1.57953 -0.308997 2.7167 141 143 142
-1.49926 0.696154 2.60417 48 50 47
-1.42711 -0.159853 2.48035 11 12 7
-1.51903 -0.139587 2.65012 9 11 6
-3.01156 -0.566775 10.0733 9 11 6
-1.55999 -0.309983 2.7261 144 145 147
-1.53012 0.444735 2.68925 225 229 214
-7.89311 -1.93557 14.9759 148 150 149
-1.46507 0.906717 2.58239 152 153 155
-1.47106 0.701721 2.59091 213 214 209
-8.8226 -1.18828 16.2098 25 25 25
-1.54654 -0.453912 2.73821 219 225 237
-1.54103 -0.00245571 2.7301 210 210 208
-6.71498e+08 -5.95208e+07 7.28119e+08 29 29 27
-3.18899 -0.610328 10.3584 25 27 24
-1.50067 0.61224 2.67307 211 206 202
-1.45083 0.865688 2.5977 164 165 167
-1.52467 -0.228029 2.73548 44 46 43
-1.51095 0.240959 2.71745 220 220 218
-1.43787 0.890335 2.60211 178 180 179
-1.5199 -0.176352 2.7516 34 34 34
-1.51729 -0.151928 2.75035 22 25 18
-1.44141 0.70735 2.60805 113 111 99
-1.83127 0.83234 4.08013 131 131 123
-1.50868 -0.210213 2.74938 44 44 42
-1.50571 -0.0651159 2.75863 130 134 133
-2.16057 -0.63991 3.96839 216 224 235
-1.36477 0.146602 2.50905 157 159 158
-2.92715 -1.35957 10.3156 104 106 105
-1.48888 0.160611 2.7383 160 162 161
-1.42212 0.702275 2.63562 213 214 209
-1.49514 -0.429892 2.77188 217 223 235
-1.40017 0.702895 2.63098 124 124 122
-1.42743 0.639534 2.68695 204 205 199
-1.42895 0.642726 2.69256 204 205 199
-1.83559 0.563694 4.14291 219 218 214
-1.82822 0.645692 4.14013 162 162 154
-1.45055 0.385266 2.73809 219 220 215
-1.44252 0.510477 2.72592 220 221 216
-1.44268 0.500066 2.72842 224 225 220
-1.46232 -0.0118739 2.77698 199 199 199
-1.4748 -0.254097 2.8015 98 106 109
-1.4748 -0.254097 2.8015 98 106 109
-1.47949 -0.380334 2.81546 163 163 163
-1.38954 0.751464 2.64718 213 208 204
-1.38925 0.694983 2.65547 211 212 206
-1.36398 0.706025 2.66587 210 211 205
-1.43769 -0.206555 2.88748 48 47 43
-1.40507 0.447609 2.82987 205 204 202
-1.40379 0.446239 2.83054 208 207 205
-1.42715 -0.374896 2.91313 206 207 202
-1.41869 -0.363677 2.91709 204 205 200
-1.83776 -0.548913 4.07691 206 203 196
-1.31385 -0.398947 2.96942 131 123 112
-1.31291 -0.365478 2.97175 209 208 204
-1.18538 -0.360305 2.93195 210 207 200
-1.60705 -0.561125 4.1188 211 211 203
-1.17444 -0.113578 3.02343 20 22 17
-1.16737 -0.391053 3.05926 208 209 203
-1.15227 -0.371608 3.06187 200 197 190
-1.15227 -0.371608 3.06187 200 197 190
-1.15125 -0.405848 3.06577 209 208 203
-1.14239 -0.434346 3.05525 205 202 195
-1.14541 -0.35898 3.07218 204 201 196
-1.12396 -0.191759 3.0957 28 30 27
-1.0806 -0.603103 3.14539 208 209 204
-1.05549 -0.0359092 3.0863 165 165 165
-1.41078 -0.55275 4.14308 209 208 204
-1.03449 0.435346 3.04426 221 222 224
-1.02993 0.618159 3.03339 27 27 19
-1.06373 -0.660417 3.14839 207 204 197
-1.04851 -0.207164 3.10445 58 60 59
-1.13514 -1.5886 3.3684 13 16 7
-1.03976 -0.0174872 3.09393 185 185 185
-1.03255 -0.433577 3.11708 211 210 205
-1.02826 -0.215401 3.11578 40 42 39
-1.36275 -0.512704 4.14583 199 201 198
-1.02385 -0.441283 3.12122 212 211 206
-1.023 -0.209799 3.1391 34 34 34
-1.01979 -0.226136 3.13015 40 42 39
-1.27958 -0.540479 4.19086 207 208 203
-1.01823 -0.331267 3.13751 149 151 148
-1.01622 -0.389548 3.13468 211 210 206
-1.0066 -0.165154 3.11603 22 24 19
-0.997429 -0.0552771 3.11149 147 147 147
-1.2525 -0.538655 4.19217 207 208 203
-1.30035 -0.725599 4.16824 212 213 208
-1.28306 -0.732124 4.1667 214 213 208
-0.985783 -0.0574015 3.13209 145 145 145
-0.985783 -0.0574015 3.13209 145 145 145
-0.989366 -0.433378 3.14425 212 211 207
-0.964131 0.586743 3.06748 18 19 11
-0.988913 -0.519885 3.16583 207 212 208
-0.98404 -0.532718 3.16713 219 218 213
-0.972544 -0.0444176 3.13183 153 153 153
-1.12376 -1.60481 4.17518 123 124 119
-0.99849 -1.31737 3.22325 91 90 86
-1.26169 -0.634868 4.1426 202 199 194
-0.950405 0.608011 3.07946 13 18 12
-1.10382 -1.62205 4.17283 20 20 18
-0.810447 -1.46145 3.07403 1 13 9
0.93949 -0.231486 -3.56355 174 176 171
-0.804253 0.199204 3.05331 174 176 171
-0.810703 -1.43615 3.08883 63 78 75
-0.805073 -1.44371 3.084 152 140 140
-0.737186 0.334599 2.87023 99 102 93
-0.72805 0.521311 2.8529 11 16 9
-0.724249 0.608316 2.78898 38 38 26
-0.717247 0.711693 2.83203 37 37 25
-0.71638 0.680478 2.84044 38 38 26
-0.709675 0.872454 2.81827 13 16 7
-0.708109 0.90613 2.81444 17 20 13
-0.704096 0.903057 2.81859 14 17 10
-0.699003 0.689259 2.79696 31 32 18
-0.800403 0.13144 4.06124 178 177 172
-0.686084 0.302964 2.90434 226 228 225
-0.686084 0.302964 2.90434 226 228 225
-0.669271 0.707097 2.86717 37 38 24
-0.648197 0.818241 2.86386 50 50 38
-0.648348 0.810224 2.81567 50 50 38
-0.649587 0.236261 2.87948 188 190 187
-0.641605 0.330078 2.92854 231 232 227
-0.596663 0.625808 2.92563 19 22 13
-0.596663 0.625808 2.92563 19 22 13
-0.59056 0.405059 3.02462 220 221 216
-0.627889 -1.31133 3.1825 17 17 7
-0.634451 -1.6197 3.24627 21 22 16
-0.613815 -1.32169 3.17632 59 58 53
-0.551957 0.310559 2.93515 227 228 222
-0.597158 -1.56139 3.25156 58 60 49
-0.540646 0.385766 2.99013 219 220 215
-0.526089 0.924528 2.92484 13 16 9
-0.589884 -1.5646 4.03639 164 160 149
-0.581988 -1.59094 3.26454 52 48 37
-0.536174 0.315045 2.94384 209 208 203
-0.514383 0.396417 3.00249 220 219 214
-0.514383 0.396417 3.00249 220 219 214
-0.535631 -1.66497 3.31316 44 46 35
-0.477069 0.421732 3.03325 192 196 199
-0.480106 0.184477 3.09428 162 159 150
-0.480106 0.184477 3.09428 162 159 150
-0.508999 -1.6082 3.31676 50 46 37
-0.455925 0.745327 2.99583 18 19 13
-0.455925 0.745327 2.99583 18 19 13
-0.496748 -1.65728 3.3329 62 55 45
-0.492998 -1.56499 3.31993 41 35 23
-0.447419 0.40055 3.04906 152 153 147
-0.484977 -1.60949 3.33405 70 66 54
-0.482361 -1.54257 3.32353 63 57 43
-0.390983 0.51159 3.07315 128 129 131
-0.390893 0.417204 3.0822 171 172 167
-0.381098 0.5948 3.06649 109 117 120
-0.385818 0.418074 3.03944 160 161 156
-0.413662 -1.45608 3.33344 25 26 20
-0.370115 0.391272 3.09995 156 157 151
-0.346386 0.422139 3.94031 156 157 151
-0.363921 0.38316 3.09893 42 35 29
-0.402523 -1.72584 3.58334 72 49 41
-0.337716 -1.7802 3.57386 126 131 135
-0.338285 -1.77525 3.56607 126 131 135
-0.278701 -1.77363 3.67138 88 88 80
-0.284945 -1.53474 3.7721 26 23 14
-0.284445 -1.53517 3.76901 26 23 14
-0.284217 -1.55504 3.76348 68 66 54
-0.280982 -1.49915 3.77196 105 103 91
-0.280944 -1.49511 3.7681 105 103 91
-0.277614 -1.54306 3.77354 101 101 91
-0.275106 -1.47337 3.76145 70 67 60
-0.267134 -1.45402 3.76896 63 66 59
-0.268024 -1.53588 3.78169 53 52 47
-0.242997 -1.50904 3.78725 77 74 67
-0.231295 -1.56374 3.8155 71 73 62
-0.228817 -1.5816 3.8159 67 66 61
-0.226833 -1.54407 3.8023 62 65 56
-0.226752 -1.53 3.80041 75 74 69
-0.220959 -1.78098 3.71315 100 96 85
-0.217559 -1.6093 3.82429 66 66 56
-0.212294 -1.4525 3.79832 73 69 60
-0.211556 -1.45555 3.80789 73 69 60
-0.1883 -1.8146 3.72763 104 100 91
-0.128613 -1.81719 3.76553 120 116 107
-0.122428 -1.8673 3.73391 118 111 101
-0.108671 -1.43383 3.86211 25 24 20
-0.0978478 -1.84643 3.78383 114 110 101
-0.0990557 -1.64235 3.89715 56 55 50
-0.0943313 -1.87697 3.76907 118 109 100
-0.0943313 -1.87697 3.76907 118 109 100
-0.0608114 -1.30658 3.92201 169 162 152
-0.000699679 -1.32759 3.92899 161 157 146
0.0217783 -1.82145 3.87796 82 81 77
0.0253774 -1.2621 4.11135 112 108 99
0.026196 -1.61223 3.97638 139 135 124
0.026196 -1.61223 3.97638 139 135 124
0.0260993 -1.27045 3.90967 130 127 118
0.0292636 -1.79091 3.87434 79 75 72
0.052912 -1.33245 4.12095 124 120 111
0.0480326 -1.86147 3.88869 69 70 65
0.0456186 -1.90749 3.81612 76 77 72
0.0500116 -1.59725 3.99595 149 142 134
0.0476122 -1.59241 3.98359 149 142 134
0.0479191 -1.61433 3.98661 129 125 116
0.0479191 -1.61433 3.98661 129 125 116
0.0490419 -1.35207 4.09396 104 94 84
0.0522081 -1.54552 3.98341 134 130 121
0.0551815 -1.5397 3.99529 134 135 127
0.0738206 -1.61514 4.02552 123 114 105
0.0734138 -1.79068 3.89907 69 55 52
0.0765424 -1.57731 4.00275 141 132 123
0.0797003 -1.24974 3.94803 140 141 135
0.082086 -1.90999 3.84071 69 70 65
0.0905799 -1.49464 4.01592 94 96 91
0.0947084 -1.68019 4.0307 99 99 91
0.0962955 -1.51029 4.0166 112 113 108
0.0951427 -1.55095 4.01228 95 98 91
0.0951427 -1.55095 4.01228 95 98 91
0.0963516 -1.79661 3.92137 100 87 81
0.106401 -1.79474 3.9295 148 141 131
0.108183 -1.887 3.90189 70 71 66
0.109818 -1.88779 3.90253 70 71 66
0.132939 -1.79715 3.94632 125 126 118
0.138531 -1.62272 4.09194 112 112 104
0.141086 -1.31418 3.97615 108 111 104
0.145054 -1.26024 3.99207 126 125 120
0.145446 -1.34013 3.96579 113 115 110
0.151761 -1.35574 3.97706 99 101 96
0.152194 -1.79346 3.94765 103 102 97
0.167699 -1.35868 3.97282 122 123 117
0.183903 -1.79713 3.97261 108 107 102
0.214738 -1.31556 4.09299 99 98 93
0.210964 -1.30893 4.0708 99 98 93
0.215988 -1.65189 4.08844 109 111 106
0.213902 -1.86628 3.99656 93 82 76
0.22056 -1.6359 4.10101 107 106 102
0.241575 -1.88232 3.96959 48 53 49
0.258211 -1.3084 4.10191 118 117 112
0.25579 -1.80537 4.03623 108 108 100
0.253395 -1.86017 4.00511 100 100 92
0.272978 -1.83072 4.04209 108 109 104
0.284047 -1.6715 4.16747 128 129 123
0.305602 -1.54794 4.15606 106 107 101
0.310639 -1.60597 4.17497 97 98 92
0.314025 -1.58543 4.1587 114 117 108
0.317757 -1.57221 4.16682 135 135 125
0.32566 -1.49799 4.09824 102 101 97
0.331512 -1.80788 4.08474 85 85 75
0.342697 -1.42838 4.17252 105 106 100
0.350095 -1.52996 4.19185 112 113 107
0.352066 -1.54695 4.20022 105 106 100
0.351288 -1.40924 4.16736 113 114 106
0.348613 -1.45865 4.16336 123 124 118
0.36312 -1.5139 4.2014 137 138 132
0.369943 -1.63437 4.21658 100 101 95
0.386223 -1.47297 4.21173 104 103 98
0.38078 -1.36668 4.16082 104 106 101
0.393363 -1.56136 4.22353 119 120 114
0.399182 -1.89159 4.07523 108 108 100
0.396372 -1.78605 4.02077 101 101 93
0.396372 -1.78605 4.02077 101 101 93
0.428164 -1.81337 4.14902 80 77 68
0.431984 -1.81126 4.14796 93 93 81
0.458153 -1.81305 4.16416 107 97 85
0.468813 -0.975064 4.19347 123 117 105
0.44241 -1.76469 4.0106 111 103 90
0.485477 -1.6363 4.28211 114 107 97
0.483245 -1.60926 4.27083 115 107 96
0.488562 -1.59727 4.29359 124 115 106
0.487732 -1.5457 4.27033 118 110 99
0.48683 -1.80295 4.20372 110 101 92
0.503458 -0.448769 4.36869 131 122 113
0.481841 -1.81016 4.1674 101 97 85
0.46316 -1.55649 4.06049 105 98 88
0.505521 -1.59844 4.30065 97 87 78
0.512006 -0.465401 4.37161 128 120 109
0.474298 -2.10893 4.07602 86 83 74
0.502823 -1.25485 4.06102 117 111 99
0.538019 -2.26878 4.36384 94 92 80
0.521624 -1.81933 4.2066 108 102 90
0.535882 -1.46493 4.30806 115 109 97
0.530732 -1.45769 4.28581 115 109 97
0.530732 -1.45769 4.28581 115 109 97
0.5806 -1.30684 4.32517 124 116 105
0.568801 0.777199 4.24933 99 99 91
0.59834 -2.26377 4.41943 78 78 68
0.59834 -2.26377 4.41943 78 78 68
0.565288 -1.93767 4.10123 104 100 88
0.572847 -1.28921 4.05572 111 104 94
0.603164 -0.436222 4.22095 100 96 87
0.626218 -1.6029 4.35678 117 113 101
0.603366 -0.493693 4.19461 85 86 81
0.603691 -1.88829 4.16635 100 98 86
0.604033 -1.82546 4.18523 111 107 96
0.564263 -1.60941 4.00444 0 0 0
0.648323 -0.965912 4.30856 0 0 0
0.587671 -2.07052 4.03846 0 0 0
0.670043 -1.41833 4.33209 0 0 0
0.623052 -1.33605 4.00405 0 0 0
0.670148 -0.899399 4.29891 0 0 0
0.602024 -2.07654 4.02993 0 0 0
0.632214 -1.4122 4.02085 0 0 0
0.630465 -0.669963 3.99648 0 0 0
0.682392 -1.38372 4.32123 0 0 0
0.714858 -2.27374 4.48803 0 0 0
0.714858 -2.27374 4.48803 0 0 0
0.648899 -0.690195 3.98545 0 0 0
0.697925 -0.500736 4.24749 0 0 0
0.646805 -0.537821 3.95352 0 0 0
0.72238 -1.36713 4.34366 0 0 0
0.636772 0.732726 3.90067 0 0 0
0.727427 -1.38575 4.34788 0 0 0
0.746099 -2.2769 4.45494 0 0 0
0.69212 0.755192 4.12954 0 0 0
0.73637 -1.37101 4.35318 0 0 0
0.71433 0.124388 4.23223 0 0 0
0.658996 0.0170777 3.93112 0 0 0
0.723187 -0.0423018 4.24613 0 0 0
0.660334 -1.22999 3.96022 0 0 0
0.73304 -1.6122 4.26069 0 0 0
0.727062 0.197074 4.21198 0 0 0
0.729016 0.418049 4.19397 0 0 0
0.752123 -1.34031 4.30147 0 0 0
0.733216 0.533115 4.18768 0 0 0
0.718155 -1.95332 4.07923 0 0 0
0.66066 -1.84459 3.85495 0 0 0
0.740204 0.666105 4.18103 0 0 0
0.742312 0.644614 4.18532 0 0 0
0.677035 -1.72153 3.87521 0 0 0
0.685905 -1.62428 3.90828 0 0 0
0.748881 -1.17875 3.88548 0 0 0
0.824728 -1.84441 4.06279 0 0 0
0.84785 -1.77864 4.13468 0 0 0
0.864423 -1.72223 4.20631 0 0 0
0.835197 -1.8655 4.05492 0 0 0
0.864756 -1.66644 4.20241 0 0 0
0.82813 -1.92523 4.01628 0 0 0
0.87475 -1.73819 4.18506 0 0 0
0.858177 -1.84276 4.07982 0 0 0
0.873826 -1.38768 4.11684 0 0 0
0.875757 0.982809 4.05294 0 0 0
0.918844 -1.33171 4.18178 0 0 0
0.956223 -1.74691 4.25999 0 0 0
1.02744 -2.29533 4.42342 0 0 0
0.94368 0.271047 3.9594 0 0 0
0.863798 0.302209 3.63484 0 0 0
0.958019 0.310745 3.95364 0 0 0
1.01745 -1.92217 4.20049 0 0 0
0.96738 0.3356 3.97683 0 0 0
1.05226 -1.71277 4.32863 0 0 0
0.879445 0.695437 3.62403 0 0 0
1.10899 -2.31207 4.47155 0 0 0
1.05768 -1.8608 4.23085 0 0 0
0.97457 0.966261 3.89722 0 0 0
0.982089 0.723317 3.92165 0 0 0
0.938836 0.920651 3.69496 0 0 0
0.995401 0.783346 3.91834 0 0 0
1.15108 -2.30659 4.51928 0 0 0
1.11823 -1.71012 4.36477 0 0 0
1.1052 -1.86118 4.26359 0 0 0
1.13147 -1.8624 4.25059 0 0 0
1.07165 0.419115 4.02193 0 0 0
1.07165 0.419115 4.02193 0 0 0
1.10331 0.218172 4.12279 0 0 0
1.14652 -1.951 4.24789 0 0 0
1.14211 -1.94324 4.22728 0 0 0
1.16339 -1.91866 4.26905 0 0 0
1.20776 -1.30186 4.40424 0 0 0
1.12712 -1.93641 4.09989 0 0 0
1.19855 -1.24648 4.35527 0 0 0
1.18492 -2.01412 4.27062 0 0 0
1.19416 -1.9843 4.22619 0 0 0
1.18645 0.97037 4.02559 0 0 0
1.25235 0.423561 4.21783 0 0 0
1.35239 0.423842 4.21756 0 0 0
1.62785 -0.12876 4.86891 0 0 0
1.45125 0.754756 4.23347 0 0 0
1.45528 0.981105 4.20528 0 0 0
1.72995 -0.370147 4.96108 0 0 0
1.81455 -0.341834 5.01212 0 0 0
1.83373 -0.823319 5.06654 0 0 0
1.81412 0.138997 4.99451 0 0 0
1.81412 0.138997 4.99451 0 0 0
1.82617 -0.188827 5.0118 0 0 0
1.82617 -0.188827 5.0118 0 0 0
1.85597 -0.701887 5.07724 0 0 0
1.83372 -0.691298 5.022 0 0 0
1.86631 -0.5806 5.04215 0 0 0
1.85037 -0.536266 4.9955 0 0 0
1.86854 -0.150179 5.02808 0 0 0
1.85359 -0.239499 4.987 0 0 0
1.86234 -0.0461815 4.99375 0 0 0
1.87561 -0.184703 5.02337 0 0 0
1.90182 -0.289048 5.03168 0 0 0
1.37232 -0.304688 3.64176 0 0 0
1.39139 -0.176237 3.65392 0 0 0
1.91896 -0.312078 4.99412 0 0 0
1.40092 -0.311937 3.63107 0 0 0
1.92833 -0.254252 4.97597 0 0 0
1.93366 -0.187569 4.99006 0 0 0
1.99614 -0.721349 5.13526 0 0 0
1.94613 0.457661 5.00085 0 0 0
1.95083 -0.145815 5.01192 0 0 0
1.91729 0.690665 4.93003 0 0 0
1.95557 -0.397593 5.01981 0 0 0
1.40422 -0.152952 3.61443 0 0 0
1.94189 -0.0142669 4.97615 0 0 0
1.92172 0.719373 4.92302 0 0 0
1.95541 0.684919 4.9926 0 0 0
1.95138 0.185117 4.97897 0 0 0
1.95939 -0.260214 4.99758 0 0 0
1.94022 0.250114 4.94955 0 0 0
1.40793 0.0851259 3.60166 0 0 0
1.94477 0.278279 4.94461 0 0 0
1.43607 -0.121769 3.63504 0 0 0
1.94388 0.573191 4.93991 0 0 0
1.96593 0.0941965 4.98861 0 0 0
1.41877 -0.0962049 3.59445 0 0 0
1.99014 -0.244783 5.0189 0 0 0
1.99014 -0.244783 5.0189 0 0 0
1.42121 -0.3176 3.59172 0 0 0
1.98199 -0.433755 4.99503 0 0 0
1.91605 1.01824 4.81563 0 0 0
1.99257 -0.227661 4.99703 0 0 0
1.99257 -0.227661 4.99703 0 0 0
1.98594 0.681355 4.96658 0 0 0
3.42648 -0.661054 8.58843 0 0 0
2.0018 -0.373831 5.01093 0 0 0
2.01401 -0.141955 5.03047 0 0 0
1.98706 0.643972 4.94502 0 0 0
1.96758 0.723508 4.89534 0 0 0
1.96294 0.736727 4.87149 0 0 0
1.96742 0.773197 4.88208 0 0 0
2.08238 0.805863 5.15018 0 0 0
1.96105 0.756448 4.84931 0 0 0
1.98348 0.610376 4.91001 0 0 0
2.03938 0.112034 5.04078 0 0 0
2.0406 -0.141593 5.04694 0 0 0
1.96764 1.01502 4.8376 0 0 0
3.53459 -0.264588 8.6716 0 0 0
1.9687 0.974418 4.8092 0 0 0
1.9878 0.707251 4.85392 0 0 0
2.13556 -0.60294 5.2089 0 0 0
1.96318 0.990223 4.76149 0 0 0
2.10789 -0.211053 5.07911 0 0 0
2.12403 -0.470173 5.10782 0 0 0
2.1433 0.396566 5.1104 0 0 0
2.14125 -0.219639 5.0949 0 0 0
2.13147 0.57993 5.058 0 0 0
2.17152 -0.440878 5.13835 0 0 0
2.20669 -0.538968 5.20921 0 0 0
1.56502 0.098747 3.65476 0 0 0
1.51138 -0.329288 3.53933 0 0 0
2.21608 0.288418 5.14869 0 0 0
2.1845 0.332111 5.08465 0 0 0
2.19602 0.580282 5.09452 0 0 0
1.6186 0.360794 3.72241 0 0 0
2.25632 1.02959 5.00234 0 0 0
2.35824 0.799056 5.09553 0 0 0
2.83229 0.806934 5.73938 0 0 0
2.85562 0.808922 5.73904 0 0 0
2.86202 1.08647 5.68961 0 0 0
4.05453 -4.07698 8.06209 0 0 0
2.8606 1.03103 5.68295 0 0 0
2.8606 1.03103 5.68295 0 0 0
4.11288 -3.99131 8.11142 0 0 0
4.13084 -4.07502 8.1299 0 0 0
4.12002 -4.07463 8.0751 0 0 0
4.23384 -3.57167 8.18493 0 0 0
4.18406 -4.08287 8.07287 0 0 0
4.14789 -4.11362 7.93067 0 0 0
2.00072 -2.08052 3.91232 0 0 0
4.30615 -4.06859 8.18322 0 0 0
4.30205 -3.38033 7.94003 0 0 0
2.06015 -1.65213 3.82886 0 0 0
4.35121 -3.11366 7.94158 0 0 0
4.34656 -2.88476 7.92346 0 0 0
4.35241 -3.40129 7.92163 0 0 0
4.36245 -3.01085 7.90958 0 0 0
4.36245 -3.01085 7.90958 0 0 0
4.47413 -3.22602 8.04483 0 0 0
4.4648 -3.3308 7.94873 0 0 0
3.71043 0.902826 6.512 0 0 0
4.54661 -2.31615 7.93231 0 0 0
4.55045 -2.3129 7.91096 0 0 0
-1.66021 0.886851 2.47418 100 93 83
-1.52787 0.807131 2.34185 188 179 172
-1.71202 -0.431109 2.69352 220 226 238
-1.70237 -0.242528 2.69046 88 86 74
-1.58153 0.725498 2.52296 130 130 128
-1.58153 0.725498 2.52296 130 130 128
-1.69106 -0.179679 2.70282 108 112 115
-1.58224 0.66145 2.54571 200 195 192
-1.56342 0.89986 2.51666 118 119 113
-1.56111 0.89164 2.51668 110 111 105
-1.57588 0.664386 2.55001 205 204 199
-1.65258 0.00463005 2.69033 125 122 115
-1.65984 -0.507495 2.70503 220 226 238
-1.56359 -0.428937 2.55329 222 226 238
-1.64798 0.0113613 2.69174 122 122 112
-1.63114 0.211377 2.67357 212 212 210
-1.60256 0.510845 2.639 245 246 241
-1.62504 -0.265959 2.69813 118 120 119
-1.59803 0.414326 2.65524 220 216 213
-1.62512 -0.142737 2.70401 87 87 85
-1.5903 0.421656 2.65746 216 213 208
-1.5903 0.421656 2.65746 216 213 208
-1.50645 -0.158954 2.5325 24 24 22
-1.58141 0.371533 2.66873 225 216 211
-1.54792 -0.170735 2.63837 30 32 29
-1.59442 -0.000336266 2.71811 157 152 148
-1.59504 -0.330467 2.7201 112 112 112
-1.5858 -0.228117 2.70497 44 45 39
-1.584 -0.0661185 2.72686 120 124 127
-1.57881 -0.447961 2.72691 218 224 236
-1.47351 0.898473 2.55221 145 143 146
-1.57162 -0.263569 2.72587 122 126 127
-1.63877 -0.646802 2.84298 215 221 233
-1.56826 -0.0650885 2.73365 127 133 133
-1.55846 -0.104073 2.74321 12 17 11
-1.45944 0.694966 2.57534 213 214 209
-1.55371 -0.0664392 2.74155 131 133 132
-1.54619 -0.150479 2.74134 25 27 24
-1.50236 0.608237 2.66559 108 105 96
-1.45232 0.684021 2.59965 128 119 112
-1.544 -0.0786671 2.79505 130 131 135
1.05517e+08 1.04934e+07 -1.18162e+08 44 46 45
-5.01085e+09 -4.2929e+08 7.91395e+09 33 34 29
-1.49797 0.0920937 2.73959 15 18 11
-1.42654 0.685716 2.6096 178 173 170
-1.50744 -0.0356697 2.76432 176 176 176
-1.48397 0.161738 2.72966 157 159 158
-1.48499 0.159807 2.7329 160 162 161
-1.45089 0.6077 2.69407 210 209 205
-1.46987 0.240457 2.73145 221 221 219
-1.39853 0.746501 2.60031 215 214 209
-1.28635 0.640792 2.39537 223 224 219
-1.49078 0.0276447 2.79683 221 221 219
-1.42807 0.62071 2.69019 214 213 208
-1.43263 -0.374647 2.9214 206 207 202
-1.29556 -0.337311 2.69625 207 208 203
-1.40694 -0.40237 2.92924 205 204 199
-1.24004 -0.0516085 2.59153 142 146 147
-1.34955 -0.373409 2.95814 202 198 189
-1.33388 -0.408049 2.95831 197 190 180
-1.33635 -0.371373 2.97036 201 201 193
-1.21011 -0.377361 2.72301 119 119 111
-1.30334 -0.407928 2.96996 155 157 156
-1.28507 -0.362382 2.99065 118 112 100
-1.26636 -0.431153 2.97064 212 211 207
-1.11424 -0.339223 2.76072 210 207 200
-1.18701 -0.429394 3.00913 210 207 200
-1.18361 -0.362339 3.04128 209 209 199
-1.07578 -0.369952 2.78369 207 204 197
-1.17416 -0.402893 3.03823 207 204 197
-1.06975 -0.0105762 3.06563 194 194 194
-1.0628 -0.00460759 3.06846 200 200 198
-1.05168 0.0324631 3.05165 218 218 216
-1.06409 -0.355453 3.10902 152 151 149
-0.830626 -0.021465 2.45341 178 178 178
-1.04178 -0.0260032 3.07757 178 178 178
-1.02874 0.0535301 3.07284 226 226 224
-1.02872 -0.194224 3.11425 27 29 24
-0.940713 -0.222927 2.90505 40 42 37
-1.01482 -0.59021 3.15232 210 209 205
-0.99602 -0.427868 3.10751 211 210 206
-0.808448 -0.0451879 2.52946 147 147 147
-1.00307 -0.532651 3.14098 213 212 208
-0.989545 -0.428306 3.11153 213 209 206
-0.983702 -0.443396 3.11349 208 207 203
-0.914191 -0.427086 3.11683 212 211 207
-0.500443 -1.67394 3.34895 30 23 15
-0.463515 -1.6564 3.60321 27 27 19
-0.409069 -1.61325 3.71218 26 25 21
-0.404837 -1.60882 3.69491 26 25 21
-0.399682 -1.4267 3.68637 63 62 57
-0.388552 -1.71768 3.58786 231 223 220
-0.400845 -1.61747 3.71343 20 24 23
-0.368637 -1.7648 3.52984 35 31 30
-0.381393 -1.55198 3.7312 145 140 134
-0.379625 -1.52352 3.71773 66 58 55
-0.37928 -1.57214 3.72062 87 82 78
-0.364637 -1.58723 3.73873 56 59 52
-0.34265 -1.79133 3.54561 109 115 115
-0.34265 -1.79133 3.54561 109 115 115
-0.358207 -1.47149 3.72402 81 78 71
-0.330804 -1.50385 3.7507 56 63 56
-0.302904 -1.59598 3.78354 27 29 26
-0.290182 -1.77168 3.6646 90 91 83
-0.292654 -1.4683 3.76501 68 68 58
-0.293329 -1.51209 3.77339 74 74 64
-0.280294 -1.5706 3.78758 87 82 76
-0.272777 -1.59864 3.77931 87 84 77
-0.26579 -1.77864 3.67432 93 90 83
-0.270766 -1.47619 3.78593 62 65 58
-0.260844 -1.5649 3.80403 56 56 54
-0.244566 -1.34286 3.57237 68 69 63
-0.245098 -1.48189 3.80115 58 51 45
-0.244886 -1.52116 3.80792 73 70 65
-0.243043 -1.60715 3.82264 72 68 57
-0.234869 -1.54131 3.80778 73 72 68
-0.223673 -1.48172 3.81594 71 72 66
-0.223761 -1.50322 3.8196 70 73 64
-0.218336 -1.14543 3.73885 203 202 197
-0.221016 -1.58759 3.83475 64 65 57
-0.202794 -1.81442 3.72315 99 97 85
-0.208331 -1.57214 3.83765 91 86 80
-0.141994 -1.80748 3.76341 120 113 103
-0.141994 -1.80748 3.76341 120 113 103
-0.135712 -1.82479 3.76821 122 115 107
-0.122638 -1.86383 3.7321 118 111 101
-0.12745 -1.82078 3.86041 120 111 102
-0.0994658 -1.6181 3.91919 19 19 11
-0.0893502 -1.79158 3.80918 120 116 107
-0.0660264 -1.79225 3.82709 114 110 99
-0.0637281 -1.31297 3.93876 169 162 152
-0.0744257 -1.94289 4.03415 115 111 102
-0.0290204 -1.25559 3.71145 165 158 148
-0.011746 -1.80073 3.84794 103 98 94
-0.00271356 -1.79535 3.8709 81 82 76
0.00384201 -1.52575 3.97808 160 153 143
0.00643863 -1.23795 3.9354 145 137 126
0.00643863 -1.23795 3.9354 145 137 126
0.0106233 -1.53207 3.97969 159 150 141
0.030166 -1.48851 3.9862 154 149 143
0.0312335 -1.3516 3.89965 146 141 135
0.0372697 -1.56589 4.00289 148 148 140
0.0372697 -1.56589 4.00289 148 148 140
0.0492456 -1.3061 3.9313 104 94 84
0.0718182 -1.79944 3.91707 47 39 36
0.0810749 -1.88146 3.87969 75 77 72
0.0810749 -1.88146 3.87969 75 77 72
0.0860836 -1.19905 3.96352 140 143 136
0.0924392 -1.58863 4.02278 126 122 113
0.0909851 -1.59432 4.03925 126 122 113
0.0909365 -1.25137 3.96306 114 115 107
0.0957385 -1.56365 4.02288 103 104 98
0.101067 -1.80534 3.92481 28 30 25
0.103421 -1.44883 4.02892 114 115 109
0.11075 -1.5324 4.04805 119 116 109
0.11075 -1.5324 4.04805 119 116 109
0.130864 -1.22111 3.99912 122 121 116
0.130864 -1.22111 3.99912 122 121 116
0.135389 -1.88893 3.92437 64 65 60
0.130698 -1.89488 3.93762 64 65 60
0.151266 -1.80318 3.96939 120 119 114
0.160367 -1.88315 3.92617 58 60 57
0.160367 -1.88315 3.92617 58 60 57
0.185484 -1.82929 3.99297 148 149 141
0.185484 -1.82929 3.99297 148 149 141
0.200992 -1.64726 4.12042 107 108 102
0.200992 -1.64726 4.12042 107 108 102
0.201967 -1.57782 4.09962 113 115 110
0.226857 -1.80642 4.01665 102 103 95
0.230644 -1.82675 4.01153 87 88 80
0.25714 -1.31022 4.10393 118 117 112
0.273623 -1.80816 4.04539 96 97 91
0.284283 -1.89387 4.01959 45 49 48
0.311874 -1.48245 4.17771 102 103 97
0.332292 -1.57448 4.17471 124 121 112
0.33152 -1.58585 4.20275 124 121 112
0.33354 -1.63076 4.20784 113 114 108
0.33859 -1.63195 4.21544 121 122 116
0.365733 -1.50504 4.21275 110 107 100
0.369825 -1.65209 4.23523 105 108 101
0.371355 -1.52613 4.22327 113 115 110
0.372325 -1.49867 4.22165 132 129 122
0.378719 -1.59266 4.21078 129 130 124
0.462826 -1.26592 4.29947 115 105 95
0.474396 -1.59692 4.30118 119 109 99
0.478922 0.301955 4.3427 133 109 85
0.479462 -1.19704 4.25373 128 122 110
0.484775 -1.58012 4.29978 118 109 100
0.492276 -1.58765 4.31214 119 111 100
0.484901 -1.04289 4.21905 128 122 110
0.494162 -1.51681 4.30358 107 100 90
0.494162 -1.51681 4.30358 107 100 90
0.524257 -1.30127 4.30932 108 99 90
0.60971 -0.528296 4.21664 101 94 86
0.637018 -0.531177 4.25553 0 0 0
0.658282 -0.925141 4.3483 0 0 0
0.653847 -1.9393 4.15482 0 0 0
0.714969 -0.401249 4.32035 0 0 0
0.722652 -1.37543 4.36657 0 0 0
0.720888 -0.217257 4.2918 0 0 0
0.890104 -1.72944 4.23305 0 0 0
0.892347 -1.70245 4.22919 0 0 0
0.918601 -1.6751 4.24766 0 0 0
0.920453 -1.71285 4.25192 0 0 0
1.02439 -1.31377 4.31727 0 0 0
1.04748 -1.95019 4.19664 0 0 0
1.04426 -1.94372 4.17334 0 0 0
1.05777 -1.92004 4.20838 0 0 0
1.15552 -1.85684 4.45299 0 0 0
1.14014 -1.71728 4.38886 0 0 0
1.09719 -1.94332 4.20139 0 0 0
1.09719 -1.94332 4.20139 0 0 0
1.19872 -1.69386 4.41764 0 0 0
1.17954 -1.86404 4.31367 0 0 0
1.17423 -1.86921 4.28713 0 0 0
1.22959 -1.71783 4.44134 0 0 0
1.22497 -1.86445 4.34031 0 0 0
1.30401 -0.391512 4.4056 0 0 0
1.46278 -0.390754 4.79851 0 0 0
1.46558 -0.40724 4.78744 0 0 0
1.48194 -0.0716528 4.78034 0 0 0
1.88941 -0.496544 6.05444 0 0 0
1.61388 -0.0705105 5.04583 0 0 0
1.54799 -0.488792 4.8199 0 0 0
1.61728 -0.414615 4.85785 0 0 0
1.69662 0.0021911 5.07481 0 0 0
1.64093 -0.438267 4.88466 0 0 0
1.98045 0.0981358 6.63678 0 0 0
1.66385 -0.398263 4.89305 0 0 0
1.66975 -0.117208 4.89036 0 0 0
1.737 0.1637 5.07598 0 0 0
1.75064 0.331267 5.04967 0 0 0
2.02925 0.920082 6.5007 0 0 0
1.75789 -0.392063 4.98227 0 0 0
1.74895 -0.40454 4.9432 0 0 0
1.88526 -0.311668 5.26298 0 0 0
1.78027 -0.292808 4.95905 0 0 0
1.88639 -0.530034 5.22977 0 0 0
1.79477 -0.502389 4.97598 0 0 0
1.82218 -0.715364 5.04162 0 0 0
1.80734 -0.423037 4.99146 0 0 0
1.81768 -0.344587 5.0017 0 0 0
1.80268 -0.0830428 4.9433 0 0 0
1.82035 -0.223665 4.98567 0 0 0
1.82004 0.477987 4.89288 0 0 0
1.85617 -0.0112752 4.98438 0 0 0
1.8118 0.793652 4.82783 0 0 0
1.86517 0.292781 4.94549 0 0 0
1.88679 -0.0118191 5.00226 0 0 0
1.90037 -0.0734054 5.00859 0 0 0
1.89961 -0.0502882 4.97182 0 0 0
1.90982 0.0971715 4.99028 0 0 0
1.91581 -0.369709 4.99276 0 0 0
1.88467 0.686234 4.90337 0 0 0
1.88141 0.757873 4.88699 0 0 0
1.90427 -0.49507 4.94605 0 0 0
1.8967 0.722163 4.90576 0 0 0
1.93848 -0.359565 5.0045 0 0 0
1.93893 -0.371419 5.00547 0 0 0
1.9037 0.733783 4.90342 0 0 0
1.92955 -0.0850447 4.96574 0 0 0
1.9767 -0.713836 5.08533 0 0 0
1.94276 -0.470808 4.99446 0 0 0
1.9406 -0.238807 4.98407 0 0 0
1.94446 -0.42421 4.99337 0 0 0
1.68421 0.0908789 3.69606 0 0 0
1.92368 0.694553 4.91298 0 0 0
1.93531 0.483344 4.93779 0 0 0
1.95956 -0.289949 4.99895 0 0 0
1.9641 -0.206723 5.00957 0 0 0
1.93722 0.218393 4.94013 0 0 0
1.96617 -0.249404 4.98937 0 0 0
1.94099 0.653634 4.91231 0 0 0
1.96591 0.241745 4.94739 0 0 0
1.98851 0.108734 4.98233 0 0 0
2.00136 -0.0658097 5.00283 0 0 0
1.95017 0.697486 4.86888 0 0 0
2.00082 -0.286588 4.99484 0 0 0
1.98675 0.362785 4.94588 0 0 0
2.03293 -0.302219 5.01852 0 0 0
2.0368 -0.344 5.02055 0 0 0
2.79529 -0.694033 8.11475 0 0 0
1.99978 0.672074 4.91535 0 0 0
2.04661 -0.286547 5.02597 0 0 0
2.01706 0.284357 4.95253 0 0 0
2.80825 -0.683256 8.0568 0 0 0
1.94995 0.873263 4.76607 0 0 0
1.95326 0.972517 4.75098 0 0 0
2.13818 -0.642304 5.17343 0 0 0
2.12896 -0.58992 5.14439 0 0 0
2.09878 -0.0679763 5.04954 0 0 0
2.10522 -0.160772 5.06592 0 0 0
2.09048 0.180757 5.01902 0 0 0
2.14471 -0.426296 5.10857 0 0 0
2.15183 -0.0887365 5.10493 0 0 0
2.15679 -0.00748425 5.10207 0 0 0
2.04995 0.770972 4.84268 0 0 0
2.04995 0.770972 4.84268 0 0 0
2.25619 -0.0723413 5.32247 0 0 0
2.15367 -0.0782729 5.07387 0 0 0
2.17677 -0.455108 5.12404 0 0 0
2.16556 -0.254115 5.07789 0 0 0
1.83264 0.135944 3.66085 0 0 0
2.16828 0.104046 5.08185 0 0 0
2.19588 -0.488537 5.10904 0 0 0
2.19588 -0.488537 5.10904 0 0 0
2.17052 0.497627 5.04721 0 0 0
2.17654 0.33061 5.05645 0 0 0
2.20991 0.376649 5.03939 0 0 0
2.15309 0.772249 4.9058 0 0 0
2.27529 0.830721 4.95006 0 0 0
-1.62477 0.859237 2.49198 128 128 126
-1.6305 0.687684 2.52572 42 37 34
-1.59019 0.739118 2.52377 215 214 209
-1.57947 0.854829 2.5177 151 151 151
-1.62147 0.211537 2.66366 200 199 195
-1.58738 -0.416218 2.44942 213 220 228
-2.02536 -0.689645 4.22104 220 227 235
-1.60639 -0.169365 2.7042 179 180 175
-1.60614 -0.345159 2.71401 220 227 235
-1.41276 0.703355 2.62095 45 47 42
-1.46892 -0.458595 2.78111 217 214 209
-1.40346 -0.36567 2.9249 205 201 192
-1.9919 -0.17149 7.09506 21 23 18
-1.27705 -0.399999 2.91111 212 209 200
-1.26131 -0.432726 2.97485 145 135 126
-1.20841 -0.362144 2.93232 217 214 207
-1.04007 -0.214262 3.10883 209 206 199
-1.36796 -0.398685 4.12581 210 209 204
-0.671428 0.527197 2.83423 10 15 9
-0.668054 0.232968 2.86805 164 164 156
-0.639332 0.869754 2.80269 10 12 9
-0.637352 0.305981 2.87668 189 186 179
-0.577029 -1.7965 3.19148 71 54 46
-0.359576 0.634762 3.02234 30 31 26
-0.287477 -1.61398 3.77384 113 106 96
-0.257519 -1.42981 3.80088 23 24 19
-0.364985 -1.86108 3.32407 109 105 94
-0.366368 -1.85601 3.22989 112 108 96
-0.251674 -1.85957 3.65073 72 62 53
-0.0834805 -1.81782 3.81313 81 80 75
-0.0107116 -1.35532 4.01516 148 142 128
-0.0421314 -1.37331 4.12901 169 163 149
0.00587022 -1.32127 4.11279 138 134 125
0.636274 -1.82488 4.20143 105 101 90
0.618399 -1.91053 4.15627 113 109 100
0.850399 -1.68173 3.88414 110 106 94
1.79524 -0.500448 4.97922 0 0 0
1.9161 0.295404 5.00613 0 0 0
1.97952 -0.474176 5.00055 0 0 0
-3.12234e+09 -4.54778e+08 5.08461e+09 69 66 61
-2.52413e+09 -3.58092e+08 4.15416e+09 26 27 21
-2.53926e+09 -3.79072e+08 4.18597e+09 67 68 62
-2.53926e+09 -3.79072e+08 4.18597e+09 67 68 62
-1.12226e+09 -1.08232e+08 1.90992e+09 21 23 18
35.0199 7.66245 -63.7769 153 153 153
-3.25251e+09 -5.30717e+08 5.99659e+09 96 101 104
-1.44996 0.486488 2.94567 220 221 216
-6.72655 -1.73328 15.0017 207 207 199
-4.4985 -1.83542 13.3243 210 209 204
-0.659097 0.314169 2.98664 227 227 225
-0.644478 0.315738 2.99625 226 227 222
-0.613076 0.316416 3.01725 227 228 223
-0.557361 0.411303 3.0519 220 221 216
-0.557361 0.411303 3.0519 220 221 216
-0.533362 0.353312 3.0676 233 232 227
-0.49038 0.413915 3.09382 152 149 144
-0.464267 0.310351 3.11797 162 163 157
-0.413457 0.404828 3.14145 161 162 154
-0.273776 -1.48321 3.535 61 61 53
-0.283318 -1.58478 3.77599 63 64 56
-0.280307 -1.5499 3.77965 101 101 91
-0.236557 -1.80946 3.70584 102 93 84
-0.183251 -1.78953 3.75142 107 103 94
-0.1527 -1.78181 3.54913 106 101 95
-0.101758 -1.84599 3.79931 122 118 107
-0.0949072 -1.62754 3.90293 18 19 13
-0.0245415 -1.82054 3.85021 113 109 98
0.00134579 -1.85861 3.85818 86 85 80
0.0203446 -1.82188 3.87883 82 81 77
0.0521154 -1.70754 3.70821 44 46 43
0.221177 -1.6395 4.1108 107 106 102
0.243107 -1.89161 3.99217 48 53 49
0.360487 -1.74349 3.9549 91 91 83
0.425765 -1.69589 4.24105 102 95 85
0.474633 -1.50432 4.1546 118 110 99
1.23611 0.306885 4.22132 0 0 0
1.56819 -0.417732 5.02437 0 0 0
1.8421 -0.440615 5.19925 0 0 0
1.9309 -0.699139 5.04264 0 0 0
-4.58308 -0.840929 16.7293 209 206 199
-1.63598 -0.192356 3.27782 208 205 196
-2.95572 -1.21751 10.316 217 214 207
-0.0925748 -1.7941 3.74902 81 80 75
-0.0485318 -1.85657 3.82387 77 76 71
-1.63337 -0.220707 2.62149 72 67 61
-1.63254 -0.389424 2.62775 73 71 59
-1.48773 -0.370265 2.75617 214 216 215
-1.32303 -0.359254 2.94211 184 182 183
-7.69275 -1.53531 11.2639 186 184 185
-0.697514 -1.66379 3.24977 17 23 11
-0.62372 -1.66208 3.27809 38 34 23
-0.47482 -1.49754 3.33415 71 71 63
-0.435988 -1.84395 3.30474 46 42 31
-0.195977 -1.45932 3.49298 87 80 72
-0.286352 -1.58203 3.76796 87 80 72
-0.197196 -1.87462 3.70831 17 19 16
-0.225011 -1.54677 3.81261 66 69 60
-0.165469 -1.87865 3.73324 86 92 82
-0.175717 -1.43498 3.84189 205 206 200
-0.105131 -1.79351 3.80071 72 73 65
-0.104045 -1.83413 3.80105 64 59 55
-0.0892037 -1.55659 3.89822 115 102 94
-0.0880982 -1.55179 3.89449 115 102 94
-0.00298737 -1.88325 3.8347 25 28 21
-0.00298737 -1.88325 3.8347 25 28 21
0.0141881 -1.43644 3.97005 211 210 206
0.0538367 -1.80011 3.90599 162 158 146
0.0849253 -1.2465 3.95836 21 22 17
0.0785627 -1.4769 4.00069 188 182 170
0.103774 -1.88949 3.90688 136 132 123
0.136245 -2.21676 4.1091 79 80 75
0.18444 -1.89299 3.96098 114 111 104
0.18444 -1.89299 3.96098 114 111 104
0.15918 -2.22038 4.10447 79 80 75
0.184385 -1.80252 3.98964 125 126 120
0.183361 -2.21019 4.12765 85 74 70
0.212999 -1.80342 4.00867 111 112 106
0.223053 -1.64931 4.08281 142 142 132
0.237304 -1.80505 4.02397 108 109 103
0.249075 -2.19528 4.17404 122 123 117
0.271113 -1.83106 4.0461 116 117 111
0.271449 -2.19118 4.18777 98 99 93
0.297533 -2.22717 4.19213 88 90 79
0.30467 -1.57172 4.1519 135 130 124
0.31804 -1.80953 4.07868 110 111 105
0.335572 -1.51837 4.16497 115 103 91
0.331082 -2.23242 4.21529 99 99 91
0.338017 -1.58561 4.17368 141 142 136
0.375622 -1.81038 4.11552 125 121 110
0.495326 -1.54266 4.27289 132 124 113
0.854949 -1.95832 4.11392 0 0 0
0.995799 -2.25615 4.42419 0 0 0
1.00111 -2.27588 4.42388 0 0 0
1.00111 -2.27588 4.42388 0 0 0
1.0079 -1.87562 4.23155 0 0 0
1.01417 -2.25532 4.43599 0 0 0
1.07441 -2.27081 4.46703 0 0 0
1.08592 -1.88948 4.2542 0 0 0
1.0986 -2.277 4.47989 0 0 0
1.12986 -1.88854 4.27801 0 0 0
1.15679 -1.74218 4.41859 0 0 0
1.20033 -1.88994 4.32254 0 0 0
1.21329 -1.95409 4.30261 0 0 0
1.21329 -1.95409 4.30261 0 0 0
1.24564 -1.95071 4.35039 0 0 0
1.41309 -0.41278 4.71829 0 0 0
1.45498 -0.398308 4.75241 0 0 0
1.45366 -0.402656 4.76374 0 0 0
1.47403 -0.462084 4.73492 0 0 0
1.58963 -0.469962 4.80098 0 0 0
1.75675 -0.420879 4.94196 0 0 0
1.82217 -0.340633 4.98109 0 0 0
2.02527 -0.3421 4.99221 0 0 0
1.97925 -0.203924 5.22422 0 0 0
2.09998 -0.204319 5.03254 0 0 0
-7.84868 -5.52844 3.05355 130 146 146
-7.90882 -5.69443 3.12632 164 177 186
-7.95859 -5.67605 3.19322 37 38 30
-7.89383 -5.88479 3.19392 164 174 184
-7.91673 -5.85967 3.19754 163 173 183
-7.76061 -5.86578 3.19897 166 174 185
-12.9956 -8.42113 3.79057 165 173 184
-7.87282 -5.84128 3.22036 165 173 184
-7.88485 -6.04636 3.31098 163 171 182
-7.70059 -6.01757 3.30671 162 172 182
-7.69896 -6.03921 3.32064 161 171 181
-2.38876 -0.395405 2.71575 188 185 176
-2.26915 -0.220283 2.72561 197 190 180
-2.3201 -0.581613 2.73263 185 181 170
-7.88955 -5.68908 3.42842 21 26 19
-7.66859 -6.02624 3.39437 165 171 183
-7.66859 -6.02624 3.39437 165 171 183
-2.28193 -0.453788 2.74963 194 187 177
-7.71864 -5.90759 3.44298 36 29 36
-2.24801 -0.418538 2.77035 187 183 172
-7.66411 -5.90183 3.47895 25 24 20
-7.77569 -5.14001 3.5129 92 102 93
-7.83271 -5.66419 3.51564 103 99 98
-7.90377 -5.6644 3.53012 15 24 21
-2.18723 -0.495483 2.77484 171 165 153
-7.80433 -5.67651 3.5286 29 34 27
-7.77692 -5.73296 3.54276 17 18 12
-7.74425 -5.7507 3.54055 17 20 13
-2.38151 -0.704738 2.81667 184 180 169
-7.74513 -5.68947 3.5433 25 31 21
-7.66542 -5.46089 3.58026 27 29 18
-7.92419 -4.99392 3.68249 184 190 202
-7.93685 -1.40932 3.7527 199 186 180
-2.24639 -0.73333 2.86201 199 186 180
-2.21311 -0.752958 2.86702 201 193 182
-7.87186 -4.91342 3.73271 185 191 203
-2.00176 -0.498222 2.84434 209 202 194
-7.83436 -4.85163 3.7529 184 192 203
-7.84437 -4.76486 3.75631 190 196 208
-2.08222 -0.870024 2.96687 201 199 187
-2.42512 -0.248105 4.2552 20 22 19
-2.25645 -0.363932 3.97889 17 19 14
-1.4451 -0.60454 4.12948 211 206 200
-0.0163662 -1.85666 3.77529 112 105 97
0.0271679 -1.30752 4.12085 124 120 109
0.451838 -1.84228 3.99664 96 94 81
0.614304 -2.0672 4.04988 0 0 0
0.609075 -1.33845 3.97694 0 0 0
0.898772 -1.87984 4.37481 0 0 0
0.792061 -1.39043 3.80088 0 0 0
1.12607 0.285115 5.29935 0 0 0
1.12627 0.310354 5.28504 0 0 0
-1.17416 -1.52609 4.35232 55 52 33
-1.15555 -1.51632 4.34931 53 52 47
-1.14993 -1.50309 4.35294 102 100 88
-1.05812 -1.56295 4.34174 40 40 30
-1.05728 -1.52726 4.34702 41 39 26
-1.05728 -1.52726 4.34702 41 39 26
-1.05662 -1.65377 4.34189 75 68 60
-1.0397 -1.52007 4.33478 71 73 70
-1.0068 -1.56959 4.31146 24 26 15
-0.992705 -1.64746 4.31568 43 44 36
-0.987255 -1.7245 4.45857 52 49 44
-0.89311 -1.58496 4.30414 34 36 23
-0.746588 -1.9463 4.20168 20 23 16
-0.645231 -1.48632 4.188 16 18 13
-0.35512 -1.72063 4.11569 53 14 15
0.0538445 -1.97833 4.0881 74 75 69
0.22376 -2.19084 4.10356 58 59 54
0.22376 -2.19084 4.10356 58 59 54
0.528058 -1.58964 3.97539 107 99 86
0.577504 -2.05274 3.97164 105 101 89
0.596148 -1.8284 3.86391 111 102 93
0.60396 -1.84321 3.84649 112 105 95
0.706947 -1.59437 3.79293 113 109 98
0.698994 -1.79051 3.75368 106 99 89
