ply
format ascii 1.0 
element vertex 1038
property float32 x 
property float32 y 
property float32 z
property uchar red  
property uchar green
property uchar blue
element face 0
property list uchar int vertex_indices
end_header
-1.21165 0.828109 2.76011 200 200 190
-1.19881 0.810684 2.77175 105 100 94
-1.19836 0.629809 2.79715 197 198 192
-1.19596 0.5906 2.81359 87 88 74
-1.1775 0.686456 2.79431 180 177 170
-1.17972 0.605647 2.80238 110 106 95
-1.16324 0.770234 2.79708 188 179 172
-1.16408 0.553436 2.85456 140 142 139
-1.1866 -0.374084 2.99589 108 109 104
-1.11558 0.754297 2.81873 129 128 126
-1.16884 -0.522709 2.99029 223 227 239
-1.10468 0.685296 2.82842 114 114 104
-1.09636 0.816482 2.821 99 98 94
-1.12794 0.508801 2.9152 213 209 206
-1.08739 0.808384 2.82564 110 111 105
-1.14883 -0.488828 3.01644 108 113 109
-1.14319 -0.404428 3.01089 120 122 121
-1.12903 -0.641666 2.97497 220 226 238
-1.13039 -0.0601241 2.98239 119 121 107
-1.13039 -0.0601241 2.98239 119 121 107
-1.13616 -0.522713 3.01036 218 228 238
-1.12814 -0.326514 2.98974 17 20 13
-1.09967 0.509373 2.94505 216 216 216
-1.0986 0.408352 2.95271 245 246 241
-1.06127 0.60179 2.85359 50 46 43
-1.06127 0.60179 2.85359 50 46 43
-1.05164 0.816 2.8387 130 129 125
-1.98705 -1.59463 18.4799 58 60 55
-1.04677 0.667306 2.85878 210 210 208
-1.0972 -0.302835 3.01745 33 33 31
-1.09041 -0.339436 2.99014 47 49 44
-1.04697 0.59549 2.88107 30 30 28
-1.85247 -1.88328 18.148 32 32 30
-1.03817 0.600763 2.86368 30 35 28
-1.08105 -0.338689 2.99703 43 43 41
-1.07302 0.040274 3.01368 107 103 92
-1.08882 -0.145776 3.0631 187 190 183
-1.0606 0.334881 2.98965 214 214 206
-1.06892 -0.476831 3.00841 109 113 112
-1.05563 0.500578 2.97427 216 215 211
-1.06808 -0.581302 3.02617 219 225 237
-1.06247 -0.462948 3.03317 112 112 112
-1.0123 0.594027 2.89656 32 39 31
-1.0123 0.594027 2.89656 32 39 31
-1.05101 -0.448469 3.0143 145 147 146
-1.86941 -2.48445 18.5496 145 147 146
-1.05091 -0.284785 3.02274 29 29 27
-1.05091 -0.284785 3.02274 29 29 27
-1.76672 -2.29264 18.3389 132 136 137
-1.04635 -0.411143 3.01429 132 136 137
-1.04888 -0.439841 3.03367 141 143 142
-0.99233 0.59278 2.90763 48 50 47
-1.1224 -0.327422 3.29088 11 12 7
-0.993491 -0.260419 2.93279 9 11 6
-0.993491 -0.260419 2.93279 9 11 6
-1.02261 -0.437303 3.0271 144 145 147
-1.00781 0.334719 3.01452 225 229 214
-1.21095 -0.542719 3.64258 148 150 149
-0.960387 0.808862 2.88301 152 153 155
-0.963174 0.600961 2.8916 213 214 209
-1.01065 -0.292051 3.05407 25 25 25
-1.00254 -0.582337 3.03287 219 225 237
-1.00483 -0.125842 3.04288 210 210 208
-29.7653 -9.03194 90.6988 29 29 27
-1.03906 -0.286927 3.15067 25 27 24
-0.97891 0.505498 2.99107 211 206 202
-0.940309 0.765658 2.89779 164 165 167
-0.983147 -0.357385 3.04995 44 46 43
-0.976364 0.122971 3.03226 220 220 218
-0.924858 0.790452 2.90192 178 180 179
-0.973643 -0.303101 3.05778 34 34 34
-0.971251 -0.278278 3.05679 22 25 18
-0.925762 0.605445 2.90821 113 111 99
-0.923025 0.600123 2.92001 131 131 123
-0.960756 -0.336979 3.0513 44 44 42
-0.957581 -0.190614 3.06898 130 134 133
-0.95125 -0.581463 3.07012 216 224 235
-1.10283 0.0461991 3.55423 157 159 158
-0.948582 -0.50493 3.06112 104 106 105
-0.94652 0.0399153 3.05908 160 162 161
-0.897452 0.595642 2.93292 213 214 209
-0.939249 -0.563768 3.0831 217 223 235
-0.873854 0.598993 2.92962 124 124 122
-0.892532 0.533308 3.00029 204 205 199
-0.89278 0.534029 3.00288 204 205 199
-0.903029 0.435582 3.03752 219 218 214
-0.904081 0.486969 3.04348 162 162 154
-0.904757 0.269217 3.05276 219 220 215
-0.899714 0.397848 3.0415 220 221 216
-0.899246 0.3871 3.0442 224 225 220
-0.904961 -0.137141 3.08602 199 199 199
-0.910884 -0.383607 3.10783 98 106 109
-0.910884 -0.383607 3.10783 98 106 109
-0.911657 -0.511682 3.12028 163 163 163
-0.858462 0.644707 2.94314 213 208 204
-0.856156 0.589948 2.95736 211 212 206
-0.824926 0.596781 2.95966 210 211 205
-0.852209 -0.341983 3.22027 48 47 43
-0.834321 0.329919 3.16148 205 204 202
-0.832694 0.328462 3.16201 208 207 205
-0.832808 -0.514314 3.24399 206 207 202
-0.822488 -0.502938 3.24765 204 205 200
-0.704474 -0.508618 3.28886 206 203 196
-0.692323 -0.538763 3.29008 131 123 112
-0.690787 -0.501951 3.28228 209 208 204
-0.577198 -0.511853 3.33967 210 207 200
-0.536234 -0.529991 3.34958 211 211 203
-0.52718 -0.249047 3.32882 20 22 17
-0.509479 -0.528667 3.35906 208 209 203
-0.492026 -0.51191 3.37063 200 197 190
-0.492026 -0.51191 3.37063 200 197 190
-0.490153 -0.543321 3.36306 209 208 203
-0.482575 -0.570721 3.3471 205 202 195
-0.484427 -0.505086 3.41096 204 201 196
-0.454669 -0.330459 3.40338 28 30 27
-0.392986 -0.745651 3.44762 208 209 204
-0.382439 -0.172863 3.38399 165 165 165
-0.380983 -0.530323 3.41465 209 208 204
-0.371266 0.303202 3.34799 221 222 224
-0.369616 0.488844 3.34152 27 27 19
-0.374308 -0.797901 3.4343 207 204 197
-0.369283 -0.346849 3.40622 58 60 59
-0.397527 -1.73281 3.67408 13 16 7
-0.363082 -0.15572 3.39804 185 185 185
-0.348582 -0.57025 3.39974 211 210 205
-0.344512 -0.355302 3.41536 40 42 39
-0.343534 -0.49859 3.43377 199 201 198
-0.338154 -0.577856 3.40266 212 211 206
-0.334089 -0.348881 3.43398 34 34 34
-0.332593 -0.364609 3.42168 40 42 39
-0.330662 -0.513057 3.43978 207 208 203
-0.328064 -0.472074 3.4352 149 151 148
-0.32621 -0.530084 3.4298 211 210 206
-0.321042 -0.304648 3.41313 22 24 19
-0.312589 -0.194167 3.40939 147 147 147
-0.308956 -0.511863 3.44465 207 208 203
-0.309688 -0.702339 3.46897 212 213 208
-0.302151 -0.70759 3.45466 214 213 208
-0.295825 -0.19587 3.4239 145 145 145
-0.295825 -0.19587 3.4239 145 145 145
-0.295553 -0.570327 3.42366 212 211 207
-0.289548 0.453997 3.36711 18 19 11
-0.289787 -0.657188 3.44598 207 212 208
-0.284182 -0.669745 3.44595 219 218 213
-0.281574 -0.182751 3.42105 153 153 153
-0.283878 -1.449 3.46609 123 124 119
-0.284162 -1.44151 3.48114 91 90 86
-0.276599 -0.610749 3.42191 202 199 194
-0.271864 0.474872 3.37983 13 18 12
-0.266434 -1.4656 3.47849 20 20 18
-0.119564 -1.54872 3.26201 1 13 9
-0.270142 0.140263 7.38693 174 176 171
-0.119801 0.0631269 3.30172 174 176 171
-0.116419 -1.52633 3.28064 63 78 75
-0.111669 -1.53251 3.27358 152 140 140
-0.0920037 0.202391 3.0781 99 102 93
-0.0866584 0.386673 3.06191 11 16 9
-0.0897953 0.476744 3.02248 38 38 26
-0.0803831 0.574961 3.04134 37 37 25
-0.0774614 0.543886 3.05008 38 38 26
-0.0758054 0.734211 3.02869 13 16 7
-0.0750881 0.767622 3.02495 17 20 13
-0.0699128 0.764253 3.02867 14 17 10
-0.0618048 0.556642 3.02892 31 32 18
-0.046062 0.0506226 3.17924 178 177 172
-0.0303345 0.169546 3.10785 226 228 225
-0.0303345 0.169546 3.10785 226 228 225
-0.0216968 0.568026 3.07357 37 38 24
-0.00043003 0.677162 3.06935 50 50 38
-0.00469921 0.675074 3.04413 50 50 38
0.0098784 0.104144 3.09908 188 190 187
0.021818 0.194781 3.12881 231 232 227
0.0679724 0.484276 3.1261 19 22 13
0.0679724 0.484276 3.1261 19 22 13
0.0884689 0.257053 3.15392 220 221 216
0.0947933 -1.40283 3.36304 17 17 7
0.102541 -1.7001 3.42468 21 22 16
0.107753 -1.41105 3.353 59 58 53
0.124541 0.174598 3.14852 227 228 222
0.142112 -1.64262 3.42682 58 60 49
0.141183 0.245847 3.18345 219 220 215
0.141176 0.775708 3.12092 13 16 9
0.154813 -1.38953 3.35061 164 160 149
0.160599 -1.6703 3.43777 52 48 37
0.142436 0.178851 3.15512 209 208 203
0.171188 0.255425 3.19306 220 219 214
0.171188 0.255425 3.19306 220 219 214
0.219102 -1.74026 3.48208 44 46 35
0.216943 0.278556 3.22235 192 196 199
0.228065 0.045364 3.28604 162 159 150
0.228065 0.045364 3.28604 162 159 150
0.247187 -1.6851 3.48393 50 46 37
0.2302 0.595368 3.18468 18 19 13
0.2302 0.595368 3.18468 18 19 13
0.263243 -1.73146 3.49802 62 55 45
0.264309 -1.6435 3.48648 41 35 23
0.251035 0.256894 3.23433 152 153 147
0.275624 -1.68581 3.4993 70 66 54
0.276024 -1.62191 3.48964 63 57 43
0.314575 0.363186 3.25432 128 129 131
0.316614 0.27109 3.26201 171 172 167
0.32325 0.444187 3.24732 109 117 120
0.318984 0.275021 3.239 160 161 156
0.347997 -1.53596 3.49187 25 26 20
0.341898 0.24499 3.27757 156 157 151
0.341898 0.24499 3.27757 156 157 151
0.347915 0.237052 3.2751 42 35 29
0.418573 -1.81131 3.76568 72 49 41
0.480642 -1.85465 3.7389 126 131 135
0.481548 -1.85682 3.74228 126 131 135
0.564442 -1.85466 3.84259 88 88 80
0.581382 -1.63429 3.95789 26 23 14
0.579789 -1.63006 3.947 26 23 14
0.581911 -1.6557 3.95473 68 66 54
0.583357 -1.59325 3.94499 105 103 91
0.584698 -1.59648 3.95449 105 103 91
0.589012 -1.64172 3.9579 101 101 91
0.590934 -1.57751 3.95345 70 67 60
0.598842 -1.55657 3.95391 63 66 59
0.600371 -1.6344 3.96453 53 52 47
0.628894 -1.61046 3.97438 77 74 67
0.644239 -1.65915 3.9919 71 73 62
0.646733 -1.67589 3.99148 67 66 61
0.648334 -1.64325 3.98651 62 65 56
0.648076 -1.62987 3.98501 75 74 69
0.63046 -1.85685 3.87394 100 96 85
0.659576 -1.70128 3.99688 66 66 56
0.662317 -1.55527 3.98223 73 69 60
0.662684 -1.55534 3.98354 73 69 60
0.665859 -1.88617 3.88208 104 100 91
0.733556 -1.88593 3.91227 120 116 107
0.731348 -1.92888 3.87318 118 111 101
0.77979 -1.53363 4.0316 25 24 20
0.767405 -1.91138 3.92376 114 110 101
0.791982 -1.72529 4.04785 56 55 50
0.766036 -1.93539 3.89987 118 109 100
0.766036 -1.93539 3.89987 118 109 100
0.836931 -1.40883 4.07715 169 162 152
0.901796 -1.42969 4.08558 161 157 146
0.900635 -1.87529 3.98731 82 81 77
0.925579 -1.31588 4.07292 112 108 99
0.937267 -1.69766 4.12306 139 135 124
0.937267 -1.69766 4.12306 139 135 124
0.923157 -1.37239 4.05929 130 127 118
0.910897 -1.85195 3.9944 79 75 72
0.928187 -1.37844 4.05735 124 120 111
0.924927 -1.90607 3.98261 69 70 65
0.91349 -1.95592 3.92866 76 77 72
0.954711 -1.66751 4.10543 149 142 134
0.959827 -1.67779 4.12707 149 142 134
0.960701 -1.69847 4.12966 129 125 116
0.960701 -1.69847 4.12966 129 125 116
0.945522 -1.39785 4.05905 104 94 84
0.964546 -1.63354 4.12734 134 130 121
0.9597 -1.61319 4.10466 134 135 127
0.983671 -1.67973 4.11923 123 114 105
0.961661 -1.8524 4.01938 69 55 52
0.992354 -1.66247 4.14222 141 132 123
0.97508 -1.34099 4.05982 140 141 135
0.954356 -1.95656 3.94821 69 70 65
1.00235 -1.5768 4.13597 94 96 91
1.00428 -1.74137 4.12945 99 99 91
1.00374 -1.58338 4.11842 112 113 108
1.01267 -1.63688 4.14936 95 98 91
1.01267 -1.63688 4.14936 95 98 91
0.98546 -1.85297 4.02905 100 87 81
0.996844 -1.85066 4.03544 148 141 131
0.988398 -1.92723 3.98891 70 71 66
0.988791 -1.92808 3.98996 70 71 66
1.02578 -1.85111 4.04719 125 126 118
1.05388 -1.67956 4.15469 112 112 104
1.04913 -1.40905 4.10539 108 111 104
1.05143 -1.35434 4.10834 126 125 120
1.05044 -1.43215 4.09193 113 115 110
1.05393 -1.44227 4.08896 99 101 96
1.04853 -1.85105 4.05588 103 102 97
1.07316 -1.44819 4.09414 122 123 117
1.08463 -1.85328 4.07633 108 107 102
1.13855 -1.40421 4.19369 99 98 93
1.13866 -1.40517 4.19391 99 98 93
1.14508 -1.72521 4.20235 109 111 106
1.10999 -1.90444 4.06955 93 82 76
1.15261 -1.71087 4.2156 107 106 102
1.1373 -1.92554 4.05752 48 53 49
1.17613 -1.39012 4.17859 118 117 112
1.15758 -1.84498 4.09931 108 108 100
1.15739 -1.90689 4.09471 100 100 92
1.17508 -1.86746 4.10305 108 109 104
1.2162 -1.72935 4.24242 128 129 123
1.23036 -1.60613 4.21472 106 107 101
1.24342 -1.6675 4.24687 97 98 92
1.25473 -1.65963 4.25853 114 117 108
1.24278 -1.62898 4.22192 135 135 125
1.26541 -1.59545 4.25279 102 101 97
1.23798 -1.84329 4.13479 85 85 75
1.28603 -1.5125 4.27105 105 106 100
1.28453 -1.59523 4.25778 112 113 107
1.28787 -1.61083 4.26495 105 106 100
1.28183 -1.48371 4.23714 113 114 106
1.28902 -1.53944 4.25883 123 124 118
1.29875 -1.57974 4.26482 137 138 132
1.30697 -1.68983 4.27451 100 101 95
1.32296 -1.54106 4.27213 104 103 98
1.31877 -1.45127 4.25046 104 106 101
1.33095 -1.62153 4.27895 119 120 114
1.30977 -1.92617 4.13793 108 108 100
1.33613 -1.87308 4.18967 101 101 93
1.33613 -1.87308 4.18967 101 101 93
1.34139 -1.84106 4.1763 80 77 68
1.34888 -1.84433 4.18908 93 93 81
1.37629 -1.84406 4.19952 107 97 85
1.41069 -1.08385 4.27403 123 117 105
1.38997 -1.86202 4.20613 111 103 90
1.42201 -1.67745 4.298 114 107 97
1.43799 -1.67378 4.33923 115 107 96
1.4327 -1.64877 4.32657 124 115 106
1.44251 -1.61487 4.33927 118 110 99
1.40539 -1.83384 4.22946 110 101 92
1.49029 -0.601222 4.4698 131 122 113
1.40915 -1.85042 4.22163 101 97 85
1.45821 -1.69761 4.35264 105 98 88
1.4497 -1.64872 4.32993 97 87 78
1.49846 -0.616571 4.4698 128 120 109
1.48331 -2.27038 4.41245 86 83 74
1.47506 -1.39411 4.32574 117 111 99
1.50479 -2.27802 4.40914 94 92 80
1.44322 -1.84546 4.22823 108 102 90
1.48056 -1.5254 4.33513 115 109 97
1.48608 -1.53106 4.3475 115 109 97
1.48608 -1.53106 4.3475 115 109 97
1.52675 -1.37914 4.34756 124 116 105
1.53176 0.557503 4.35593 99 99 91
1.57301 -2.27057 4.45479 78 78 68
1.57301 -2.27057 4.45479 78 78 68
1.46736 -1.9529 4.128 104 100 88
1.56437 -1.44387 4.37143 111 104 94
1.54329 -0.578794 4.28193 100 96 87
1.58853 -1.66057 4.39717 117 113 101
1.53648 -0.630794 4.25212 85 86 81
1.5076 -1.90224 4.17321 100 98 86
1.51453 -1.84402 4.19189 111 107 96
1.58309 -1.7627 4.35195 0 0 0
1.6013 -1.07091 4.35343 0 0 0
1.656 -2.27018 4.48415 0 0 0
1.60838 -1.47487 4.33312 0 0 0
1.59505 -1.47939 4.28771 0 0 0
1.61888 -1.00782 4.33888 0 0 0
1.67093 -2.27635 4.47761 0 0 0
1.61055 -1.55627 4.31174 0 0 0
1.61615 -0.834381 4.31731 0 0 0
1.61775 -1.4424 4.32088 0 0 0
1.69392 -2.27067 4.49982 0 0 0
1.69392 -2.27067 4.49982 0 0 0
1.6358 -0.855104 4.3112 0 0 0
1.63388 -0.636437 4.28468 0 0 0
1.64359 -0.703097 4.29829 0 0 0
1.65858 -1.42547 4.33516 0 0 0
1.60439 0.54438 4.18748 0 0 0
1.66355 -1.44188 4.33709 0 0 0
1.71334 -2.267 4.45669 0 0 0
1.61125 0.535083 4.18953 0 0 0
1.67289 -1.4282 4.34101 0 0 0
1.64982 -0.0569602 4.27751 0 0 0
1.64791 -0.151774 4.26625 0 0 0
1.65957 -0.212024 4.28623 0 0 0
1.68485 -1.39659 4.34041 0 0 0
1.64832 -1.64295 4.24403 0 0 0
1.6569 0.011272 4.2545 0 0 0
1.65616 0.217286 4.2397 0 0 0
1.68885 -1.40618 4.31232 0 0 0
1.65965 0.324615 4.23511 0 0 0
1.59669 -1.94841 4.06687 0 0 0
1.60376 -1.937 4.07494 0 0 0
1.66571 0.448716 4.22987 0 0 0
1.66825 0.428433 4.23301 0 0 0
1.64756 -1.84141 4.1498 0 0 0
1.69486 -1.7714 4.24842 0 0 0
1.75619 -1.34206 4.25402 0 0 0
1.69154 -1.84257 4.03642 0 0 0
1.72927 -1.78415 4.10646 0 0 0
1.76168 -1.73662 4.17894 0 0 0
1.69938 -1.86074 4.02707 0 0 0
1.76147 -1.6861 4.17582 0 0 0
1.68499 -1.91421 3.99021 0 0 0
1.76083 -1.74564 4.14577 0 0 0
1.72463 -1.83715 4.04592 0 0 0
1.75118 -1.42889 4.09009 0 0 0
1.75604 0.741279 4.06548 0 0 0
1.80642 -1.37873 4.14845 0 0 0
1.86242 -1.75995 4.22944 0 0 0
1.95039 -2.24693 4.35654 0 0 0
1.78541 0.0873236 3.93603 0 0 0
1.79023 0.132446 3.93108 0 0 0
1.79684 0.12365 3.92761 0 0 0
1.89011 -1.90442 4.13327 0 0 0
1.83246 0.146369 3.9891 0 0 0
1.95414 -1.71875 4.26421 0 0 0
1.80158 0.517794 3.90175 0 0 0
2.03182 -2.2558 4.38775 0 0 0
1.92497 -1.83716 4.13991 0 0 0
1.80315 0.72496 3.8769 0 0 0
1.81307 0.501192 3.89552 0 0 0
1.84842 0.736648 3.93345 0 0 0
1.82452 0.555839 3.89056 0 0 0
2.07908 -2.2493 4.4273 0 0 0
2.01927 -1.71265 4.28664 0 0 0
1.97982 -1.84429 4.17833 0 0 0
2.00253 -1.8402 4.16491 0 0 0
1.91167 0.218653 3.97387 0 0 0
1.91167 0.218653 3.97387 0 0 0
1.9612 0.0325762 4.06728 0 0 0
2.00261 -1.90838 4.13297 0 0 0
2.00261 -1.90838 4.13297 0 0 0
2.0336 -1.88818 4.17591 0 0 0
2.10725 -1.34331 4.31221 0 0 0
1.78783 -1.72763 3.65382 0 0 0
2.08831 -1.29196 4.26523 0 0 0
2.0511 -1.97036 4.17068 0 0 0
2.04923 -1.94074 4.12504 0 0 0
2.01464 0.715809 3.96033 0 0 0
2.1083 0.222849 4.12729 0 0 0
2.19354 0.212347 4.10785 0 0 0
2.56465 -0.302615 4.68579 0 0 0
2.28063 0.505574 4.10461 0 0 0
2.27954 0.708713 4.07912 0 0 0
2.66526 -0.516781 4.74781 0 0 0
2.74251 -0.491615 4.77476 0 0 0
2.74253 -0.90545 4.78078 0 0 0
2.74059 -0.0697567 4.76178 0 0 0
2.74059 -0.0697567 4.76178 0 0 0
2.7517 -0.35742 4.77183 0 0 0
2.7517 -0.35742 4.77183 0 0 0
2.78797 -0.807298 4.82504 0 0 0
2.73954 -0.790086 4.7461 0 0 0
2.78805 -0.699591 4.78805 0 0 0
2.75107 -0.656381 4.72531 0 0 0
2.78811 -0.32349 4.77636 0 0 0
2.76067 -0.398114 4.73089 0 0 0
2.77012 -0.231635 4.7362 0 0 0
2.78266 -0.35257 4.7549 0 0 0
2.80306 -0.442672 4.75347 0 0 0
2.81375 -0.556005 4.76549 0 0 0
2.80192 -0.405945 4.73847 0 0 0
2.81101 -0.461325 4.71728 0 0 0
2.81205 -0.561026 4.71747 0 0 0
2.81712 -0.410741 4.70167 0 0 0
2.82481 -0.35339 4.71463 0 0 0
2.90764 -0.820252 4.8426 0 0 0
2.84456 0.207931 4.73402 0 0 0
2.84698 -0.317659 4.73757 0 0 0
2.82017 0.414047 4.69272 0 0 0
2.84268 -0.53501 4.7294 0 0 0
2.87093 -0.384121 4.76964 0 0 0
2.83293 -0.202848 4.70634 0 0 0
2.82358 0.43951 4.68713 0 0 0
2.85221 0.40642 4.72734 0 0 0
2.84133 -0.0287704 4.7076 0 0 0
2.84532 -0.415997 4.71386 0 0 0
2.83297 0.0277745 4.69178 0 0 0
2.84675 -0.0942328 4.71078 0 0 0
2.83657 0.0524672 4.68759 0 0 0
2.85985 -0.341199 4.72542 0 0 0
2.84114 0.310207 4.69273 0 0 0
2.85363 -0.108113 4.7116 0 0 0
2.8876 -0.314696 4.74949 0 0 0
2.87769 -0.403003 4.73262 0 0 0
2.87769 -0.403003 4.73262 0 0 0
2.89312 -0.573827 4.75185 0 0 0
2.86572 -0.564589 4.71047 0 0 0
2.8093 0.708146 4.60472 0 0 0
2.87281 -0.387442 4.70803 0 0 0
2.87281 -0.387442 4.70803 0 0 0
2.86879 0.403243 4.69256 0 0 0
2.88862 -0.513155 4.72334 0 0 0
2.88213 -0.513762 4.71158 0 0 0
2.89668 -0.314219 4.73494 0 0 0
2.86398 0.371263 4.67006 0 0 0
2.83869 0.442615 4.62803 0 0 0
2.82932 0.454919 4.60538 0 0 0
2.83587 0.486339 4.61564 0 0 0
2.63565 0.440036 4.28316 0 0 0
2.8234 0.472905 4.58507 0 0 0
2.87001 0.343386 4.66073 0 0 0
2.92091 -0.0941999 4.74242 0 0 0
2.92048 -0.314088 4.7438 0 0 0
2.82958 0.699069 4.57774 0 0 0
2.9456 -0.313991 4.75119 0 0 0
2.82244 0.664101 4.54751 0 0 0
2.86763 0.430607 4.61501 0 0 0
3.02856 -0.715161 4.87538 0 0 0
2.83986 0.684651 4.54844 0 0 0
2.97765 -0.373843 4.75604 0 0 0
2.98896 -0.595715 4.76904 0 0 0
3.01562 0.148838 4.78368 0 0 0
3.00638 -0.38118 4.76278 0 0 0
2.99649 0.30894 4.7385 0 0 0
3.03165 -0.570459 4.7865 0 0 0
3.08107 -0.657558 4.8559 0 0 0
3.04027 -0.0804013 4.7707 0 0 0
3.09065 -0.604567 4.83354 0 0 0
3.07653 0.0539493 4.7985 0 0 0
3.05127 0.0928748 4.76261 0 0 0
3.05188 0.306752 4.75525 0 0 0
3.05899 0.223992 4.75054 0 0 0
3.07946 0.694083 4.65616 0 0 0
3.17118 0.490004 4.71328 0 0 0
3.64279 0.463334 5.18338 0 0 0
3.65701 0.464154 5.17429 0 0 0
3.65571 0.69706 5.13334 0 0 0
4.95614 -3.51571 6.95832 0 0 0
3.65126 0.650805 5.12488 0 0 0
3.65126 0.650805 5.12488 0 0 0
4.99529 -3.43716 6.97382 0 0 0
5.01156 -3.50224 6.98635 0 0 0
4.99327 -3.50071 6.94092 0 0 0
5.0701 -3.08364 6.98151 0 0 0
5.028 -3.49421 6.91347 0 0 0
4.97955 -3.51875 6.80351 0 0 0
4.97955 -3.51875 6.80351 0 0 0
5.12028 -3.46626 6.96616 0 0 0
5.04638 -2.90548 6.72706 0 0 0
5.04638 -2.90548 6.72706 0 0 0
5.06371 -2.68563 6.69763 0 0 0
5.05219 -2.50549 6.67686 0 0 0
5.07075 -2.91315 6.69316 0 0 0
5.06132 -2.60191 6.6632 0 0 0
5.06132 -2.60191 6.6632 0 0 0
5.15655 -2.7615 6.7483 0 0 0
5.13349 -2.84012 6.67071 0 0 0
4.35725 0.492258 5.60569 0 0 0
5.14496 -2.0363 6.5908 0 0 0
5.14245 -2.03241 6.57086 0 0 0
-1.20946 0.805555 2.78455 100 93 83
-1.25316 0.828592 3.01122 188 179 172
-1.21728 -0.571953 3.04566 220 226 238
-1.20711 -0.376061 3.04155 88 86 74
-1.10809 0.634519 2.83245 130 130 128
-1.10809 0.634519 2.83245 130 130 128
-1.1914 -0.311283 3.05512 108 112 115
-1.10363 0.567298 2.85913 200 195 192
-1.08998 0.815485 2.8255 118 119 113
-1.08724 0.806837 2.82503 110 111 105
-1.09543 0.570047 2.86354 205 204 199
-1.15014 -0.119127 3.03586 125 122 115
-1.15353 -0.650234 3.05025 220 226 238
-1.21016 -0.623055 3.2093 222 226 238
-1.1445 -0.112192 3.0369 122 122 112
-1.12976 0.0960789 3.0144 212 212 210
-1.10568 0.408002 2.97197 245 246 241
-1.11541 -0.39933 3.03831 118 120 119
-1.09646 0.307092 2.98979 220 216 213
-1.11481 -0.272226 3.04682 87 87 85
-1.08712 0.314496 2.99148 216 213 208
-1.08712 0.314496 2.99148 216 213 208
-1.19784 -0.326027 3.32819 24 24 22
-1.07418 0.261941 3.00319 225 216 211
-1.22544 -0.347126 3.4805 30 32 29
-1.0766 -0.125291 3.0601 157 152 148
-1.07586 -0.466539 3.05978 112 112 112
-1.06901 -0.359991 3.04141 44 45 39
-1.06247 -0.193668 3.06849 120 124 127
-1.05524 -0.587659 3.06434 218 224 236
-0.980125 0.810219 2.85812 145 143 146
-1.04782 -0.397358 3.06367 122 126 127
-1.09662 -0.800407 3.2079 215 221 233
-1.04283 -0.192798 3.07416 127 133 133
-1.02931 -0.233428 3.08375 12 17 11
-0.957746 0.598127 2.88063 213 214 209
-1.02432 -0.19445 3.08135 131 133 132
-1.01549 -0.281092 3.07922 25 27 24
-0.985573 0.506015 2.99171 108 105 96
-0.944164 0.585772 2.90847 128 119 112
-1.00804 -0.212855 3.16112 130 131 135
-0.985169 -0.330036 3.09649 44 46 45
-9.833e+06 -2.81202e+06 3.06166e+07 33 34 29
-0.961552 -0.0305635 3.07242 15 18 11
-0.912822 0.586562 2.91724 178 173 170
-0.96624 -0.163436 3.10162 176 176 176
-0.971998 0.0394518 3.11754 157 159 158
-0.948533 0.0395408 3.06341 160 162 161
-0.92059 0.503252 3.01869 210 209 205
-0.931962 0.122704 3.06047 221 221 219
-0.883727 0.649053 2.90402 215 214 209
-1.00552 0.677259 3.31282 223 224 219
-0.939862 -0.0995657 3.13788 221 221 219
-0.895698 0.516355 3.01132 214 213 208
-0.842927 -0.517992 3.26862 206 207 202
-0.899249 -0.561575 3.62231 207 208 203
-0.811838 -0.546114 3.27306 205 204 199
-0.933948 -0.222555 3.79364 142 146 147
-0.740293 -0.516458 3.29724 202 198 189
-0.72253 -0.551433 3.29443 197 190 180
-0.722497 -0.514609 3.30897 201 201 193
-0.778434 -0.611377 3.65382 119 119 111
-0.685501 -0.551082 3.30278 155 157 156
-0.660207 -0.505194 3.32391 118 112 100
-0.643989 -0.57384 3.29742 212 211 207
-0.656112 -0.579706 3.78787 210 207 200
-0.546599 -0.571734 3.32819 210 207 200
-0.535197 -0.505089 3.36452 209 209 199
-0.589447 -0.610949 3.76971 207 204 197
-0.525375 -0.545796 3.35893 207 204 197
-0.404811 -0.148561 3.37926 194 194 194
-0.396511 -0.142607 3.38133 200 200 198
-0.388447 -0.104354 3.36142 218 218 216
-0.387448 -0.498385 3.42079 152 151 149
-0.523366 -0.23149 4.77267 178 178 178
-0.371289 -0.164503 3.38783 178 178 178
-0.358307 -0.0838985 3.38176 226 226 224
-0.347825 -0.335577 3.42335 27 29 24
-0.403729 -0.468996 4.23418 40 42 37
-0.322853 -0.734557 3.45631 210 209 205
-0.313578 -0.569594 3.40714 211 210 206
-0.443578 -0.276473 4.85934 147 147 147
-0.312803 -0.675989 3.44238 213 212 208
-0.305579 -0.570038 3.41053 213 209 206
-0.298782 -0.585129 3.41165 208 207 203
-0.222917 -0.567294 3.40481 212 211 207
0.264748 -1.77355 3.55172 30 23 15
0.36339 -1.75901 3.81116 27 27 19
0.443383 -1.7144 3.91097 26 25 21
0.443309 -1.70777 3.89436 26 25 21
0.447563 -1.53634 3.89009 63 62 57
0.435651 -1.81224 3.78263 231 223 220
0.451943 -1.71783 3.91068 20 24 23
0.442486 -1.85567 3.72101 35 31 30
0.475734 -1.65445 3.92701 145 140 134
0.474569 -1.62737 3.91464 66 58 55
0.475414 -1.67338 3.91556 87 82 78
0.49415 -1.68679 3.9305 56 59 52
0.472171 -1.87897 3.73186 109 115 115
0.472171 -1.87897 3.73186 109 115 115
0.497699 -1.57669 3.91904 81 78 71
0.531059 -1.60587 3.93983 56 63 56
0.565882 -1.6907 3.96286 27 29 26
0.551489 -1.85602 3.84024 90 91 83
0.572536 -1.56982 3.94843 68 68 58
0.573532 -1.61105 3.95466 74 74 64
0.589429 -1.66556 3.96456 87 82 76
0.594509 -1.68838 3.95209 87 84 77
0.577954 -1.86076 3.84553 93 90 83
0.598954 -1.57583 3.96444 62 65 58
0.612431 -1.65889 3.97734 56 56 54
0.512282 -1.28445 3.3298 68 69 63
0.627814 -1.57965 3.97469 58 51 45
0.629351 -1.61686 3.98039 73 70 65
0.633999 -1.69747 3.99093 72 68 57
0.638527 -1.62887 3.96926 73 72 68
0.652317 -1.57817 3.98532 71 72 66
0.652931 -1.59845 3.98822 70 73 64
0.642182 -1.25888 3.91907 203 202 197
0.658553 -1.67756 3.9994 64 65 57
0.651099 -1.88946 3.8814 99 97 85
0.671775 -1.66193 3.99989 91 86 80
0.719889 -1.8784 3.91079 120 113 103
0.719889 -1.8784 3.91079 120 113 103
0.727008 -1.89406 3.91376 122 115 107
0.731864 -1.92989 3.87595 118 111 101
0.747485 -1.8525 3.92526 120 111 102
0.796078 -1.69776 4.05822 19 19 11
0.78064 -1.85535 3.93967 120 116 107
0.80722 -1.85425 3.95295 114 110 99
0.837099 -1.4109 4.0819 169 162 152
0.817768 -1.90923 3.9428 115 111 102
0.696486 -1.14419 3.26633 165 158 148
0.865277 -1.86215 3.97051 103 98 94
0.87784 -1.85163 3.98277 81 82 76
0.909591 -1.60524 4.1 160 153 143
0.905129 -1.33672 4.06854 145 137 126
0.905129 -1.33672 4.06854 145 137 126
0.916447 -1.61069 4.10018 159 150 141
0.936987 -1.56898 4.10431 154 149 143
0.920912 -1.44142 4.02702 146 141 135
0.946741 -1.64025 4.11612 148 148 140
0.946741 -1.64025 4.11612 148 148 140
0.943464 -1.39269 4.04162 104 94 84
0.959504 -1.85078 4.01491 47 39 36
0.961053 -1.92975 3.9826 75 77 72
0.961053 -1.92975 3.9826 75 77 72
0.988378 -1.29658 4.08307 140 143 136
1.00281 -1.65392 4.11965 126 122 113
1.00563 -1.6629 4.1398 126 122 113
0.992564 -1.34505 4.08011 114 115 107
1.00619 -1.63115 4.11981 103 104 98
0.99017 -1.85773 4.02431 28 30 25
1.01482 -1.52011 4.12007 114 115 109
1.02689 -1.60457 4.14702 119 116 109
1.02689 -1.60457 4.14702 119 116 109
1.03843 -1.31423 4.10742 122 121 116
1.03843 -1.31423 4.10742 122 121 116
1.02126 -1.92884 4.00783 64 65 60
1.02126 -1.92884 4.00783 64 65 60
1.04634 -1.84858 4.05095 120 119 114
1.0466 -1.92499 4.01324 58 60 57
1.0466 -1.92499 4.01324 58 60 57
1.0845 -1.87295 4.07289 148 149 141
1.0845 -1.87295 4.07289 148 149 141
1.12641 -1.70395 4.19423 107 108 102
1.12641 -1.70395 4.19423 107 108 102
1.12364 -1.63992 4.17623 113 115 110
1.12873 -1.84881 4.0887 102 103 95
1.13113 -1.86725 4.08278 87 88 80
1.17783 -1.38844 4.17511 118 117 112
1.17783 -1.84507 4.10406 96 97 91
1.18199 -1.92322 4.07544 45 49 48
1.24399 -1.54637 4.23445 102 103 97
1.26098 -1.62731 4.22335 124 121 112
1.26609 -1.63905 4.24942 124 121 112
1.26855 -1.67984 4.25235 113 114 108
1.27472 -1.68051 4.25827 121 122 116
1.30091 -1.56352 4.25594 110 107 100
1.30739 -1.69651 4.26978 105 108 101
1.30793 -1.58226 4.26359 113 115 110
1.30882 -1.55724 4.26296 132 129 122
1.31124 -1.64105 4.24665 129 130 124
1.41052 -1.3409 4.32711 115 105 95
1.41749 -1.63964 4.31354 119 109 99
1.45099 0.102307 4.41589 133 109 85
1.41773 -1.27684 4.28375 128 122 110
1.42693 -1.62374 4.31081 118 109 100
1.4361 -1.63005 4.32049 119 111 100
1.4145 -1.1315 4.24142 128 122 110
1.43713 -1.56618 4.31541 107 100 90
1.43713 -1.56618 4.31541 107 100 90
1.46849 -1.36959 4.32321 108 99 90
1.53905 -0.660437 4.25069 101 94 86
1.57146 -0.663243 4.28134 0 0 0
1.60326 -1.02311 4.34856 0 0 0
1.55087 -1.93734 4.14065 0 0 0
1.65669 -0.544239 4.33161 0 0 0
1.65921 -1.42628 4.33819 0 0 0
1.65922 -0.374973 4.31078 0 0 0
1.78187 -1.73416 4.18133 0 0 0
1.78372 -1.71022 4.17887 0 0 0
1.81085 -1.68413 4.19195 0 0 0
1.81264 -1.71745 4.19399 0 0 0
1.92206 -1.35629 4.24702 0 0 0
1.91618 -1.92976 4.12678 0 0 0
1.90669 -1.91591 4.09951 0 0 0
1.92483 -1.89333 4.12865 0 0 0
2.05085 -1.82582 4.32416 0 0 0
2.02986 -1.70623 4.27779 0 0 0
1.9583 -1.91151 4.11603 0 0 0
1.9583 -1.91151 4.11603 0 0 0
2.08622 -1.68199 4.29435 0 0 0
2.05499 -1.84397 4.21564 0 0 0
2.04121 -1.83955 4.18065 0 0 0
2.11641 -1.70077 4.30879 0 0 0
2.09928 -1.84098 4.2319 0 0 0
2.19966 -0.527122 4.31399 0 0 0
2.39712 -0.532024 4.62287 0 0 0
2.39753 -0.546204 4.61245 0 0 0
2.41731 -0.250671 4.61685 0 0 0
2.46745 -0.54242 4.69316 0 0 0
2.56758 -0.256398 4.81561 0 0 0
2.47084 -0.616637 4.62295 0 0 0
2.55033 -0.556791 4.67846 0 0 0
2.64266 -0.193493 4.82846 0 0 0
2.55968 -0.572079 4.66331 0 0 0
2.65908 -0.152294 4.83263 0 0 0
2.58356 -0.534242 4.67421 0 0 0
2.59195 -0.292309 4.67639 0 0 0
2.68018 -0.0529705 4.82912 0 0 0
2.69191 0.0940503 4.8123 0 0 0
2.70109 0.407318 4.79421 0 0 0
2.67214 -0.531941 4.7262 0 0 0
2.6627 -0.54198 4.70142 0 0 0
2.38294 -0.39551 4.17588 0 0 0
2.68983 -0.445325 4.70728 0 0 0
2.39289 -0.556891 4.17592 0 0 0
2.69927 -0.626209 4.71016 0 0 0
2.72569 -0.809142 4.75031 0 0 0
2.71382 -0.558002 4.7244 0 0 0
2.72553 -0.49044 4.7341 0 0 0
2.71166 -0.263008 4.70005 0 0 0
2.72852 -0.385706 4.72565 0 0 0
2.73267 0.228606 4.67854 0 0 0
2.7633 -0.201604 4.7277 0 0 0
2.72472 0.510238 4.63929 0 0 0
2.77306 0.0640834 4.70707 0 0 0
2.791 -0.202441 4.73718 0 0 0
2.80156 -0.25577 4.73754 0 0 0
2.79914 -0.234943 4.71349 0 0 0
2.81121 -0.107607 4.7282 0 0 0
2.80517 -0.510422 4.71026 0 0 0
2.79354 0.410383 4.68574 0 0 0
2.79045 0.47434 4.67581 0 0 0
2.78667 -0.617447 4.66935 0 0 0
2.80486 0.44169 4.68736 0 0 0
2.82554 -0.501584 4.71635 0 0 0
2.82574 -0.511766 4.71658 0 0 0
2.81073 0.451925 4.68485 0 0 0
2.82005 -0.264432 4.69783 0 0 0
2.85815 -0.804375 4.76018 0 0 0
2.82511 -0.596706 4.70312 0 0 0
2.82773 -0.397362 4.7046 0 0 0
2.8319 -0.558122 4.70968 0 0 0
2.82534 -0.106642 4.69557 0 0 0
2.82775 0.416659 4.68794 0 0 0
2.83538 0.230344 4.69764 0 0 0
2.84403 -0.441438 4.71159 0 0 0
2.85118 -0.370116 4.72283 0 0 0
2.83068 -0.00065701 4.68835 0 0 0
2.84927 -0.406305 4.70444 0 0 0
2.84115 0.38054 4.68305 0 0 0
2.85602 0.0193245 4.69067 0 0 0
2.87582 -0.0971825 4.70999 0 0 0
2.88457 -0.248379 4.7173 0 0 0
2.84449 0.421082 4.64806 0 0 0
2.87797 -0.43801 4.70268 0 0 0
2.87623 0.124535 4.69127 0 0 0
2.9065 -0.451421 4.7152 0 0 0
2.90886 -0.487157 4.7145 0 0 0
2.90886 -0.487157 4.7145 0 0 0
2.89123 0.395773 4.67739 0 0 0
2.91899 -0.437985 4.71959 0 0 0
2.90026 0.0560022 4.68879 0 0 0
2.92953 -0.487888 4.72387 0 0 0
2.83586 0.581632 4.57131 0 0 0
2.83934 0.670402 4.56259 0 0 0
3.00141 -0.740868 4.80639 0 0 0
2.99244 -0.696654 4.78822 0 0 0
2.97032 -0.250901 4.73954 0 0 0
2.97444 -0.334277 4.74286 0 0 0
2.96632 -0.0361505 4.72671 0 0 0
3.00533 -0.557263 4.76432 0 0 0
3.01962 -0.2698 4.77445 0 0 0
3.02552 -0.200272 4.77488 0 0 0
2.9269 0.485506 4.61506 0 0 0
2.9269 0.485506 4.61506 0 0 0
2.7606 -0.230208 4.34863 0 0 0
3.02797 -0.258788 4.76955 0 0 0
3.03236 -0.581414 4.77033 0 0 0
3.03662 -0.407827 4.76994 0 0 0
3.03859 -0.0525798 4.76919 0 0 0
3.0355 -0.104135 4.7617 0 0 0
3.04517 -0.609129 4.75403 0 0 0
3.04517 -0.609129 4.75403 0 0 0
3.04391 0.235954 4.75035 0 0 0
3.04538 0.0914193 4.74968 0 0 0
3.07215 0.131607 4.73327 0 0 0
3.02054 0.481661 4.65116 0 0 0
3.1284 0.528297 4.67145 0 0 0
-1.16286 0.77071 2.79756 128 128 126
-1.16019 0.592811 2.83583 42 37 34
-1.11439 0.645244 2.8287 215 214 209
-1.10493 0.764578 2.82254 151 151 151
-1.11503 0.0958411 2.99237 200 199 195
-1.12797 -0.592623 3.04952 213 220 228
-1.12502 -0.583029 3.00796 220 227 235
-1.08322 -0.297852 3.02889 179 180 175
-1.07807 -0.47804 3.03571 220 227 235
-0.889686 0.600849 2.92018 45 47 42
-0.905279 -0.593673 3.09099 217 214 209
-0.802229 -0.505566 3.25504 205 201 192
-0.790298 -0.188905 3.22654 21 23 18
-0.662093 -0.536573 3.21539 212 209 200
-0.630508 -0.572376 3.28687 145 135 126
-0.576395 -0.512287 3.34005 217 214 207
-0.358067 -0.354566 3.41001 209 206 199
-0.32698 -0.377572 3.42368 210 209 204
-0.0242633 0.392071 3.05901 10 15 9
-0.0124642 0.101905 3.0884 164 164 156
0.00201153 0.744528 3.02709 10 12 9
0.021875 0.173175 3.09573 189 186 179
0.154121 -1.87948 3.37879 71 54 46
0.345617 0.492907 3.22603 30 31 26
0.5766 -1.70207 3.94587 113 106 96
0.614798 -1.53415 3.98659 23 24 19
0.395533 -1.93388 3.48482 109 105 94
0.381872 -1.92094 3.38643 112 108 96
0.586993 -1.93155 3.81303 72 62 53
0.785296 -1.87813 3.94018 81 80 75
0.549807 -1.17297 3.31698 148 142 128
0.868425 -1.42778 4.0748 169 163 149
0.912492 -1.37993 4.06285 138 134 125
1.54643 -1.8422 4.20344 105 101 90
1.52038 -1.91972 4.16043 113 109 100
1.72791 -1.78775 4.10234 110 106 94
2.70489 -0.627102 4.72673 0 0 0
2.82277 0.0658999 4.74678 0 0 0
2.86142 -0.601006 4.71009 0 0 0
114.384 37.0974 -301.729 69 66 61
116.104 37.3633 -310.914 26 27 21
126.556 42.1249 -340.189 67 68 62
126.556 42.1249 -340.189 67 68 62
174.866 47.6927 -494.254 21 23 18
26.36 12.5946 -83.6831 153 153 153
2.89719e+08 1.1289e+08 -9.26424e+08 96 101 104
-0.875009 0.364467 3.36766 220 221 216
-3.68338 -2.43915 16.9743 207 207 199
-1.512 -2.24439 13.8762 210 209 204
0.0172716 0.177417 3.21891 227 227 225
0.0349094 0.178492 3.22637 226 227 222
0.0727749 0.177719 3.24274 227 228 223
0.139013 0.26969 3.27021 220 221 216
0.139013 0.26969 3.27021 220 221 216
0.167569 0.211414 3.28143 233 232 227
0.218113 0.269816 3.30513 152 149 144
0.250571 0.166067 3.3211 162 163 157
0.308205 0.258212 3.34335 161 162 154
0.490002 -1.43215 3.37256 61 61 53
0.582783 -1.67523 3.9516 63 64 56
0.586448 -1.63922 3.94907 101 101 91
0.612438 -1.88284 3.86543 102 93 84
0.674975 -1.85827 3.89744 107 103 94
0.610667 -1.70867 3.41414 106 101 95
0.765328 -1.907 3.93175 122 118 107
0.79583 -1.70282 4.03905 18 19 13
0.851316 -1.87668 3.96656 113 109 98
0.878015 -1.911 3.96964 86 85 80
0.900855 -1.87498 3.98708 82 81 77
0.808028 -1.59221 3.44288 44 46 43
1.14263 -1.69312 4.18072 107 106 102
1.13696 -1.92454 4.05654 48 53 49
1.10144 -1.57866 3.55435 91 91 83
1.36014 -1.73225 4.26629 102 95 85
1.18426 -1.32534 3.5625 118 110 99
2.09389 0.118601 4.13099 0 0 0
2.52556 -0.555289 4.80519 0 0 0
2.3399 -0.487337 4.12715 0 0 0
2.83205 -0.794957 4.76183 0 0 0
-1.63702 -1.58442 18.5381 209 206 199
-1.00227 -0.356052 3.82363 208 205 196
-1.14642 -2.36819 17.511 217 214 207
0.761932 -1.85614 3.88082 81 80 75
0.819775 -1.91246 3.94567 77 76 71
-1.20342 -0.367052 3.03811 72 67 61
-1.1989 -0.5454 3.04214 73 71 59
-0.985001 -0.524179 3.15378 214 216 215
-0.738809 -0.513477 3.32409 184 182 183
-0.723894 -0.517793 3.33164 186 184 185
0.0447615 -1.77428 3.47094 17 23 11
0.124233 -1.77162 3.49997 38 34 23
0.293024 -1.59964 3.52812 71 71 63
0.325264 -1.92855 3.4832 46 42 31
0.583371 -1.65371 3.90066 87 80 72
0.578911 -1.67207 3.94371 87 80 72
0.653392 -1.9406 3.85709 17 19 16
0.651164 -1.63065 3.9698 66 69 60
0.69084 -1.93952 3.87194 86 92 82
0.705904 -1.52572 3.99656 205 206 200
0.7644 -1.85724 3.9333 72 73 65
0.765256 -1.89529 3.93295 64 59 55
0.802445 -1.63001 4.02922 115 102 94
0.802445 -1.63001 4.02922 115 102 94
0.870642 -1.93322 3.94461 25 28 21
0.870642 -1.93322 3.94461 25 28 21
0.918666 -1.51587 4.08473 211 210 206
0.940803 -1.85107 4.0066 162 158 146
0.985766 -1.33414 4.05949 21 22 17
0.986684 -1.54981 4.10118 188 182 170
0.988513 -1.93101 3.99532 136 132 123
1.05918 -2.22292 4.17881 79 80 75
1.07658 -1.92836 4.03304 114 111 104
1.07658 -1.92836 4.03304 114 111 104
1.07919 -2.23307 4.17976 79 80 75
1.08259 -1.84493 4.06559 125 126 120
1.10689 -2.22152 4.19788 85 74 70
1.11352 -1.84399 4.07931 111 112 106
1.13123 -1.53704 3.73611 142 142 132
1.13957 -1.84383 4.0898 108 109 103
1.17835 -2.20214 4.2303 122 123 117
1.17626 -1.86524 4.10144 116 117 111
1.20216 -2.19649 4.23924 98 99 93
1.22716 -2.22741 4.23771 88 90 79
1.23058 -1.62353 4.20542 135 130 124
1.22702 -1.84232 4.1246 110 111 105
1.26256 -1.57353 4.21361 115 103 91
1.26304 -2.22943 4.25365 99 99 91
1.26617 -1.63494 4.2195 141 142 136
1.28815 -1.83939 4.14953 125 121 110
1.43215 -1.5879 4.28405 132 124 113
1.72478 -1.94615 4.05411 0 0 0
1.90628 -2.20798 4.32632 0 0 0
1.91074 -2.22526 4.32499 0 0 0
1.91074 -2.22526 4.32499 0 0 0
1.88399 -1.86469 4.1431 0 0 0
1.92472 -2.2064 4.33421 0 0 0
1.98338 -2.21726 4.35294 0 0 0
1.95918 -1.87637 4.17693 0 0 0
2.00694 -2.22166 4.3608 0 0 0
2.00233 -1.87276 4.19198 0 0 0
2.05059 -1.73843 4.29975 0 0 0
2.07244 -1.86973 4.22303 0 0 0
2.07984 -1.92665 4.20204 0 0 0
2.07984 -1.92665 4.20204 0 0 0
2.11464 -1.92484 4.21615 0 0 0
2.34037 -0.550296 4.56575 0 0 0
2.38219 -0.537286 4.58879 0 0 0
2.38219 -0.537286 4.58879 0 0 0
2.39481 -0.593026 4.57024 0 0 0
2.50451 -0.599331 4.60814 0 0 0
2.66904 -0.555575 4.69824 0 0 0
2.72978 -0.487494 4.71883 0 0 0
2.90413 -0.480806 4.71542 0 0 0
2.96045 -0.342421 4.7393 0 0 0
2.97461 -0.358108 4.74275 0 0 0
-11.2562 -7.84463 4.73392 130 146 146
-11.2698 -8.04895 4.82492 164 177 186
-11.49 -8.11851 4.9627 37 38 30
-11.1763 -8.27617 4.89135 164 174 184
-11.214 -8.2478 4.90405 163 173 183
-11.0461 -8.26932 4.88584 166 174 185
-11.194 -8.24444 4.93785 165 173 184
-11.1847 -8.2393 4.93665 165 173 184
-11.1591 -8.50893 5.04628 163 171 182
-10.939 -8.47246 5.01488 162 172 182
-10.9371 -8.50407 5.03329 161 171 181
-6.85091 -1.02643 4.29214 188 185 176
-6.79812 -0.738773 4.33376 197 190 180
-6.6038 -1.31582 4.2613 185 181 170
-11.3373 -8.13051 5.28305 21 26 19
-10.9397 -8.51965 5.14578 165 171 183
-10.9397 -8.51965 5.14578 165 171 183
-6.6137 -1.11148 4.31276 194 187 177
-11.0698 -8.40217 5.24886 36 29 36
-6.60237 -1.05777 4.35737 187 183 172
-11.0239 -8.41146 5.29861 25 24 20
-11.523 -7.55002 5.50663 92 102 93
-11.3177 -8.13517 5.41614 103 99 98
-11.4118 -8.14072 5.44987 15 24 21
-6.38886 -1.16672 4.31923 171 165 153
-11.2943 -8.16035 5.43269 29 34 27
-11.2403 -8.2294 5.44053 17 18 12
-11.1826 -8.24411 5.42694 17 20 13
-6.47108 -1.49439 4.36302 184 180 169
-11.22 -8.17975 5.44416 25 31 21
-11.2459 -7.93461 5.53343 27 29 18
-11.7566 -7.39117 5.80698 184 190 202
-6.29161 -1.54293 4.42287 199 186 180
-6.28228 -1.54149 4.4211 199 186 180
-6.21936 -1.57027 4.41921 201 193 182
-11.7183 -7.29754 5.88759 185 191 203
-6.02608 -1.15559 4.39313 209 202 194
-11.7023 -7.22797 5.92488 184 192 203
-11.7539 -7.12487 5.94798 190 196 208
-5.85919 -1.73424 4.52392 201 199 187
