ply
format ascii 1.0 
element vertex 1319
property float32 x 
property float32 y 
property float32 z
property uchar red  
property uchar green
property uchar blue
element face 0
property list uchar int vertex_indices
end_header
-1.6438 0.0461943 1.11125 119 121 107
-1.66462 -0.274385 1.12742 218 228 238
-1.65251 -0.138347 1.1193 17 20 13
-1.61186 0.437294 1.09762 216 216 216
-1.61398 0.368037 1.09985 245 246 241
-1.5809 0.504959 1.07765 50 46 43
-1.5809 0.504959 1.07765 50 46 43
-1.57043 0.653589 1.0732 130 129 125
-6.04025 -0.667865 7.69583 58 60 55
-1.57381 0.552154 1.07991 210 210 208
-1.63935 -0.119614 1.1255 33 33 31
-5.89789 -0.950946 7.50575 47 49 44
-1.57946 0.502037 1.08727 30 30 28
-5.9299 -0.897734 7.5863 32 32 30
-1.5742 0.506093 1.08484 30 35 28
-1.63747 -0.147665 1.13068 43 43 41
-1.62344 0.117409 1.12625 107 103 92
-1.63763 -0.00797751 1.13683 187 190 183
-1.60912 0.320332 1.11927 214 214 206
-1.63926 -0.245098 1.13912 109 113 112
-1.59942 0.433455 1.11191 216 215 211
-1.7213 -0.329574 1.19647 219 225 237
-1.63301 -0.231367 1.13805 112 112 112
-1.56948 0.503777 1.09821 32 39 31
-1.56948 0.503777 1.09821 32 39 31
-1.63286 -0.225364 1.1436 145 147 146
-5.81592 -1.34038 7.521 145 147 146
-1.62898 -0.109294 1.14224 29 29 27
-1.69389 -0.116185 1.19001 29 29 27
-6.062 -1.27055 7.91702 132 136 137
-1.63002 -0.199042 1.1437 132 136 137
-1.62771 -0.215676 1.14056 141 143 142
-1.5641 0.504457 1.10521 48 50 47
-2.24467 -0.167267 1.58646 11 12 7
-1.59346 -0.0964204 1.12929 9 11 6
-5.93954 -0.708373 7.94664 9 11 6
-1.62427 -0.217811 1.15242 144 145 147
-1.59473 0.323232 1.13676 225 229 214
-6.17334 -1.52978 8.11043 148 150 149
-1.54196 0.658063 1.10025 152 153 155
-1.55135 0.512412 1.10713 213 214 209
-6.43379 -0.83455 8.5762 25 25 25
-1.62244 -0.322223 1.16127 219 225 237
-1.61084 0.0027173 1.15341 210 210 208
-1.09422e+09 -7.68276e+07 7.7954e+08 29 29 27
-6.2921 -0.776537 8.33395 25 27 24
-1.57475 0.44273 1.13158 211 206 202
-1.53824 0.629923 1.10917 164 165 167
-1.60504 -0.159032 1.15734 44 46 43
-1.59166 0.177289 1.15118 220 220 218
-1.53245 0.648738 1.11284 178 180 179
-1.60724 -0.122282 1.16755 34 34 34
-1.60549 -0.104726 1.16726 22 25 18
-1.54004 0.518607 1.11908 113 111 99
-1.55079 0.519129 1.13157 131 131 123
-1.60255 -0.146989 1.16924 44 44 42
-1.59987 -0.0422696 1.17142 130 134 133
-1.6783 -0.333396 1.22955 216 224 235
-2.13809 0.161585 1.56885 157 159 158
-3.196 -0.768885 3.72021 104 106 105
-1.58608 0.120699 1.16434 160 162 161
-1.53305 0.514736 1.13102 213 214 209
-1.59878 -0.305464 1.17749 217 223 235
-1.52425 0.518415 1.13559 124 124 122
-1.54599 0.46968 1.15369 204 205 199
-1.54455 0.469682 1.15191 204 205 199
-1.57161 0.401616 1.17409 219 218 214
-1.56878 0.43596 1.17221 162 162 154
-1.56481 0.282764 1.16844 219 220 215
-1.5574 0.373173 1.1637 220 221 216
-1.55798 0.365654 1.16475 224 225 220
-1.58187 -0.00391232 1.18584 199 199 199
-1.59473 -0.179138 1.19572 98 106 109
-1.59473 -0.179138 1.19572 98 106 109
-1.60083 -0.270555 1.20171 163 163 163
-1.51873 0.552794 1.14085 213 208 204
-1.52296 0.513261 1.14761 211 212 206
-1.51013 0.521823 1.15342 210 211 205
-1.58858 -0.144532 1.23491 48 47 43
-1.55526 0.328262 1.21094 205 204 202
-1.55479 0.32734 1.21147 208 207 205
-1.58898 -0.267102 1.24754 206 207 202
-1.58558 -0.259234 1.25073 204 205 200
-1.58555 -0.270787 1.31766 206 203 196
-1.54509 -0.289184 1.29284 131 123 112
-1.54501 -0.264433 1.29424 209 208 204
-1.50304 -0.270471 1.32801 210 207 200
-1.52574 -0.293727 1.37453 211 211 203
-1.48282 -0.0798232 1.34128 20 22 17
-1.48825 -0.288894 1.36013 208 209 203
-1.48163 -0.275137 1.36531 200 197 190
-1.48163 -0.275137 1.36531 200 197 190
-1.48148 -0.300789 1.36647 209 208 203
-1.47579 -0.323066 1.36457 205 202 195
-1.50001 -0.269592 1.39189 204 201 196
-1.47007 -0.139238 1.3822 28 30 27
-1.4611 -0.45478 1.41684 208 209 204
-1.4325 -0.021674 1.39252 165 165 165
-1.46276 -0.296952 1.42364 209 208 204
-1.40951 0.337684 1.37486 221 222 224
-1.40294 0.476397 1.36887 27 27 19
-1.45354 -0.499752 1.4224 207 204 197
-1.43578 -0.153002 1.40664 58 60 59
-1.5339 -1.19558 1.50283 13 16 7
-1.42887 -0.00738919 1.40455 185 185 185
-1.42993 -0.327389 1.4144 211 210 205
-1.42742 -0.159797 1.41617 40 42 39
-1.44441 -0.272869 1.43403 199 201 198
-1.42621 -0.333764 1.41822 212 211 206
-1.42635 -0.155074 1.42338 34 34 34
-1.42339 -0.167792 1.42064 40 42 39
-1.43956 -0.285447 1.44256 207 208 203
-1.42654 -0.249367 1.42777 149 151 148
-1.42499 -0.294456 1.42661 211 210 206
-1.41588 -0.121504 1.42109 22 24 19
-1.41005 -0.0366586 1.42157 147 147 147
-1.43031 -0.285383 1.44883 207 208 203
-1.44873 -0.434071 1.46912 212 213 208
-1.44309 -0.440014 1.46795 214 213 208
-1.40446 -0.0383293 1.42783 145 145 145
-1.40446 -0.0383293 1.42783 145 145 145
-1.41199 -0.329164 1.43563 212 211 207
-1.37533 0.457465 1.39896 18 19 11
-1.41622 -0.396084 1.44549 207 212 208
-1.41398 -0.406363 1.44725 219 218 213
-1.39743 -0.0283557 1.4308 153 153 153
-1.48314 -1.05474 1.52283 123 124 119
-1.44037 -1.01922 1.47707 91 90 86
-1.41619 -0.367836 1.45708 202 199 194
-1.36981 0.474544 1.4067 13 18 12
-1.47663 -1.06921 1.53024 20 20 18
-1.31695 -1.17847 1.46578 1 13 9
1.67101 -0.212009 -1.85828 174 176 171
-1.29031 0.165161 1.43572 174 176 171
-1.3187 -1.15694 1.47095 63 78 75
-1.31504 -1.16432 1.47067 152 140 140
-1.21663 0.278373 1.37052 99 102 93
-1.20711 0.430209 1.36412 11 16 9
-1.18828 0.496602 1.32396 38 38 26
-1.19585 0.585465 1.35642 37 37 25
-1.19707 0.560115 1.36046 38 38 26
-1.18788 0.716431 1.35111 13 16 7
-1.18602 0.743897 1.34955 17 20 13
-1.18459 0.741921 1.35254 14 17 10
-1.17424 0.564125 1.33227 31 32 18
-1.19668 0.148664 1.38489 178 177 172
-1.19276 0.25473 1.39725 226 228 225
-1.19276 0.25473 1.39725 226 228 225
-1.1739 0.585843 1.38296 37 38 24
-1.15995 0.678736 1.38567 50 50 38
-1.14647 0.667129 1.35048 50 50 38
-1.16161 0.198177 1.38041 188 190 187
-1.17045 0.27878 1.41822 231 232 227
-1.14136 0.525138 1.42645 19 22 13
-1.14136 0.525138 1.42645 19 22 13
-1.14566 0.339411 1.45451 220 221 216
-1.22452 -1.08214 1.55247 17 17 7
-1.24612 -1.33889 1.58622 21 22 16
-1.21497 -1.09364 1.55356 59 58 53
-1.11198 0.263008 1.42705 227 228 222
-1.22296 -1.29729 1.5964 58 60 49
-1.12014 0.329588 1.47002 219 220 215
-1.09617 0.780216 1.44178 13 16 9
-1.21397 -1.12065 1.61148 164 160 149
-1.21667 -1.32518 1.60686 52 48 37
-1.1037 0.267465 1.43428 209 208 203
-1.10614 0.339924 1.48221 220 219 214
-1.10614 0.339924 1.48221 220 219 214
-1.19867 -1.39671 1.64268 44 46 35
-1.08872 0.363088 1.50567 192 196 199
-1.10391 0.162938 1.53391 162 159 150
-1.10391 0.162938 1.53391 162 159 150
-1.18139 -1.35367 1.64969 50 46 37
-1.06669 0.637666 1.49278 18 19 13
-1.06669 0.637666 1.49278 18 19 13
-1.17788 -1.39812 1.66174 62 55 45
-1.17106 -1.3197 1.65421 41 35 23
-1.073 0.34696 1.52059 152 153 147
-1.1696 -1.35933 1.66397 70 66 54
-1.16454 -1.30249 1.65802 63 57 43
-1.04133 0.444856 1.54651 128 129 131
-1.04326 0.364348 1.55085 171 172 167
-1.03325 0.516664 1.54571 109 117 120
-1.02656 0.36185 1.51424 160 161 156
-1.12099 -1.24142 1.67913 25 26 20
-1.03343 0.343347 1.56479 156 157 151
-0.956375 0.31155 1.4428 156 157 151
-1.02905 0.336796 1.56584 42 35 29
-1.16647 -1.46499 1.79888 72 49 41
-1.12399 -1.53172 1.81691 126 131 135
-1.11386 -1.50549 1.78818 126 131 135
-1.10012 -1.5217 1.86254 88 88 80
-1.1282 -1.31641 1.91852 26 23 14
-1.13207 -1.32455 1.92736 26 23 14
-1.12591 -1.33304 1.91412 68 66 54
-1.13499 -1.30186 1.93753 105 103 91
-1.12454 -1.28293 1.91772 105 103 91
-1.12349 -1.32487 1.921 101 101 91
-1.11918 -1.26377 1.91537 70 67 60
-1.11576 -1.25032 1.92283 63 66 59
-1.11933 -1.321 1.92876 53 52 47
-1.10395 -1.30128 1.93856 77 74 67
-1.10284 -1.35313 1.95787 71 73 62
-1.10107 -1.36895 1.9583 67 66 61
-1.09685 -1.33543 1.95172 62 65 56
-1.09614 -1.32285 1.95028 75 74 69
-1.07563 -1.55398 1.91678 100 96 85
-1.09556 -1.39563 1.96612 66 66 56
-1.0858 -1.25788 1.95343 73 69 60
-1.08803 -1.26314 1.961 73 69 60
-1.05711 -1.59275 1.93529 104 100 91
-1.02451 -1.60965 1.97316 120 116 107
-1.01385 -1.66008 1.9621 118 111 101
-1.03029 -1.26237 2.02029 25 24 20
-1.00289 -1.62962 1.975 114 110 101
-1.03204 -1.45212 2.04301 56 55 50
-0.994224 -1.65437 1.96287 118 109 100
-0.994224 -1.65437 1.96287 118 109 100
-1.01316 -1.16329 2.07657 169 162 152
-0.970492 -1.18831 2.09241 161 157 146
-0.938463 -1.63932 2.06312 82 81 77
-0.904872 -1.044 2.01072 112 108 99
-0.96273 -1.45273 2.12737 139 135 124
-0.96273 -1.45273 2.12737 139 135 124
-0.946825 -1.14278 2.0927 130 127 118
-0.933963 -1.61336 2.06594 79 75 72
-0.904686 -1.10249 2.00061 124 120 111
-0.922335 -1.68352 2.07942 69 70 65
-0.912656 -1.74376 2.06164 76 77 72
-0.950202 -1.45081 2.15076 149 142 134
-0.948751 -1.43935 2.13807 149 142 134
-0.949264 -1.45944 2.1398 129 125 116
-0.949264 -1.45944 2.1398 129 125 116
-0.891457 -1.13249 2.02482 104 94 84
-0.945378 -1.39749 2.13957 134 130 121
-0.948245 -1.40544 2.15721 134 135 127
-0.929893 -1.46404 2.16359 123 114 105
-0.910842 -1.63622 2.10932 69 55 52
-0.932434 -1.43237 2.1589 141 132 123
-0.916808 -1.13635 2.13529 140 141 135
-0.891489 -1.75614 2.08715 69 70 65
-0.926799 -1.36524 2.17885 94 96 91
-0.925069 -1.53903 2.1842 99 99 91
-0.921069 -1.38294 2.17919 112 113 108
-0.921154 -1.4125 2.17084 95 98 91
-0.921154 -1.4125 2.17084 95 98 91
-0.896408 -1.63671 2.11507 100 87 81
-0.890953 -1.63776 2.12315 148 141 131
-0.880958 -1.71726 2.10127 70 71 66
-0.879282 -1.71935 2.10241 70 71 66
-0.875371 -1.64726 2.14191 125 126 118
-0.862057 -1.4227 2.12698 112 112 104
-0.878633 -1.20568 2.17028 108 111 104
-0.880882 -1.16073 2.18763 126 125 120
-0.87289 -1.23137 2.16699 113 115 110
-0.870902 -1.24873 2.177 99 101 96
-0.863794 -1.65992 2.16357 103 102 97
-0.857663 -1.25318 2.17854 122 123 117
-0.845866 -1.67181 2.18867 108 107 102
-0.8551 -1.2296 2.27699 99 98 93
-0.850196 -1.21467 2.25007 99 98 93
-0.849654 -1.5369 2.25863 109 111 106
-0.822866 -1.72327 2.18554 93 82 76
-0.849452 -1.52285 2.26753 107 106 102
-0.797035 -1.75736 2.19231 48 53 49
-0.816022 -1.22414 2.28237 118 117 112
-0.799934 -1.6793 2.22355 108 108 100
-0.796446 -1.74045 2.21661 100 100 92
-0.788126 -1.70538 2.23152 108 109 104
-0.818657 -1.58022 2.3392 128 129 123
-0.792969 -1.46056 2.32625 106 107 101
-0.799834 -1.52522 2.35523 97 98 92
-0.791765 -1.49907 2.33712 114 117 108
-0.788498 -1.48694 2.33619 135 135 125
-0.731726 -1.36527 2.2146 102 101 97
-0.754254 -1.69843 2.27529 85 85 75
-0.773387 -1.35658 2.35894 105 106 100
-0.773621 -1.46402 2.38422 112 113 107
-0.774414 -1.48135 2.3906 105 106 100
-0.766644 -1.34838 2.37191 113 114 106
-0.765959 -1.38691 2.35524 123 124 118
-0.765999 -1.45254 2.39654 137 138 132
-0.763805 -1.56936 2.4051 100 101 95
-0.75006 -1.41888 2.41281 104 103 98
-0.740066 -1.30732 2.36977 104 106 101
-0.747167 -1.50597 2.4212 119 120 114
-0.701686 -1.82859 2.33172 108 108 100
-0.690896 -1.73722 2.31949 101 101 93
-0.690896 -1.73722 2.31949 101 101 93
-0.689395 -1.72806 2.34444 80 77 68
-0.692465 -1.7479 2.3726 93 93 81
-0.675306 -1.75802 2.3935 107 97 85
-0.679319 -0.946995 2.43766 123 117 105
-0.633992 -1.68606 2.26755 111 103 90
-0.681236 -1.58477 2.46313 114 107 97
-0.684642 -1.5687 2.4754 115 107 96
-0.687749 -1.56841 2.50608 124 115 106
-0.681003 -1.50756 2.47778 118 110 99
-0.657464 -1.7335 2.39926 110 101 92
-0.704585 -0.435421 2.58372 131 122 113
-0.657363 -1.7709 2.41645 101 97 85
-0.626219 -1.48277 2.30112 105 98 88
-0.675422 -1.57427 2.51777 97 87 78
-0.698054 -0.452579 2.589 128 120 109
-0.652802 -2.10587 2.41249 86 83 74
-0.587888 -1.1902 2.29178 117 111 99
-0.66242 -2.24068 2.55268 94 92 80
-0.633435 -1.78414 2.44578 108 102 90
-0.652632 -1.45196 2.54089 115 109 97
-0.649633 -1.43322 2.50897 115 109 97
-0.649633 -1.43322 2.50897 115 109 97
-0.620182 -1.30756 2.57913 124 116 105
-0.618611 0.792816 2.5491 99 99 91
-0.626041 -2.25874 2.61289 78 78 68
-0.626041 -2.25874 2.61289 78 78 68
-0.567788 -1.93342 2.41955 104 100 88
-0.53501 -1.2553 2.34967 111 104 94
-0.576477 -0.431197 2.54001 100 96 87
-0.586315 -1.60409 2.59343 117 113 101
-0.568081 -0.489025 2.52008 85 86 81
-0.538257 -1.83079 2.39572 100 98 86
-0.555665 -1.80907 2.45778 111 107 96
-0.52654 -1.5904 2.35971 0 0 0
-0.557552 -0.971684 2.59666 0 0 0
-0.536906 -2.1462 2.50296 0 0 0
-0.541434 -1.43676 2.61172 0 0 0
-0.484674 -1.33325 2.37658 0 0 0
-0.535617 -0.908205 2.60314 0 0 0
-0.521866 -2.16279 2.50988 0 0 0
-0.485558 -1.42491 2.41267 0 0 0
-0.45969 -0.64078 2.29206 0 0 0
-0.527412 -1.40408 2.61001 0 0 0
-0.542615 -2.31782 2.71125 0 0 0
-0.542615 -2.31782 2.71125 0 0 0
-0.442421 -0.665216 2.30214 0 0 0
-0.498523 -0.505703 2.60214 0 0 0
-0.419225 -0.495944 2.18633 0 0 0
-0.49762 -1.39767 2.64389 0 0 0
-0.364597 0.613719 1.91403 0 0 0
-0.494331 -1.41834 2.64919 0 0 0
-0.504949 -2.33805 2.70917 0 0 0
-0.475016 0.792795 2.54355 0 0 0
-0.487696 -1.40571 2.65746 0 0 0
-0.483315 0.141472 2.62535 0 0 0
-0.383852 0.0209529 2.07184 0 0 0
-0.478301 -0.0323761 2.63491 0 0 0
-0.426521 -1.21921 2.34593 0 0 0
-0.462857 -1.63944 2.57217 0 0 0
-0.465711 0.217903 2.61925 0 0 0
-0.459455 0.449172 2.61117 0 0 0
-0.458441 -1.37563 2.62889 0 0 0
-0.453938 0.569618 2.60845 0 0 0
-0.421472 -1.9441 2.40391 0 0 0
-0.409238 -1.9132 2.36153 0 0 0
-0.445665 0.708968 2.60596 0 0 0
-0.444996 0.687127 2.61107 0 0 0
-0.397091 -1.78264 2.38686 0 0 0
-0.394139 -1.67984 2.41259 0 0 0
-0.329272 -1.1955 2.35166 0 0 0
-0.31698 -1.85475 2.42019 0 0 0
-0.316207 -1.86619 2.56404 0 0 0
-0.321612 -1.80878 2.61471 0 0 0
-0.304674 -1.87539 2.41475 0 0 0
-0.320297 -1.74946 2.61226 0 0 0
-0.299085 -1.92097 2.37454 0 0 0
-0.306696 -1.78627 2.54761 0 0 0
-0.28972 -1.94115 2.53712 0 0 0
-0.286508 -1.45438 2.55769 0 0 0
-0.276448 1.06923 2.58916 0 0 0
-0.261969 -1.40812 2.62492 0 0 0
-0.252219 -1.76026 2.55554 0 0 0
-0.223032 -2.50311 2.85039 0 0 0
-0.175436 0.308507 2.54526 0 0 0
-0.128284 0.263025 1.88483 0 0 0
-0.158958 0.352823 2.5492 0 0 0
-0.171096 -1.93404 2.52147 0 0 0
-0.159727 0.367468 2.51069 0 0 0
-0.170024 -1.86343 2.78923 0 0 0
-0.104033 0.597192 1.82304 0 0 0
-0.152933 -2.56096 2.9267 0 0 0
-0.132971 -1.89458 2.56066 0 0 0
-0.126626 1.07529 2.53536 0 0 0
-0.125301 0.810102 2.55452 0 0 0
-0.090817 0.950786 2.2438 0 0 0
-0.110445 0.878473 2.55913 0 0 0
-0.123255 -2.57455 2.98198 0 0 0
-0.111992 -1.88404 2.84835 0 0 0
-0.124433 -1.82489 2.58917 0 0 0
-0.0609946 -2.06123 2.778 0 0 0
-0.0661699 0.448065 2.51357 0 0 0
-0.0661699 0.448065 2.51357 0 0 0
-0.0566422 0.260705 2.75423 0 0 0
-0.0641998 -1.97251 2.57895 0 0 0
-0.0488375 -1.99569 2.58224 0 0 0
-0.0318801 -2.13961 2.81039 0 0 0
-0.0291302 -1.4575 2.93294 0 0 0
-0.0319167 -2.94558 3.69539 0 0 0
-0.0239342 -1.39085 2.89048 0 0 0
-0.0089499 -2.26256 2.83362 0 0 0
0.014949 -2.22923 2.80302 0 0 0
0.0656028 1.13376 2.7497 0 0 0
0.0559827 0.41969 2.60871 0 0 0
0.200961 0.524033 2.99327 0 0 0
0.343228 -0.153008 3.82614 0 0 0
0.320077 0.946449 3.0913 0 0 0
0.333664 1.22531 3.07202 0 0 0
0.452532 -0.48244 3.99043 0 0 0
0.561472 -0.456382 4.14512 0 0 0
0.543466 -1.09418 4.05515 0 0 0
0.577831 0.213963 4.20567 0 0 0
0.577831 0.213963 4.20567 0 0 0
0.583971 -0.246511 4.18984 0 0 0
0.583971 -0.246511 4.18984 0 0 0
0.589782 -0.953508 4.18209 0 0 0
0.490082 -0.793428 3.45081 0 0 0
0.621384 -0.790193 4.17843 0 0 0
0.591084 -0.708397 4.00681 0 0 0
0.645672 -0.195062 4.26569 0 0 0
0.524399 -0.275896 3.46416 0 0 0
0.621769 -0.0465762 4.10299 0 0 0
0.629795 -0.238432 4.13329 0 0 0
0.662231 -0.383383 4.14198 0 0 0
0.425844 -0.370783 2.64992 0 0 0
0.52054 -0.248438 3.0903 0 0 0
0.694382 -0.413227 4.08526 0 0 0
0.5605 -0.450221 3.17275 0 0 0
0.713492 -0.333742 4.07128 0 0 0
0.720419 -0.243303 4.11142 0 0 0
0.78858 -1.01934 4.39824 0 0 0
0.791349 0.69259 4.39776 0 0 0
0.782677 -0.19233 4.33636 0 0 0
0.735551 0.993667 4.14584 0 0 0
0.738439 -0.534422 4.13137 0 0 0
0.469459 -0.190002 2.60656 0 0 0
0.74116 -0.00286167 4.12702 0 0 0
0.744979 1.03516 4.14543 0 0 0
0.806178 1.02651 4.39095 0 0 0
0.804595 0.290646 4.35267 0 0 0
0.753438 -0.344818 4.12414 0 0 0
0.753051 0.368185 4.12988 0 0 0
0.453739 0.0962439 2.46433 0 0 0
0.761612 0.407974 4.12888 0 0 0
0.601924 -0.173468 3.13424 0 0 0
0.770802 0.831068 4.1729 0 0 0
0.824125 0.158009 4.37213 0 0 0
0.489271 -0.119422 2.57 0 0 0
0.840677 -0.337885 4.36635 0 0 0
0.840677 -0.337885 4.36635 0 0 0
0.514048 -0.393832 2.67932 0 0 0
0.672313 -0.498006 3.46092 0 0 0
0.766745 1.43713 3.99841 0 0 0
0.802856 -0.301423 4.1479 0 0 0
0.802856 -0.301423 4.1479 0 0 0
0.867361 1.02922 4.39804 0 0 0
1.5446e+06 -2.99203e+06 2.35919e+07 0 0 0
0.6951 -0.430013 3.45373 0 0 0
0.831331 -0.18387 4.23642 0 0 0
0.877655 0.973548 4.37509 0 0 0
0.859252 1.07976 4.28281 0 0 0
0.8602 1.09672 4.25112 0 0 0
0.862656 1.15087 4.2645 0 0 0
1.19106 1.56189 5.79896 0 0 0
0.862753 1.12157 4.21495 0 0 0
0.836722 0.88464 4.15383 0 0 0
0.934283 0.189295 4.53922 0 0 0
0.867921 -0.184646 4.28134 0 0 0
0.868431 1.49087 4.17002 0 0 0
1.63071e+06 -761268 1.90159e+07 0 0 0
0.882959 1.43272 4.15359 0 0 0
0.856509 1.01376 4.07386 0 0 0
1.01055 -0.894951 4.70966 0 0 0
0.846305 1.39628 3.95628 0 0 0
0.960942 -0.287556 4.36347 0 0 0
0.968064 -0.659469 4.36513 0 0 0
-7.31502e+06 -4.19676e+06 -3.1229e+07 0 0 0
1.00897 -0.302189 4.40896 0 0 0
-7.15622e+06 -5.90002e+06 -3.00095e+07 0 0 0
1.03769 -0.626359 4.45819 0 0 0
1.14382 -0.816763 4.82294 0 0 0
0.81579 0.156218 3.30429 0 0 0
0.675638 -0.430006 2.77282 0 0 0
-7.78761e+06 -3.02316e+06 -3.08773e+07 0 0 0
1.10753 0.518193 4.5528 0 0 0
-7.48311e+06 -5.77442e+06 -2.95174e+07 0 0 0
0.854258 0.548946 3.31299 0 0 0
-7.41033e+06 -9.04614e+06 -2.58093e+07 0 0 0
-8.11403e+06 -7.12996e+06 -2.6562e+07 0 0 0
-9.77459e+06 -6.6118e+06 -2.74645e+07 0 0 0
-9.75027e+06 -6.47692e+06 -2.68808e+07 0 0 0
-1.99884e+06 -1.75677e+06 -5.38481e+06 0 0 0
-1.00614e+07 2.31826e+07 -2.71587e+07 0 0 0
-1.38175e+07 -1.15032e+07 -3.71392e+07 0 0 0
-1.38175e+07 -1.15032e+07 -3.71392e+07 0 0 0
-1.0217e+07 2.24973e+07 -2.70932e+07 0 0 0
-1.02388e+07 2.28628e+07 -2.70249e+07 0 0 0
-1.02897e+07 2.2918e+07 -2.69088e+07 0 0 0
2.50018e+09 -4.67542e+09 6.3513e+09 0 0 0
-1.05221e+07 2.26982e+07 -2.6594e+07 0 0 0
4.74038 -10.3829 11.8372 0 0 0
2.30467 -5.0647 5.77047 0 0 0
-1.07314e+07 2.20408e+07 -2.62649e+07 0 0 0
2.0698e+09 -3.42114e+09 4.7675e+09 0 0 0
2.39454 -4.00337 5.56272 0 0 0
2.99987e+09 -4.45698e+09 6.75777e+09 0 0 0
2.40185e+09 -3.3046e+09 5.39843e+09 0 0 0
2.71575e+09 -4.40067e+09 6.07951e+09 0 0 0
2.98011e+09 -4.2424e+09 6.62392e+09 0 0 0
2.98011e+09 -4.2424e+09 6.62392e+09 0 0 0
2.77099e+09 -4.09133e+09 6.05793e+09 0 0 0
2.29555e+09 -3.4714e+09 4.91839e+09 0 0 0
3.59555e+07 1.76779e+07 7.48174e+07 0 0 0
2.32895e+09 -2.35029e+09 4.80412e+09 0 0 0
2.35393e+09 -2.36239e+09 4.82209e+09 0 0 0
-1.62768 0.633586 1.03453 100 93 83
-2.30284 0.879171 1.49327 188 179 172
-1.67069 -0.293946 1.10283 220 226 238
-1.6652 -0.164151 1.10317 88 86 74
-1.59591 0.523548 1.06386 130 130 128
-1.59591 0.523548 1.06386 130 130 128
-1.66467 -0.120587 1.11143 108 112 115
-1.5995 0.477533 1.0726 200 195 192
-1.59082 0.651865 1.067 118 119 113
-1.58962 0.646081 1.06727 110 111 105
-1.59763 0.480155 1.07557 205 204 199
-1.64892 0.00830842 1.11492 125 122 115
-1.64251 -0.349756 1.11143 220 226 238
-2.45023 -0.46618 1.65995 222 226 238
-1.64726 0.0130594 1.11634 122 122 112
-1.64043 0.154825 1.11435 212 212 210
-1.62732 0.369782 1.10887 245 246 241
-1.63054 -0.182456 1.11752 118 120 119
-1.62619 0.30069 1.11496 220 216 213
-1.63545 -0.0957961 1.12248 87 87 85
-1.6232 0.306269 1.11723 216 213 208
-1.6232 0.306269 1.11723 216 213 208
-2.3546 -0.167025 1.62737 24 24 22
-1.62037 0.270661 1.12278 225 216 211
-2.42645 -0.179203 1.69247 30 32 29
-1.62798 0.00482657 1.13595 157 152 148
-1.62034 -0.228717 1.13087 112 112 112
-1.61492 -0.1568 1.12727 44 45 39
-1.62366 -0.0419633 1.14042 120 124 127
-1.61133 -0.311958 1.1343 218 224 236
-1.55409 0.658736 1.09576 145 143 146
-1.61233 -0.182212 1.1382 122 126 127
-1.66308 -0.449111 1.1742 215 221 233
-1.61783 -0.0413329 1.14591 127 133 133
-1.61459 -0.0691806 1.15112 12 17 11
-1.54636 0.509712 1.10416 213 214 209
-1.6128 -0.0423841 1.15174 131 133 132
-1.60694 -0.10244 1.15123 25 27 24
-1.58762 0.44597 1.1378 108 105 96
-1.54829 0.502693 1.11614 128 119 112
-1.64848 -0.0489826 1.1952 130 131 135
3.67683e+09 3.4668e+08 -2.5802e+09 44 46 45
-7.65287e+09 -4.34453e+08 5.47276e+09 33 34 29
-1.58942 0.0714138 1.1624 15 18 11
-1.53746 0.505658 1.12446 178 173 170
-1.59694 -0.0205441 1.16998 176 176 176
-1.62674 0.125285 1.19138 157 159 158
-1.58314 0.120492 1.1626 160 162 161
-1.56882 0.448945 1.15878 210 209 205
-1.57743 0.179359 1.16583 221 221 219
-1.52247 0.552263 1.12548 215 214 209
-1.99231 0.674973 1.47442 223 224 219
-1.59863 0.0253374 1.18893 221 221 219
-1.55675 0.459693 1.16077 214 213 208
-1.59147 -0.2667 1.24912 206 207 202
-2.12028 -0.35113 1.68577 207 208 203
-1.57995 -0.287809 1.25652 205 204 199
-2.00625 -0.0477951 1.59959 142 146 147
-1.55931 -0.269097 1.28067 202 198 189
-1.55037 -0.295068 1.28261 197 190 180
-1.55585 -0.268173 1.2889 201 201 193
-2.01652 -0.388981 1.68307 119 119 111
-1.53769 -0.296297 1.29344 155 157 156
-1.53497 -0.263558 1.30779 118 112 100
-1.51787 -0.314937 1.29945 212 211 207
-1.89409 -0.342923 1.67514 210 207 200
-1.48596 -0.317351 1.33214 210 207 200
-1.49481 -0.267571 1.35066 209 209 199
-1.84981 -0.371853 1.67821 207 204 197
-1.48772 -0.298332 1.34974 207 204 197
-1.44788 -0.0020914 1.39195 194 194 194
-1.44477 0.00251164 1.39472 200 200 198
-1.43423 0.0310054 1.38846 218 218 216
-1.44803 -0.267249 1.40703 152 151 149
-1.44006 -0.0154118 1.40768 178 178 178
-1.43488 -0.0140816 1.40275 178 178 178
-1.42772 0.0475869 1.40429 226 226 224
-1.43355 -0.144329 1.42022 27 29 24
-1.67645 -0.212019 1.67845 40 42 37
-1.42621 -0.449654 1.43263 210 209 205
-1.4067 -0.325393 1.41635 211 210 206
-1.42419 -0.037932 1.4357 147 147 147
-1.41756 -0.405982 1.43009 213 212 208
-1.4041 -0.326056 1.41963 213 209 206
-1.40092 -0.33795 1.42134 208 207 203
-1.36143 -0.328357 1.43581 212 211 207
-1.16379 -1.38327 1.63906 30 23 15
-1.1939 -1.37165 1.76628 27 27 19
-1.1937 -1.35773 1.84946 26 25 21
-1.19827 -1.36631 1.8565 26 25 21
-1.18332 -1.20312 1.84185 63 62 57
-1.1363 -1.43048 1.76913 231 223 220
-1.18838 -1.36259 1.8519 20 24 23
-1.10301 -1.46429 1.73448 35 31 30
-1.18253 -1.31385 1.87043 145 140 134
-1.17745 -1.28905 1.86294 66 58 55
-1.17705 -1.32954 1.8631 87 82 78
-1.17253 -1.34628 1.87764 56 59 52
-1.08936 -1.4916 1.74845 109 115 115
-1.08936 -1.4916 1.74845 109 115 115
-1.16595 -1.24984 1.87383 81 78 71
-1.15483 -1.28353 1.89625 56 63 56
-1.14434 -1.36867 1.92132 27 29 26
-1.09138 -1.49978 1.8368 90 91 83
-1.13364 -1.26105 1.91593 68 68 58
-1.13605 -1.29872 1.91987 74 74 64
-1.13005 -1.35122 1.92987 87 82 76
-1.12947 -1.38549 1.93718 87 84 77
-1.0771 -1.51075 1.84798 93 90 83
-1.12505 -1.27334 1.93493 62 65 58
-1.1219 -1.35149 1.9458 56 56 54
-1.29899 -1.42841 2.25356 68 69 63
-1.11166 -1.28364 1.95096 58 51 45
-1.11269 -1.31745 1.95378 73 70 65
-1.11441 -1.39209 1.96086 72 68 57
-1.11507 -1.35148 1.97069 73 72 68
-1.10124 -1.2884 1.96614 71 72 66
-1.10201 -1.30701 1.9677 70 73 64
-1.07976 -0.99534 1.92901 203 202 197
-1.10316 -1.38069 1.97523 64 65 57
-1.04713 -1.55751 1.89246 99 97 85
-1.09554 -1.37017 1.98115 91 86 80
-1.01604 -1.56765 1.93303 120 113 103
-1.01604 -1.56765 1.93303 120 113 103
-1.01264 -1.58394 1.93699 122 115 107
-0.990135 -1.61302 1.91297 118 111 101
-1.04426 -1.61219 2.0201 120 111 102
-1.04195 -1.43759 2.06256 19 19 11
-1.00005 -1.58246 1.99031 120 116 107
-0.987632 -1.58857 2.00686 114 110 99
-1.02905 -1.18021 2.10046 169 162 152
-0.975482 -1.63378 2.00048 115 111 102
-1.17022 -1.40097 2.45777 165 158 148
-0.946557 -1.59687 2.02139 103 98 94
-0.958209 -1.61691 2.05996 81 82 76
-0.985747 -1.3819 2.13557 160 153 143
-0.975725 -1.12279 2.11896 145 137 126
-0.975725 -1.12279 2.11896 145 137 126
-0.980885 -1.38871 2.13809 159 150 141
-0.969023 -1.35431 2.15018 154 149 143
-0.941074 -1.22179 2.09161 146 141 135
-0.967517 -1.42616 2.16064 148 148 140
-0.967517 -1.42616 2.16064 148 148 140
-0.935392 -1.18337 2.11589 104 94 84
-0.907799 -1.62606 2.09624 47 39 36
-0.883667 -1.68726 2.06127 75 77 72
-0.883667 -1.68726 2.06127 75 77 72
-0.923697 -1.10116 2.16189 140 143 136
-0.925045 -1.45668 2.18052 126 122 113
-0.937382 -1.46565 2.20068 126 122 113
-0.918417 -1.1486 2.15979 114 115 107
-0.922465 -1.43148 2.18081 103 104 98
-0.884735 -1.63288 2.10329 28 30 25
-0.918699 -1.32913 2.18973 114 115 109
-0.926101 -1.41491 2.21583 119 116 109
-0.926101 -1.41491 2.21583 119 116 109
-0.889887 -1.12217 2.18164 122 121 116
-0.889887 -1.12217 2.18164 122 121 116
-0.852183 -1.70799 2.10264 64 65 60
-0.85674 -1.71228 2.1077 64 65 60
-0.860234 -1.64769 2.14934 120 119 114
-0.836419 -1.71092 2.11369 58 60 57
-0.836419 -1.71092 2.11369 58 60 57
-0.840112 -1.68091 2.17406 148 149 141
-0.840112 -1.68091 2.17406 148 149 141
-0.876233 -1.54508 2.29051 107 108 102
-0.876233 -1.54508 2.29051 107 108 102
-0.869856 -1.47912 2.27841 113 115 110
-0.815029 -1.67236 2.20369 102 103 95
-0.809708 -1.68998 2.19929 87 88 80
-0.818193 -1.22668 2.28355 118 117 112
-0.785864 -1.6842 2.23435 96 97 91
-0.769735 -1.75861 2.21618 45 49 48
-0.80754 -1.42182 2.37696 102 103 97
-0.773861 -1.49212 2.34477 124 121 112
-0.797829 -1.52568 2.39751 124 121 112
-0.796914 -1.56851 2.39939 113 114 108
-0.795345 -1.57199 2.40729 121 122 116
-0.773631 -1.45758 2.42033 110 107 100
-0.775323 -1.60008 2.43177 105 108 101
-0.772188 -1.48023 2.42977 113 115 110
-0.771329 -1.45434 2.43042 132 129 122
-0.745376 -1.5182 2.38174 129 130 124
-0.72477 -1.25943 2.54146 115 105 95
-0.708505 -1.57929 2.52286 119 109 99
-0.759489 0.333796 2.7063 133 109 85
-0.694645 -1.18784 2.50932 128 122 110
-0.699129 -1.56484 2.52581 118 109 100
-0.696719 -1.5758 2.53864 119 111 100
-0.66049 -1.00392 2.43182 128 122 110
-0.693202 -1.50647 2.53611 107 100 90
-0.693202 -1.50647 2.53611 107 100 90
-0.672267 -1.30402 2.56559 108 99 90
-0.573534 -0.533457 2.5592 101 94 86
-0.561665 -0.540672 2.60418 0 0 0
-0.568508 -0.952811 2.67059 0 0 0
-0.489805 -1.89721 2.41148 0 0 0
-0.512211 -0.414414 2.70195 0 0 0
-0.506089 -1.41558 2.67007 0 0 0
-0.498652 -0.219832 2.68906 0 0 0
-0.294902 -1.75515 2.55178 0 0 0
-0.291621 -1.72812 2.55021 0 0 0
-0.272177 -1.71013 2.57633 0 0 0
-0.271464 -1.74833 2.57817 0 0 0
-0.191589 -1.38207 2.70198 0 0 0
-0.150095 -1.87632 2.52281 0 0 0
-0.124481 -1.96561 2.50871 0 0 0
-0.122493 -1.94012 2.53472 0 0 0
-0.0971392 -1.989 2.83325 0 0 0
-0.0934877 -1.82405 2.77041 0 0 0
-0.0827647 -1.97174 2.5414 0 0 0
-0.0803891 -1.98142 2.54674 0 0 0
-0.041159 -1.81738 2.81735 0 0 0
-0.0460243 -1.82223 2.64093 0 0 0
-0.0278031 -1.94773 2.65583 0 0 0
-0.0157347 -1.85385 2.84894 0 0 0
-0.00854073 -1.82902 2.67181 0 0 0
0.0774781 -0.434891 2.95287 0 0 0
0.143884 -0.471628 3.51908 0 0 0
0.150639 -0.490946 3.50161 0 0 0
0.175143 -0.07599 3.54173 0 0 0
0.507976 -1.30033 9.6147 0 0 0
0.263771 -0.0769498 4.01472 0 0 0
0.242009 -0.598811 3.5653 0 0 0
0.319162 -0.481816 3.23536 0 0 0
0.368709 0.0213773 4.11495 0 0 0
0.34104 -0.472327 3.2219 0 0 0
0.113233 0.296959 10.8044 0 0 0
0.336472 -0.437813 3.32081 0 0 0
0.38227 -0.138569 3.77044 0 0 0
0.427264 0.24608 4.1629 0 0 0
0.456894 0.479959 4.15267 0 0 0
0.502949 2.76068 10.5944 0 0 0
0.469073 -0.428649 3.31848 0 0 0
0.45341 -0.45203 3.34596 0 0 0
1.03285 -0.772465 7.99795 0 0 0
0.507762 -0.374457 3.89188 0 0 0
0.964972 -1.21693 7.2414 0 0 0
0.518577 -0.650695 3.89161 0 0 0
0.534986 -0.940839 3.97881 0 0 0
0.533581 -0.550062 3.93655 0 0 0
0.546926 -0.448104 3.9705 0 0 0
0.546638 -0.0967649 3.91098 0 0 0
0.557211 -0.286178 3.96429 0 0 0
0.595673 0.662651 3.92261 0 0 0
0.612162 -0.00041419 4.01249 0 0 0
0.607314 1.08743 3.8623 0 0 0
0.641617 0.415421 4.00086 0 0 0
0.650721 -0.00116799 4.05427 0 0 0
0.666512 -0.0857419 4.05897 0 0 0
0.612903 -0.0829711 3.42101 0 0 0
0.688628 0.148531 4.05945 0 0 0
0.682515 -0.485147 3.98413 0 0 0
0.689367 0.961686 4.00191 0 0 0
0.690419 1.05936 3.98495 0 0 0
0.67261 -0.643492 3.87815 0 0 0
0.707104 1.01488 4.01842 0 0 0
0.711666 -0.473793 4.01339 0 0 0
0.711733 -0.489757 4.01321 0 0 0
0.717791 1.03125 4.01828 0 0 0
0.715487 -0.101846 3.98987 0 0 0
0.737957 -0.961391 4.10959 0 0 0
0.716104 -0.62063 3.97789 0 0 0
0.722392 -0.310336 3.99907 0 0 0
0.638927 -0.483906 3.43803 0 0 0
0.673107 0.08544 2.77292 0 0 0
0.742846 0.978672 4.03428 0 0 0
0.747505 0.683766 4.04482 0 0 0
0.744232 -0.380869 4.02312 0 0 0
0.751326 -0.269184 4.05875 0 0 0
0.740897 0.312749 4.00097 0 0 0
0.75651 -0.325789 4.01487 0 0 0
0.766085 0.920769 4.03088 0 0 0
0.780468 0.346221 4.02651 0 0 0
0.801498 0.164205 4.07405 0 0 0
0.809773 -0.076979 4.08369 0 0 0
0.788364 0.972014 3.96171 0 0 0
0.802899 -0.377835 4.03232 0 0 0
0.81455 0.516154 4.05306 0 0 0
0.842943 -0.401819 4.07917 0 0 0
0.846485 -0.458781 4.0765 0 0 0
3.36251e+06 -5.34931e+06 4.63685e+07 0 0 0
0.85009 0.951558 4.05983 0 0 0
0.86159 -0.381617 4.0997 0 0 0
0.853536 0.407308 4.06062 0 0 0
2.47826e+06 -3.70864e+06 3.19177e+07 0 0 0
0.812042 1.18966 3.81043 0 0 0
0.822799 1.32484 3.8029 0 0 0
0.956894 -0.897066 4.34416 0 0 0
0.949977 -0.818372 4.29606 0 0 0
0.941806 -0.0817411 4.20331 0 0 0
0.818282 -0.214838 3.51764 0 0 0
0.944756 0.268834 4.18991 0 0 0
0.984747 -0.587209 4.26264 0 0 0
1.0113 -0.112534 4.32548 0 0 0
1.02296 0.00386842 4.33865 0 0 0
0.93609 1.07481 3.95678 0 0 0
0.93609 1.07481 3.95678 0 0 0
1.6522 -0.133213 6.94949 0 0 0
0.888523 -0.117092 3.54224 0 0 0
1.02828 -0.631124 4.29764 0 0 0
0.893048 -0.297388 3.55175 0 0 0
0.879205 0.14733 2.87635 0 0 0
1.04774 0.16391 4.32446 0 0 0
1.05607 -0.67589 4.26659 0 0 0
1.05607 -0.67589 4.26659 0 0 0
1.07508 0.737267 4.33933 0 0 0
1.07408 0.491606 4.3223 0 0 0
1.12892 0.557942 4.31337 0 0 0
1.07718 1.10289 4.107 0 0 0
1.25816 1.21273 4.24322 0 0 0
-1.6051 0.611092 1.0429 128 128 126
-1.6138 0.490182 1.05519 42 37 34
-1.59524 0.529857 1.06087 215 214 209
-1.58864 0.612256 1.0604 151 151 151
-1.63364 0.154517 1.11135 200 199 195
-2.00986 -0.438775 1.64165 213 220 228
-1.74427 -0.322053 1.15925 220 227 235
-1.63625 -0.115297 1.12952 179 180 175
-1.63912 -0.240316 1.13319 220 227 235
-1.52848 0.517613 1.12971 45 47 42
-1.588 -0.327171 1.18375 217 214 209
-1.57997 -0.260952 1.25683 205 201 192
-3.22438 -0.171181 4.13099 21 23 18
-1.51722 -0.291829 1.27389 212 209 200
-1.52068 -0.316394 1.30483 145 135 126
-1.50314 -0.269497 1.32722 217 214 207
-1.43195 -0.158238 1.41102 209 206 199
-1.42504 -0.177587 1.42679 210 209 204
-1.16571 0.432445 1.35716 10 15 9
-1.17031 0.193964 1.37121 164 164 156
-1.14006 0.71234 1.35167 10 12 9
-1.15317 0.254317 1.38208 189 186 179
-1.19969 -1.46514 1.53498 71 54 46
-1.00622 0.541053 1.51709 30 31 26
-1.13404 -1.39756 1.93015 113 106 96
-1.11742 -1.23199 1.94535 23 24 19
-1.09938 -1.55858 1.6471 109 105 94
-1.06665 -1.55745 1.60214 112 108 96
-1.07882 -1.60124 1.8552 72 62 53
-1.00234 -1.61433 2.00008 81 80 75
-1.20306 -1.8135 3.39658 148 142 128
-0.943267 -1.14938 2.02541 169 163 149
-0.905293 -1.11511 2.03111 138 134 125
-0.534143 -1.81866 2.48146 105 101 90
-0.537658 -1.89392 2.43871 113 109 100
-0.303498 -1.77969 2.44054 110 106 94
0.517513 -0.652157 3.96665 0 0 0
0.703299 0.436211 4.23008 0 0 0
0.701398 -0.526911 3.41715 0 0 0
-4.96025e+09 -4.98192e+08 3.35591e+09 69 66 61
-4.03427e+09 -3.94162e+08 2.7473e+09 26 27 21
-4.06086e+09 -4.1817e+08 2.76996e+09 67 68 62
-4.06086e+09 -4.1817e+08 2.76996e+09 67 68 62
-1.84532e+09 -1.16729e+08 1.28559e+09 21 23 18
55.7944 8.13815 -40.694 153 153 153
-5.51641e+09 -5.96027e+08 4.05835e+09 96 101 104
-1.67202 0.371812 1.30935 220 221 216
-88.3681 -14.257 73.3606 207 207 199
-80.5655 -18.5796 78.8965 210 209 204
-1.21395 0.267489 1.46629 227 227 225
-1.20665 0.269351 1.47392 226 227 222
-1.19091 0.271108 1.49056 227 228 223
-1.16364 0.353178 1.52114 220 221 216
-1.16364 0.353178 1.52114 220 221 216
-1.15016 0.304956 1.5325 233 232 227
-1.12664 0.35912 1.55446 152 149 144
-1.11436 0.270464 1.57116 162 163 157
-1.08568 0.354534 1.59548 161 162 154
-1.34577 -1.61099 2.27613 61 61 53
-1.13423 -1.37341 1.93405 63 64 56
-1.13763 -1.35617 1.94281 101 101 91
-1.0756 -1.56543 1.89436 102 93 84
-1.05242 -1.56584 1.9379 107 103 94
-1.29978 -2.06345 2.43227 106 101 95
-1.00347 -1.62764 1.98028 122 118 107
-1.03256 -1.45106 2.05495 18 19 13
-0.963125 -1.62715 2.03439 113 109 98
-0.943032 -1.6609 2.04021 86 85 80
-0.937382 -1.63821 2.06297 82 81 77
-1.16133 -2.05174 2.6396 44 46 43
-0.848546 -1.53236 2.27071 107 106 102
-0.795911 -1.74632 2.18791 48 53 49
-0.956693 -2.27791 3.06163 91 91 83
-0.716987 -1.62914 2.41283 102 95 85
-0.923089 -2.05392 3.36502 118 110 99
0.0487134 0.290039 2.63865 0 0 0
0.182909 -0.466054 3.46431 0 0 0
0.92585 -1.05605 7.54937 0 0 0
0.594661 -0.782571 3.52452 0 0 0
1.55622e+09 2.08514e+08 -2.38292e+09 209 206 199
-2.18315 -0.199516 2.06534 208 205 196
-6.59168 -1.64947 9.10147 217 214 207
-0.990629 -1.58364 1.9524 81 80 75
-0.975833 -1.65433 2.00747 77 76 71
-1.69828 -0.153514 1.11803 72 67 61
-1.69543 -0.274661 1.11824 73 71 59
-1.65012 -0.265455 1.19799 214 216 215
-1.60459 -0.262673 1.31148 184 182 183
-5.16621 -0.687568 3.25433 186 184 185
-1.28589 -1.34587 1.54912 17 23 11
-1.24292 -1.35137 1.57654 38 34 23
-1.16185 -1.24175 1.63983 71 71 63
-1.12362 -1.52638 1.62247 46 42 31
-1.26636 -1.46164 2.05844 87 80 72
-1.13879 -1.37201 1.92814 87 80 72
-1.05465 -1.62828 1.90237 17 19 16
-1.11445 -1.36785 1.97439 66 69 60
-1.04189 -1.64677 1.92854 86 92 82
-1.0801 -1.26664 2.00315 205 206 200
-1.0121 -1.58342 1.98201 72 73 65
-1.01073 -1.61892 1.98121 64 59 55
-1.02881 -1.392 2.05543 115 102 94
-1.02723 -1.38492 2.05295 115 102 94
-0.943683 -1.67962 2.0236 25 28 21
-0.943683 -1.67962 2.0236 25 28 21
-0.971482 -1.30167 2.12991 211 210 206
-0.926773 -1.63315 2.09187 162 158 146
-0.913999 -1.13436 2.14393 21 22 17
-0.92864 -1.34823 2.1639 188 182 170
-0.880492 -1.70947 2.09424 136 132 123
-0.906984 -2.05378 2.23237 79 80 75
-0.831357 -1.73126 2.14859 114 111 104
-0.831357 -1.73126 2.14859 114 111 104
-0.88443 -2.04863 2.22984 79 80 75
-0.84282 -1.65805 2.1747 125 126 120
-0.871144 -2.04891 2.25206 85 74 70
-0.82487 -1.66504 2.19425 111 112 106
-0.840329 -1.54418 2.25857 142 142 132
-0.810351 -1.67439 2.21155 108 109 103
-0.831528 -2.05478 2.30134 122 123 117
-0.784161 -1.69912 2.22869 116 117 111
-0.817307 -2.05729 2.31682 98 99 93
-0.796849 -2.09516 2.32502 88 90 79
-0.785707 -1.48167 2.32074 135 130 124
-0.754358 -1.69005 2.26309 110 111 105
-0.763707 -1.43634 2.33903 115 103 91
-0.775459 -2.10995 2.34974 99 99 91
-0.763983 -1.5014 2.34413 141 142 136
-0.716265 -1.70351 2.30273 125 121 110
-0.655524 -1.48805 2.45559 132 124 113
-0.317025 -1.86857 2.41244 0 0 0
-0.259598 -2.2583 2.67856 0 0 0
-0.255027 -2.27838 2.67907 0 0 0
-0.255027 -2.27838 2.67907 0 0 0
-0.200885 -1.82182 2.53791 0 0 0
-0.245508 -2.26252 2.69291 0 0 0
-0.197408 -2.29222 2.73337 0 0 0
-0.11951 -1.83089 2.57774 0 0 0
-0.178044 -2.30438 2.75011 0 0 0
-0.0690819 -1.82005 2.60046 0 0 0
-0.0930447 -1.7377 2.72329 0 0 0
-0.0230099 -1.8462 2.65478 0 0 0
-0.00866415 -1.90119 2.64188 0 0 0
-0.00866415 -1.90119 2.64188 0 0 0
-0.00754828 -1.93486 2.68523 0 0 0
0.16009 -0.434764 3.04875 0 0 0
0.199292 -0.421232 3.09183 0 0 0
0.18956 -0.421707 3.1082 0 0 0
0.221414 -0.487368 3.07278 0 0 0
0.330189 -0.509572 3.16264 0 0 0
0.49275 -0.460167 3.31696 0 0 0
0.560891 -0.381974 3.36163 0 0 0
0.792451 -0.370696 3.38126 0 0 0
-1.27731 -0.392433 6.57376 0 0 0
0.874816 -0.227458 3.42493 0 0 0
-4.14058 -3.08543 0.484594 130 146 146
-4.46635 -3.31868 0.437579 164 177 186
-4.51954 -3.32143 0.451387 37 38 30
-4.57009 -3.49382 0.439992 164 174 184
-4.56998 -3.4714 0.441104 163 173 183
-4.5437 -3.51051 0.452108 166 174 185
-13.1668 -7.86917 -1.24284 165 173 184
-4.57438 -3.47681 0.450981 165 173 184
-4.46045 -3.5518 0.508211 163 171 182
-4.42508 -3.57404 0.520612 162 172 182
-4.67602 -3.7139 0.474088 161 171 181
-1.55168 -0.220662 1.13979 188 185 176
-1.48975 -0.111179 1.16365 197 190 180
-1.56251 -0.343871 1.14499 185 181 170
-4.47238 -3.34417 0.557185 21 26 19
-4.72411 -3.74491 0.496568 165 171 183
-4.72411 -3.74491 0.496568 165 171 183
-1.53903 -0.262095 1.16029 194 187 177
-4.73885 -3.66194 0.513776 36 29 36
-1.53277 -0.239504 1.17239 187 183 172
-4.51423 -3.56905 0.5756 25 24 20
-4.59465 -3.08952 0.579598 92 102 93
-4.75191 -3.47905 0.540359 103 99 98
-4.77744 -3.47015 0.538348 15 24 21
-1.52285 -0.293776 1.1779 171 165 153
-4.76008 -3.50046 0.545309 29 34 27
-4.54044 -3.44421 0.594139 17 18 12
-4.7788 -3.57733 0.548394 17 20 13
-1.64784 -0.428263 1.15988 184 180 169
-4.76398 -3.5302 0.553254 25 31 21
-4.71484 -3.38524 0.585312 27 29 18
-4.72536 -3.01896 0.620501 184 190 202
-11.2841 -1.36826 -0.292839 199 186 180
-1.62622 -0.45346 1.19015 199 186 180
-1.6192 -0.468472 1.19514 201 193 182
-4.73606 -2.98815 0.643446 185 191 203
-1.85864 -0.297934 1.1614 209 202 194
-4.72927 -2.95653 0.656048 184 192 203
-4.71133 -2.89083 0.661408 190 196 208
-1.94422 -0.581852 1.19407 201 199 187
-3.81756 -0.258039 2.71561 20 22 19
-1.69168 -0.0979281 1.20483 17 19 14
-1.47574 -0.337666 1.41645 211 206 200
-1.25124 -2.2091 2.6601 112 105 97
-0.904665 -1.07638 1.99908 124 120 109
-0.626355 -1.77019 2.27382 96 94 81
-0.531681 -2.14131 2.5017 0 0 0
-0.482214 -1.30641 2.30465 0 0 0
-0.473566 -2.78029 3.83492 0 0 0
-0.27419 -1.43408 2.3262 0 0 0
-0.466488 0.388713 4.18463 0 0 0
-0.280313 0.244701 2.47255 0 0 0
-1.56327 -1.03733 1.55703 55 52 33
-1.55445 -1.03129 1.5588 53 52 47
-1.5525 -1.02087 1.5618 102 100 88
-1.51924 -1.08079 1.58649 40 40 30
-1.51778 -1.05107 1.58695 41 39 26
-1.51778 -1.05107 1.58695 41 39 26
-1.52657 -1.15642 1.59563 75 68 60
-1.50613 -1.04774 1.58276 71 73 70
-1.48946 -1.09365 1.58053 24 26 15
-1.49194 -1.16081 1.59734 43 44 36
-1.54884 -1.21791 1.71334 52 49 44
-1.44415 -1.12145 1.61478 34 36 23
-1.37728 -1.45713 1.63054 20 23 16
-1.29909 -1.05952 1.60939 16 18 13
-1.1624 -1.31783 1.71763 53 14 15
-0.946903 -1.6721 2.0098 74 75 69
-0.844652 -2.0063 2.21123 58 59 54
-0.844652 -2.0063 2.21123 58 59 54
-0.562393 -1.52332 2.24354 107 99 86
-0.515201 -2.10921 2.42117 105 101 89
-0.465094 -1.83847 2.26799 111 102 93
-0.452379 -1.86044 2.26421 112 105 95
-0.342552 -1.63297 2.26352 113 109 98
-0.332656 -1.86358 2.26949 106 99 89
0.114038 0.418398 2.65416 0 0 0
-1.97872 -0.295407 1.05834 189 185 174
-1.96872 -0.423494 1.08587 202 199 190
-5.41697 -0.15698 0.545519 91 83 70
-7.49039 -0.0554188 0.281695 208 203 197
-1.88504 -0.0926602 1.15729 206 203 194
-1.88874 -0.0448832 1.19428 181 189 174
-8.10048 -0.054722 0.314328 181 177 168
-7.24885 -0.123034 0.443923 185 196 179
-6.88552 -0.218762 0.495337 187 184 177
-6.77578 -0.439068 0.519766 181 174 166
-1.89918 -0.283788 1.20293 178 175 166
-4.48147 -1.85205 1.31716 197 192 189
-1.18291 -1.55344 1.64356 8 10 5
-1.2386 -1.20118 1.65828 202 199 194
-3.54296 -2.11448 1.59517 179 177 182
-3.60061 -2.09392 1.59831 123 128 124
-1.24372 -1.47946 1.65448 70 66 63
-1.22475 -1.26206 1.66294 95 101 99
-1.37231 -1.90673 1.64599 42 38 29
-1.16164 -1.5783 1.65869 18 24 12
-4.22656 -1.9124 1.6158 172 158 155
-1.26537 -1.46805 1.66538 34 36 23
-1.37415 -1.93414 1.6586 66 65 63
-1.35221 -1.92653 1.65794 66 65 63
-1.13629 -1.61654 1.67466 87 89 84
-1.12269 -1.62713 1.67999 35 36 28
-5.67988 1.55609 1.75131 215 215 207
-5.9989 1.46995 1.75348 185 186 181
-1.11495 -1.63815 1.69119 150 149 144
-3.72656 -1.96384 1.71721 207 207 199
-3.80449 -1.93053 1.74574 167 167 157
-1.22738 0.454424 1.79062 122 124 123
-6.21987 1.34664 1.88027 34 36 33
-1.48167 -1.95693 1.74856 56 55 53
-1.35381 -1.44704 1.76442 48 51 42
-9.14584 -1.01217 1.92919 62 62 54
-3.72345 -1.93165 1.80462 168 169 161
-1.20593 -1.67877 1.76327 56 58 47
-1.29189 -1.22482 1.78083 211 210 205
-1.29189 -1.22482 1.78083 211 210 205
-1.3068 -1.21133 1.78835 208 207 202
-4.92843 1.66087 1.95357 25 26 20
-1.34323 -1.47914 1.78739 95 97 86
-1.32538 -0.88103 1.8074 69 66 49
-1.35643 -1.1688 1.80552 40 53 44
-1.34351 -1.48905 1.79692 192 183 174
-1.37021 -1.4599 1.79751 177 180 173
-1.19829 -1.65484 1.78932 63 65 54
-1.38297 -1.45553 1.8026 153 155 150
-1.37014 -1.45068 1.80085 153 155 150
-1.33664 -1.21038 1.80945 201 201 193
-1.24107 -0.316999 1.83989 42 45 38
-1.17259 -1.65298 1.80837 23 26 15
-1.40599 -1.94785 1.83075 40 42 31
-1.34224 -1.48934 1.84344 189 186 179
-1.29442 -1.4303 1.87304 143 125 111
-1.35227 -0.406389 1.92505 23 23 15
-1.19104 -1.27872 1.95401 210 209 204
-1.13548 -1.16644 1.98384 23 18 14
-1.09356 -1.17405 2.0325 40 25 22
-1.09356 -1.17405 2.0325 40 25 22
-0.99864 -1.4918 2.14152 188 185 178
-0.900355 -1.20857 2.17339 165 168 159
-0.898339 -1.1662 2.19246 177 176 172
-0.879985 -1.2652 2.19122 208 208 200
-0.907605 -1.24719 2.20039 197 197 189
-2.27679 -1.788 2.42633 198 198 190
-0.893074 -1.24997 2.20555 199 199 191
-0.911915 -1.23757 2.2108 175 176 168
-0.746559 -1.38292 2.35225 200 199 195
-0.665943 -1.74063 2.34564 89 80 65
0.0606744 -1.90204 2.64632 90 91 83
0.0240965 -1.77804 2.68065 84 84 74
0.0663284 -1.87831 2.67857 106 106 98
0.584362 0.458517 3.35486 0 0 0
0.842905 0.485562 3.49434 0 0 0
0.842905 0.485562 3.49434 0 0 0
0.871649 0.304414 3.53898 0 0 0
0.871649 0.304414 3.53898 0 0 0
0.892889 0.292099 3.55749 0 0 0
-4.13702 0.852604 0.149797 83 79 67
-3.07372 -2.45467 0.524441 159 169 181
-3.09256 -2.44903 0.530062 164 172 183
-3.15704 -2.22326 0.519015 167 177 189
-3.14104 -2.2993 0.542485 168 176 189
-3.50989 -2.53797 0.609639 174 180 192
-2.38011 0.547111 0.909091 56 55 50
-2.25583 -0.0688784 0.978428 88 94 80
-2.30694 0.352916 0.966621 72 75 64
-2.24135 -0.134548 0.99694 79 79 69
-2.29849 0.243459 0.980181 93 95 92
-3.44608 -2.89809 0.709204 23 27 13
-2.20876 -0.0202813 1.01777 86 82 73
-2.21143 -0.0557198 1.0195 74 72 59
-2.29613 0.737007 0.995931 194 194 186
-2.21908 -0.000648398 1.02172 112 112 104
-2.30062 0.737891 1.00411 194 194 186
-2.22722 -0.047592 1.02844 115 116 111
-2.2096 -0.103647 1.04286 101 100 95
-2.20481 -0.181518 1.0455 98 94 85
-2.14597 -0.261726 1.06521 78 72 60
-2.31638 0.75255 1.0181 196 196 184
-2.30482 0.612519 1.02315 197 197 187
-2.29797 0.588135 1.02624 197 198 192
-2.23957 0.166853 1.04647 117 116 111
-2.22434 -0.0345193 1.05361 99 95 83
-3.46891 -3.09039 0.758742 16 15 10
-2.26197 0.300388 1.04548 93 95 94
-2.2528 0.198647 1.05079 121 123 120
-2.26893 0.333339 1.04905 88 88 86
-2.24541 0.161976 1.05724 128 130 125
-4.01585 -3.42096 0.647448 17 23 11
-2.22421 -0.0233655 1.06848 131 133 128
-2.22785 -0.0520687 1.07339 131 134 127
-2.22785 -0.0520687 1.07339 131 134 127
-2.21003 -0.0996455 1.0783 118 119 113
-3.48283 -3.15372 0.784455 36 36 26
-2.20246 -0.209563 1.08874 100 97 88
-2.07599 -0.0803017 1.12151 128 129 121
-2.20777 -0.0794944 1.0893 128 129 121
-2.15243 -0.289196 1.10933 105 99 87
-2.18837 -0.23056 1.10303 124 121 116
-2.22437 0.260517 1.09659 115 117 116
-2.14876 -0.602482 1.13204 108 101 91
-0.586792 -0.463048 1.5101 117 118 110
-2.11825 -0.628044 1.1492 114 116 105
-3.56179 -3.11556 0.824318 21 20 15
-1.57167 0.392266 1.40045 181 180 176
-1.53079 0.393155 1.43454 187 188 183
-0.725112 -0.856247 1.63078 190 186 183
-1.51535 -1.02788 1.48394 190 186 183
-1.51548 -1.03102 1.49538 89 83 71
-1.51548 -1.03102 1.49538 89 83 71
-1.44461 0.390091 1.50589 192 192 190
-1.32217 -1.55123 1.5405 25 31 29
-1.41729 -1.04915 1.55487 135 112 106
-1.41084 0.391132 1.55246 197 196 192
-1.43746 0.425261 1.57228 208 209 203
-1.43746 0.425261 1.57228 208 209 203
-1.34408 -1.27322 1.59376 65 60 56
-1.48448 0.811548 1.57066 215 215 207
-1.48448 0.811548 1.57066 215 215 207
-1.29535 -1.16239 1.62814 203 204 198
-1.29012 -1.2812 1.63418 57 48 49
-1.31813 -1.19854 1.63016 191 186 182
-1.30941 -1.22931 1.6347 47 43 42
-1.30873 -1.23239 1.63262 47 43 42
-1.51586 0.825719 1.59737 216 215 210
-1.29614 -1.25889 1.63724 44 40 41
-1.39536 -1.071 1.64651 183 180 175
-1.5094 0.426718 1.63206 206 205 200
-1.54936 0.697683 1.6335 178 179 174
-1.54767 0.686898 1.64201 170 169 165
-1.55775 0.711859 1.64488 189 190 185
-1.54488 0.638005 1.64561 23 24 16
-1.54401 0.581121 1.64812 198 195 186
-1.54526 0.541033 1.65043 217 214 205
-1.5346 0.466171 1.65446 213 213 205
-1.52615 0.409862 1.65702 195 194 190
-1.49098 -0.291893 1.67472 205 208 215
-1.55715 0.698592 1.66677 171 172 167
-1.46189 -0.715423 1.69065 184 187 180
-1.48671 0.345131 1.69418 136 138 137
-1.42646 -1.19087 1.70611 207 206 201
-1.44532 -1.08081 1.70388 204 200 197
-1.41836 -1.20657 1.70841 210 207 202
-1.42007 -1.20636 1.71138 210 207 202
-1.46084 -0.582881 1.70909 197 202 196
-1.53102 0.606628 1.70248 149 150 142
-1.52959 0.55844 1.70612 213 213 203
-1.41884 -1.17241 1.72523 199 199 191
-1.50622 0.295078 1.71043 191 190 186
-1.52124 0.37465 1.70893 104 100 97
-1.4887 0.112036 1.71475 52 47 25
-1.5009 0.183965 1.71753 89 100 94
-1.44139 -0.402239 1.72918 58 66 68
-1.49958 0.156144 1.72048 214 215 220
-1.4981 0.0992763 1.72301 195 192 185
-1.50816 0.197002 1.72355 22 21 17
-1.48252 -0.0851016 1.73128 154 142 142
-1.45005 -0.44232 1.73531 23 23 13
-1.45499 -0.347724 1.73671 100 118 128
-1.44501 -0.411887 1.73832 58 51 33
-1.43728 -0.602022 1.74294 101 107 97
-1.47887 -0.212174 1.73708 58 84 97
-1.4311 -0.624192 1.74765 199 198 193
-1.45248 -0.361397 1.74924 44 42 29
-1.37965 -1.17746 1.7604 203 203 195
-1.49625 0.83404 1.74099 216 215 210
-1.43187 -0.640503 1.75315 199 199 191
-1.49015 0.857967 1.74825 215 214 209
-1.43497 -0.849107 1.76721 29 26 19
-1.43446 -0.908697 1.76804 21 16 10
-1.4206 -1.0599 1.77553 209 208 203
-1.41115 -1.0787 1.78619 207 206 201
-1.40378 -1.15087 1.79946 151 144 136
-1.50834 -0.278341 1.84262 113 101 85
-1.4956 -0.427172 1.86861 101 81 70
-0.287573 0.327758 2.40893 209 208 203
-0.192937 0.463254 2.47595 49 41 30
-0.149673 0.997134 2.49834 201 195 183
-0.129283 0.753061 2.51591 136 134 122
0.00172551 0.315059 2.61643 119 122 113
0.0550488 0.442799 2.65881 132 128 116
0.184746 0.981733 2.73651 164 158 146
0.0639182 0.469161 2.8884 142 142 132
0.0488471 0.293037 2.89552 129 126 117
0.0680613 0.626378 2.89376 120 120 112
0.0651598 0.516428 2.89891 130 130 118
0.0621356 0.32473 2.89873 124 124 116
0.0763029 0.653658 2.90657 137 134 127
0.0713123 0.484287 2.92635 150 150 142
0.0681325 0.306608 2.93088 89 86 77
0.17574 0.767279 2.91671 120 113 103
0.0915631 0.669881 2.97084 122 119 112
0.099758 0.512609 2.97308 130 129 125
0.75529 0.470403 2.79342 117 117 107
0.102919 0.691991 2.98358 118 118 110
0.760977 0.934391 3.31223 0 0 0
0.791187 0.958696 3.33423 0 0 0
0.855994 0.806456 3.38493 0 0 0
0.871786 0.832821 3.39509 0 0 0
0.866931 0.714444 3.40623 0 0 0
0.894816 0.871261 3.40897 0 0 0
0.940007 0.708117 3.45819 0 0 0
0.940007 0.708117 3.45819 0 0 0
1.07293 0.756043 3.53484 0 0 0
1.07293 0.756043 3.53484 0 0 0
-2.82339 -2.36253 3.01863 67 74 66
-1.15865 -1.23435 1.6439 76 73 66
-1.24138 -1.51567 1.671 33 41 30
-2.77414 -2.23201 1.74748 30 30 20
-3.55104 -1.96022 1.81521 208 207 202
-3.52415 -1.96897 1.81635 212 211 206
-1.44325 -1.50683 1.79084 187 174 165
-3.60489 -1.89928 1.84843 141 143 132
-1.4387 -1.22201 1.80996 181 181 173
-0.987409 -1.46344 1.81984 23 26 17
-0.744849 -1.57843 1.99432 187 184 175
-0.355427 -0.491036 3.40231 0 0 0
-0.672061 0.343557 1.70149 214 213 208
-1.59868 0.836791 1.57681 215 214 209
-1.57971 -1.5425 1.5903 26 27 21
-0.363239 -1.16351 1.78841 12 13 7
-0.577869 -1.1892 1.78416 49 42 34
-0.328419 -1.2855 1.85318 21 23 12
-0.328419 -1.2855 1.85318 21 23 12
-1.36271 -1.59585 1.70858 42 41 36
-1.6687 0.667923 1.67673 21 22 16
-1.23744 -1.12858 1.7825 194 194 186
-1.61832 -1.28579 1.7365 208 207 203
-1.11155 -1.15158 1.8002 208 207 203
-1.08819 -1.1545 1.80321 208 207 203
-1.71805 -1.28828 1.73866 207 206 201
-0.391391 -1.33295 1.90444 41 47 45
-0.797655 -1.29306 1.85629 113 122 119
-1.32432 -1.15328 1.79574 190 190 182
-0.842846 -1.29124 1.85395 22 33 25
-1.76257 -1.27943 1.7455 199 198 193
-1.21874 -1.1716 1.81093 208 207 202
-1.83821 -1.61291 1.74613 38 41 34
-0.82684 -1.31342 1.90637 27 27 15
-1.18075 -1.13824 2.16253 207 206 202
