ply
format ascii 1.0 
element vertex 1336
property float32 x 
property float32 y 
property float32 z
property uchar red  
property uchar green
property uchar blue
element face 0
property list uchar int vertex_indices
end_header
-0.661171 0.567788 6.72488 117 131 158
-0.726886 -0.993114 7.39641 125 101 123
-0.662567 0.493465 6.74336 56 72 105
-0.720998 -0.755639 7.37058 105 123 147
-0.716035 -0.744663 7.3588 55 81 108
-0.716035 -0.744663 7.3588 55 81 108
-0.716643 -0.792022 7.36958 61 84 115
-0.716643 -0.792022 7.36958 61 84 115
-0.715228 -0.726638 7.36019 60 79 111
-0.716393 -0.814992 7.37247 65 83 119
-0.718355 -1.00943 7.40319 109 86 80
-0.718355 -1.00943 7.40319 109 86 80
-0.717414 -0.949579 7.39443 167 167 165
-0.717918 -1.01651 7.40668 93 79 68
-0.717918 -1.01651 7.40668 93 79 68
-0.716465 -1.07804 7.40118 126 99 90
-0.689243 -0.501627 7.15208 103 88 85
-0.689243 -0.501627 7.15208 103 88 85
-0.712894 -1.08101 7.40504 102 79 71
-0.712894 -1.08101 7.40504 102 79 71
-0.709771 -0.884828 7.37246 122 113 104
-0.708334 -0.719433 7.36716 62 83 112
-0.705133 -0.710989 7.35507 59 78 110
-0.702405 -0.701744 7.34005 56 81 112
-0.65245 0.025515 6.82623 104 114 139
-0.65245 0.025515 6.82623 104 114 139
-0.649193 0.170206 6.80222 78 70 67
-0.649193 0.170206 6.80222 78 70 67
-0.647995 0.245042 6.78971 158 158 158
-0.680354 -0.479079 7.132 128 125 116
-0.678099 -0.474049 7.13982 132 129 120
-0.643748 0.293399 6.78405 149 146 137
-0.647315 -0.0601662 6.83553 108 124 150
-0.647315 -0.0601662 6.83553 108 124 150
-0.69755 -0.768579 7.37771 98 106 152
-0.644351 0.110431 6.81905 137 129 118
-0.644351 0.110431 6.81905 137 129 118
-0.695203 -0.722758 7.3573 57 76 109
-0.673422 -0.477153 7.13561 147 140 130
-0.64185 0.200744 6.80775 102 102 102
-0.690714 -0.736872 7.36781 58 74 110
-0.694142 -1.09376 7.40687 75 65 64
-0.667469 -0.486872 7.1465 150 142 129
-0.684167 -0.700196 7.33531 63 82 114
-0.68401 -0.72371 7.37418 56 76 109
-0.683355 -0.735698 7.37003 61 77 113
-0.629197 -0.0445825 6.83116 113 128 151
-0.618492 0.449182 6.74326 132 122 113
-0.628767 0.0305775 6.85555 110 127 153
-0.621682 0.248437 6.8076 163 165 164
-0.620014 0.336458 6.79683 153 144 137
-0.601475 0.283888 6.75716 165 160 154
-0.604077 -0.101545 6.79218 152 147 143
-0.601154 0.207299 6.76249 115 111 110
-0.601066 0.214506 6.82415 88 82 84
-0.599689 0.208417 6.82398 105 99 99
-0.581325 -0.135121 6.76987 94 82 84
-0.512756 -0.176354 6.07071 78 71 63
-0.563744 -0.194305 6.67868 78 71 63
-0.549322 0.35338 6.58204 159 156 149
-0.544038 0.360744 6.59723 160 157 150
-0.549654 -0.188616 6.68733 88 70 68
-0.545356 -0.17143 6.6914 93 77 80
-0.606261 -0.797142 7.48919 57 77 112
-0.613602 -0.89652 7.58069 117 109 107
-0.613602 -0.89652 7.58069 117 109 107
-0.542903 -0.129196 6.73571 96 86 87
-0.536086 -0.166738 6.69032 82 72 71
-0.532698 -0.044388 6.70464 115 129 155
-0.524311 0.479784 6.61458 67 89 113
-0.533419 -0.127818 6.73034 146 136 134
-0.529611 -0.113876 6.71863 145 142 133
-0.517048 0.454741 6.61739 141 134 116
-0.519013 0.333143 6.65386 153 150 145
-0.52075 -0.0897291 6.71682 137 128 119
-0.50069 0.00894377 6.73191 62 85 117
-0.497982 -0.0596889 6.72322 108 125 151
-0.495181 -0.182091 6.70769 81 69 69
-0.472509 0.440912 6.64678 112 109 100
-0.461536 0.563021 6.62988 58 83 114
-0.521072 -1.26451 7.72534 157 144 127
-0.45071 -0.176169 6.7236 108 84 97
-0.450787 -0.163819 6.72511 61 56 52
-0.507703 -1.29569 7.7022 129 123 111
-0.443674 -0.264273 6.79348 51 54 61
-0.486939 -0.912781 7.46109 135 130 110
-0.480153 -0.933324 7.48535 162 155 136
-0.491895 -1.30393 7.69722 135 135 125
-0.490589 -1.29668 7.69841 126 123 116
-0.488354 -1.21759 7.68802 122 106 91
-0.427704 0.0536028 6.73884 52 68 93
-0.425948 -0.00951168 6.74821 73 88 119
-0.425917 -0.125236 6.75321 150 146 135
-0.464263 -0.882425 7.43975 118 108 99
-0.478981 -1.23488 7.6846 109 91 91
-0.421078 -0.0601807 6.75998 61 74 91
-0.41875 -0.00286452 6.74162 69 87 111
-0.416983 0.23273 6.71705 148 145 140
-0.415568 0.280163 6.70884 155 154 149
-0.415568 0.280163 6.70884 155 154 149
-0.455573 -0.88446 7.44161 100 98 86
-0.455573 -0.88446 7.44161 100 98 86
-0.412979 -0.00887822 6.74887 72 79 108
-0.45016 -0.890858 7.44983 130 128 116
-0.405705 0.171452 6.71506 94 92 95
-0.405705 0.171452 6.71506 94 92 95
-0.447671 -0.881785 7.44501 112 112 102
-0.400543 0.452468 6.67521 90 91 95
-0.447227 -0.903106 7.45868 128 117 113
-0.445677 -0.910283 7.47151 60 65 61
-0.445677 -0.910283 7.47151 60 65 61
-0.456288 -1.24581 7.68211 148 148 122
-0.390379 0.351181 6.61457 131 134 139
-0.441294 -0.914866 7.48325 84 86 85
-0.438515 -0.880127 7.43994 132 122 112
-0.448594 -1.25243 7.67468 144 145 131
-0.446885 -1.22076 7.67116 81 72 67
-0.452224 -1.41888 7.77179 145 138 128
-0.384303 0.370682 6.63021 128 137 146
-0.450079 -1.40752 7.7687 145 137 126
-0.446221 -1.36086 7.7196 128 120 97
-0.430698 -0.881515 7.45768 104 102 90
-0.445487 -1.37058 7.72417 134 123 101
-0.386565 -0.0680959 6.7692 67 80 96
-0.390153 -0.266098 6.84061 57 55 68
-0.44123 -1.39768 7.76964 131 128 121
-0.432939 -1.21518 7.6708 70 74 77
-0.423051 -0.919156 7.49712 123 124 116
-0.439356 -1.51234 7.79153 116 112 111
-0.372002 0.345317 6.60798 112 122 131
-0.436132 -1.44832 7.77597 107 111 114
-0.436132 -1.44832 7.77597 107 111 114
-0.383254 -0.256163 6.83909 148 143 140
-0.435404 -1.41836 7.77675 116 113 120
-0.42809 -1.43082 7.78065 101 96 100
-0.410344 -0.945479 7.51484 125 130 134
-0.421295 -1.26253 7.72164 155 142 134
-0.421295 -1.26253 7.72164 155 142 134
-0.37065 -0.236795 6.82071 135 138 143
-0.419356 -1.3498 7.7427 126 125 120
-0.419356 -1.3498 7.7427 126 125 120
-0.362807 -0.242874 6.81626 78 77 91
-0.360227 -0.309209 6.89562 129 135 135
-0.384853 -0.817071 7.39771 92 83 68
-0.390824 -0.94425 7.51648 156 152 143
-0.351112 -0.121375 6.78388 104 106 118
-0.34156 0.405628 6.6569 146 133 117
-0.383551 -0.95379 7.52529 165 158 148
-0.343507 -0.0507793 6.78509 140 142 139
-0.381676 -0.992111 7.56685 167 156 138
-0.381883 -1.01955 7.57405 174 161 144
-0.38079 -1.00075 7.55638 164 156 135
-0.350844 -0.467208 7.01865 107 93 84
-0.350401 -0.439573 7.03495 120 102 92
-0.350401 -0.439573 7.03495 120 102 92
-0.368853 -0.861045 7.45559 115 106 91
-0.362416 -0.91533 7.50901 108 96 84
-0.324333 -0.172357 6.76796 127 103 91
-0.324333 -0.172357 6.76796 127 103 91
-0.324333 -0.172357 6.76796 127 103 91
-0.357336 -0.909437 7.50554 116 108 95
-0.333445 -0.425076 7.02318 128 117 99
-0.323208 -0.276863 6.84057 132 114 102
-0.32096 -0.0809061 6.79863 129 113 98
-0.32096 -0.0809061 6.79863 129 113 98
-0.359923 -1.25533 7.75748 98 76 55
-0.342853 -0.909694 7.52723 119 117 105
-0.307103 -0.172161 6.76954 89 76 60
-0.308934 -0.249631 6.84889 128 121 105
-0.344495 -1.27979 7.75206 161 144 134
-0.329734 -0.884747 7.49697 116 112 109
-0.296658 -0.212579 6.78311 141 132 125
-0.291533 -0.149897 6.80169 69 59 50
-0.289681 -0.24497 6.84971 117 113 110
-0.283011 -0.209382 6.78751 136 127 120
-0.283011 -0.209382 6.78751 136 127 120
-0.280556 -0.302189 6.85478 113 96 89
-0.280952 -0.491777 6.87843 59 59 57
-0.277314 -0.162121 6.79358 108 90 86
-0.305133 -0.913387 7.51922 101 97 94
-0.27529 -0.3179 6.86951 132 117 98
-0.274702 -0.284932 6.8571 109 98 94
-0.270828 -0.0707206 6.79129 123 126 133
-0.272594 -0.249962 6.84057 144 143 138
-0.2736 -0.400293 6.88337 133 116 96
-0.272426 -0.39232 6.88413 138 119 102
-0.269332 -0.262272 6.85238 145 137 134
-0.268368 -0.294168 6.86453 121 108 91
-0.267574 -0.319351 6.86868 137 129 108
-0.263804 -0.386362 6.88906 141 133 120
-0.259882 0.0255559 6.80668 107 87 76
-0.287568 -1.02073 7.60869 169 155 129
-0.281562 -1.03322 7.61133 166 151 122
-0.246074 -0.265693 6.87389 115 107 88
-0.271389 -1.03998 7.60996 165 155 128
-0.235885 -0.166079 6.79513 80 75 79
-0.259437 -0.896614 7.54193 111 107 98
-0.26166 -1.04622 7.61866 164 153 135
-0.23258 0.00913 6.81599 130 124 110
-0.254108 -0.903283 7.54167 133 126 118
-0.231024 -0.479104 6.88454 114 107 101
-0.226596 -0.392363 6.89582 129 125 114
-0.221966 0.294455 6.77366 152 144 142
-0.219722 0.333852 6.76479 137 131 135
-0.241516 -0.888992 7.53888 97 88 71
-0.241002 -0.873294 7.52354 102 89 72
-0.216534 -0.194175 6.80128 149 142 134
-0.240689 -0.918911 7.56813 99 87 71
-0.238801 -0.89527 7.54333 94 84 72
-0.217385 -0.408888 6.89521 101 87 74
-0.21392 -0.173521 6.80937 153 150 141
-0.232225 -0.87554 7.52448 107 99 78
-0.232225 -0.87554 7.52448 107 99 78
-0.211637 -0.403391 6.89832 121 103 89
-0.201377 0.536404 6.7169 58 53 34
-0.203158 -0.0660619 6.83307 108 94 83
-0.204957 -0.477944 6.90765 122 115 97
-0.202899 -0.355303 6.8919 119 115 116
-0.20165 -0.496255 6.89567 82 62 63
-0.19565 -0.494433 6.91246 91 72 74
-0.209841 -0.930027 7.58575 121 120 102
-0.189326 -0.447935 6.91608 130 117 108
-0.181934 -0.165257 6.83458 53 45 43
-0.182788 -0.315805 6.91227 130 124 110
-0.18086 0.0581247 6.86373 123 119 107
-0.176994 0.600147 6.76646 118 112 96
-0.17851 0.228861 6.84319 134 130 121
-0.177076 -0.116831 6.84652 166 165 171
-0.177076 -0.116831 6.84652 166 165 171
-0.178876 -0.501033 6.91761 88 69 71
-0.173263 0.106884 6.85417 118 116 101
-0.170504 0.637537 6.77608 140 127 119
-0.169151 -0.111491 6.83943 113 108 114
-0.170505 -0.528877 6.93355 100 81 77
-0.170505 -0.528877 6.93355 100 81 77
-0.166045 -0.168786 6.81385 69 56 63
-0.169254 -0.356239 6.96657 115 109 97
-0.165455 -0.431887 6.91583 125 116 109
-0.165351 -0.589468 6.95453 115 108 100
-0.164455 -0.524291 6.93106 95 66 68
-0.162752 -0.437067 6.90973 128 124 115
-0.159981 -0.124866 6.84462 110 99 97
-0.159529 -0.421553 6.9129 125 120 114
-0.16014 -0.604232 6.94663 110 105 102
-0.155524 0.639574 6.77732 155 149 137
-0.154895 -0.526334 6.9294 99 74 77
-0.155331 -0.604391 6.9541 119 113 113
-0.155203 -0.573123 6.95465 123 124 108
-0.15228 -0.6191 6.9554 122 123 115
-0.150634 -0.560632 6.93375 90 83 75
-0.148407 -0.133432 6.8513 131 124 118
-0.149475 -0.567081 6.94071 129 125 114
-0.148297 -0.43109 6.91637 127 123 122
-0.148595 -0.592068 6.94728 135 127 125
-0.146073 -0.488898 6.92683 124 124 116
-0.14598 -0.546442 6.92718 87 72 69
-0.141977 -0.154469 6.84038 87 73 72
-0.143081 -0.625835 6.94648 132 127 121
-0.141904 -0.616506 6.94974 133 131 119
-0.141177 -0.606169 6.94386 107 103 102
-0.134528 0.47085 6.74326 149 145 134
-0.134006 0.619328 6.7871 108 95 87
-0.135708 -0.575041 6.95976 131 134 123
-0.133057 0.109923 6.87628 121 118 109
-0.133057 0.109923 6.87628 121 118 109
-0.131555 -0.483971 6.93607 126 129 120
-0.131555 -0.483971 6.93607 126 129 120
-0.128885 -0.57143 6.96341 124 124 112
-0.128483 -0.580913 6.94662 131 126 120
-0.125696 0.139913 6.84679 116 112 109
-0.135078 -0.778372 7.46855 79 73 77
-0.118888 -0.527829 6.96167 89 76 68
-0.117335 -0.513731 6.93 80 73 67
-0.117335 -0.513731 6.93 80 73 67
-0.129751 -1.03903 7.84123 170 163 155
-0.11335 -0.146673 6.86948 94 74 75
-0.111228 0.865293 6.7574 140 140 132
-0.111228 0.865293 6.7574 140 140 132
-0.111273 0.592543 6.77348 78 96 110
-0.111273 0.592543 6.77348 78 96 110
-0.110569 0.531407 6.76139 98 111 130
-0.110569 0.531407 6.76139 98 111 130
-0.112874 -0.494996 6.94878 93 80 87
-0.112116 -0.427195 6.93445 60 62 57
-0.104947 0.61244 6.8009 83 95 111
-0.105451 -0.0104326 6.84948 89 83 87
-0.104245 0.429271 6.79661 141 129 113
-0.0997012 0.615905 6.80547 79 92 111
-0.100341 -0.132068 6.86952 81 63 75
-0.101068 -0.493834 6.95336 80 69 73
-0.0966871 0.638195 6.80131 70 70 78
-0.1091 -0.877937 7.76484 80 86 98
-0.0928602 0.642873 6.80017 82 77 81
-0.0937386 0.110474 6.89372 114 113 108
-0.0925715 -0.141893 6.87175 85 70 77
-0.092953 -0.465902 6.93775 107 107 109
-0.0926081 -0.524918 6.95313 88 70 66
-0.0920924 -0.540892 6.95026 91 77 76
-0.0920605 -0.30916 6.94621 73 86 95
-0.102376 -1.03876 7.79834 157 149 136
-0.0910106 -0.530066 6.9501 75 64 58
-0.0894734 0.152641 6.90491 103 89 88
-0.0863924 0.630603 6.80282 83 94 114
-0.088059 -0.472722 6.94828 132 132 134
-0.0854198 0.580099 6.82286 137 132 154
-0.0851152 -0.536339 6.94899 77 63 62
-0.0834236 -0.100096 6.87716 129 125 124
-0.0840279 -0.496579 6.95225 87 78 81
-0.0806864 0.582976 6.81268 28 51 65
-0.0793373 -0.521788 6.96582 68 66 54
-0.0734153 0.0584028 6.88463 84 104 115
-0.0734042 -0.121201 6.87962 127 121 125
-0.0799129 -1.03838 7.75493 162 156 144
-0.0753558 -1.05809 7.72128 85 66 70
-0.0717917 -1.0396 7.74623 165 150 143
-0.0614688 -1.00177 7.73857 168 161 153
-0.0529713 -0.368498 6.95214 69 85 108
-0.0575089 -0.896442 7.72003 102 108 122
-0.0557257 -0.98775 7.72075 160 149 143
-0.048242 -0.210317 6.92725 128 128 120
-0.0477935 -0.236483 6.93204 132 131 126
-0.0513042 -0.885589 7.71659 82 103 120
-0.0446748 -0.168454 6.86369 79 71 69
-0.0439529 -0.195181 6.91783 75 67 65
-0.0431594 -0.471396 6.96246 119 119 111
-0.045172 -1.05402 7.68379 138 131 112
-0.0368271 -0.384928 6.95333 74 91 101
-0.0328383 0.350505 6.8107 127 126 124
-0.0337177 -1.06082 7.66493 159 142 132
-0.0230206 -0.856769 7.64283 76 89 105
-0.0142561 -0.909825 7.66278 121 118 113
-0.0142536 -1.06889 7.65871 105 79 90
-0.00919861 -0.23149 6.94093 118 119 113
-0.00863589 -0.166303 6.88214 66 60 62
-0.00819152 0.0192384 6.90379 87 107 131
-0.00819152 0.0192384 6.90379 87 107 131
-0.00637387 -1.06312 7.68541 168 149 143
-0.00356957 -0.898857 7.64586 121 124 117
-0.00356957 -0.898857 7.64586 121 124 117
-0.00205166 -0.784968 7.64313 72 91 106
-0.00135691 -1.03665 7.67888 160 153 135
-4.40191e-05 -0.252945 6.9587 135 129 117
0.00303403 -0.988988 7.66815 167 160 144
0.00303403 -0.988988 7.66815 167 160 144
0.00305828 -0.978366 7.67241 158 151 133
0.00378594 -0.964705 7.66979 158 149 132
0.00449241 -1.05115 7.67061 159 150 135
0.00511618 0.545636 6.78576 78 99 130
0.00646006 -0.920846 7.65531 124 120 119
0.00653261 -0.899284 7.65695 114 114 114
0.00710217 -0.261845 6.94689 117 117 107
0.0085245 -0.852843 7.64886 87 95 114
0.0080447 -0.03897 6.90135 82 100 124
0.0130878 -0.711476 7.63331 51 64 73
0.0128548 -0.171548 6.88212 63 57 59
0.0134681 -0.31563 6.97075 91 105 131
0.0161078 -0.194591 6.89723 85 71 71
0.0182455 -1.04948 7.67813 136 110 109
0.0190144 -0.970077 7.6702 139 125 114
0.0176084 -0.289688 6.96834 71 87 112
0.0195239 0.0365997 6.89976 82 102 129
0.0214101 -0.0541324 6.90352 82 100 124
0.0215986 -0.294034 6.96656 55 71 96
0.0240821 -1.05733 7.68852 123 98 93
0.0259886 0.0390348 6.90846 76 97 118
0.0327438 -1.06605 7.67677 117 87 85
0.0330871 -1.02761 7.6853 164 158 142
0.0348796 -0.983686 7.67851 161 163 152
0.0352378 -0.952059 7.6755 138 136 124
0.0355376 -1.04232 7.67993 179 158 163
0.0333685 -0.16331 6.88947 75 69 71
0.0333685 -0.16331 6.88947 75 69 71
0.047391 -0.692402 7.63503 116 105 103
0.0519478 -1.07293 7.68562 104 81 75
0.0519478 -1.07293 7.68562 104 81 75
0.0472069 -0.246056 6.96992 122 121 117
0.0472069 -0.246056 6.96992 122 121 117
0.0529466 -0.702676 7.64262 100 88 98
0.0477352 0.62682 6.80579 97 74 56
0.0554039 -0.6864 7.63642 121 111 112
0.0554039 -0.6864 7.63642 121 111 112
0.0564558 -0.676085 7.64564 118 114 113
0.0586509 -1.06461 7.6841 117 89 85
0.053641 -0.236516 6.96842 129 128 123
0.0597491 -0.664739 7.614 119 115 112
0.0567073 -0.207153 6.94657 121 124 113
0.0614713 -0.153782 6.91028 66 57 60
0.0614011 0.477345 6.8096 108 117 146
0.0630983 -0.0160005 6.92354 104 129 149
0.0663979 -0.193531 6.91017 67 57 55
0.0706844 -0.160778 6.90531 85 73 75
0.0719684 -0.0130539 6.92294 100 122 146
0.0724906 0.264615 6.88458 130 128 129
0.0925769 -0.860202 7.82172 120 124 125
0.0847393 -0.117287 6.94216 119 113 113
0.0862336 -0.0653306 6.95115 106 117 139
0.0862336 -0.0653306 6.95115 106 117 139
0.111394 -0.861923 7.8479 60 78 80
0.127847 -0.860786 7.84548 122 147 118
0.115897 0.346087 6.90587 134 136 133
0.141686 -0.99566 8.12432 123 124 119
0.135596 -0.930627 7.58181 118 117 115
0.127113 -0.203458 6.98938 85 72 79
0.134292 -0.1563 6.91105 82 71 79
0.134292 -0.1563 6.91105 82 71 79
0.153152 -0.858337 7.84651 129 146 127
0.135845 -0.141748 6.93742 86 77 78
0.157657 -0.448529 7.44281 73 89 102
0.165147 -0.22768 7.03482 117 118 112
0.184483 -0.503143 7.46889 104 103 101
0.186196 -0.450542 7.44231 67 83 96
0.177461 -0.0548207 6.97536 88 98 99
0.180754 0.241768 6.92735 121 126 122
0.183253 0.0216326 6.95006 88 99 101
0.200845 -0.47686 7.46477 112 109 104
0.223041 -0.834044 7.8559 70 84 113
0.225488 -0.854918 7.87409 96 107 103
0.219354 -0.441604 7.4596 74 81 99
0.208196 -0.207052 7.03259 83 71 71
0.235085 -0.848278 7.87595 85 94 99
0.209326 -0.000757519 6.98299 85 105 138
0.21245 -0.0770704 6.98334 107 107 109
0.242617 -0.886528 7.90701 236 239 244
0.214904 -0.0437471 6.97846 85 98 104
0.245037 -0.868237 7.90713 169 188 160
0.217588 -0.09352 6.9943 114 108 112
0.220116 -0.238519 7.0624 117 113 112
0.246635 -0.853789 7.8921 75 86 88
0.247444 -0.823224 7.85779 77 102 132
0.253427 -0.791161 7.8305 73 84 90
0.256226 -0.845352 7.87533 85 89 100
0.257713 -0.825364 7.86327 76 95 125
0.262381 -0.852137 7.89016 71 80 85
0.23308 -0.15512 6.95618 73 67 69
0.231101 0.500408 6.89278 104 112 149
0.267783 -0.85736 7.89613 105 115 107
0.268384 -0.822692 7.8618 82 104 128
0.239481 -0.0583396 6.99356 81 89 91
0.239481 -0.0583396 6.99356 81 89 91
0.284957 -0.866173 7.90827 130 145 116
0.284957 -0.866173 7.90827 130 145 116
0.264244 -0.306176 7.21585 29 34 38
0.255196 0.34327 6.91624 124 128 129
0.261641 -0.14508 6.97402 71 66 73
0.274999 -0.0585159 6.97761 78 91 99
0.317627 -0.855784 7.90822 64 81 91
0.317627 -0.855784 7.90822 64 81 91
0.320705 -0.844187 7.91074 68 75 103
0.331349 -0.856279 7.92453 57 67 69
0.349688 -0.854674 7.92376 29 42 33
0.320435 -0.310721 7.24786 78 69 70
0.325605 -0.136409 7.00373 78 67 71
0.338021 -0.257554 7.24555 105 104 109
0.347088 -0.356314 7.23464 65 69 70
0.384748 -0.823208 7.91074 89 98 115
0.362097 0.491701 7.09732 49 61 101
0.372896 -0.303828 7.27686 70 76 100
0.41384 -0.847259 7.94755 97 99 98
0.382434 -0.358531 7.2691 61 70 67
0.387664 -0.365384 7.27637 25 47 61
0.387664 -0.365384 7.27637 25 47 61
0.422044 -0.815049 7.91618 93 92 100
0.425749 -0.895836 7.96929 112 114 155
0.38512 -0.101774 7.1933 96 97 101
0.433547 -0.857029 7.95244 60 80 107
0.39786 -0.361577 7.2701 48 72 98
0.39786 -0.361577 7.2701 48 72 98
0.435974 -0.839106 7.95078 44 69 99
0.399335 -0.0629495 7.22686 62 75 107
0.436723 -0.791272 7.89922 57 76 108
0.404248 -0.354682 7.27047 89 104 135
0.443762 -0.884473 7.97423 83 99 133
0.442297 -0.815201 7.92489 78 89 121
0.444177 -0.844091 7.94563 82 92 127
0.444928 -0.796288 7.90557 20 45 65
0.444928 -0.796288 7.90557 20 45 65
0.403305 0.646573 7.12333 75 107 154
0.410606 0.943487 7.06711 116 119 134
0.42086 -0.10009 7.20549 110 102 117
0.424847 0.0779017 7.22089 59 67 70
0.429182 -0.366863 7.28172 62 67 73
0.433021 -0.0955883 7.21152 81 77 78
0.485763 0.364751 7.99535 103 105 117
0.438595 0.330443 7.21612 103 110 120
0.438595 0.330443 7.21612 103 110 120
0.446001 0.357195 7.12947 98 110 124
0.457515 -0.352341 7.29062 80 79 74
0.45858 -0.357892 7.29451 77 78 73
0.478649 -0.114025 7.22251 62 65 82
0.490549 0.0597897 7.23705 75 89 100
0.491688 0.113051 7.22962 90 94 106
0.494072 0.211898 7.21981 69 67 89
0.506518 -0.0914762 7.22935 26 34 45
0.50332 0.59448 7.15616 60 69 86
0.535122 -0.488388 7.59926 79 77 88
0.508532 0.373581 7.21159 70 70 78
0.515187 -0.0161581 7.27325 69 74 80
0.515187 -0.0161581 7.27325 69 74 80
0.504841 0.949479 7.11135 92 99 109
0.571679 -0.84311 7.9878 52 61 70
0.571679 -0.84311 7.9878 52 61 70
0.5491 -0.438361 7.58875 62 70 73
0.577902 -0.854848 7.98112 55 58 63
0.533858 -0.332863 7.33779 73 77 80
0.533339 -0.175928 7.30842 42 51 58
0.530457 -0.0962358 7.24952 38 55 63
0.559453 -0.433044 7.59201 76 85 90
0.537116 0.39713 7.19042 79 79 105
0.537116 0.39713 7.19042 79 79 105
0.549888 -0.155572 7.30845 49 55 67
0.552847 -0.162249 7.31831 42 55 64
0.574708 -0.41458 7.58228 86 104 118
0.608358 -0.812464 7.98131 78 91 107
0.612213 -0.885636 8.02911 83 86 95
0.581301 -0.420744 7.59662 86 103 121
0.615533 -0.862972 8.03159 66 77 83
0.615377 -0.835009 8.00476 72 81 96
0.555518 0.342902 7.21117 90 107 125
0.619571 -0.864596 8.03229 70 77 85
0.554298 0.510121 7.17911 63 72 87
0.562605 -0.00469999 7.25425 67 76 91
0.561693 0.518424 7.16742 51 60 77
0.630358 -0.826929 8.01054 80 88 109
0.570478 -0.141787 7.25101 56 68 82
0.629753 -0.805664 7.9808 94 99 118
0.573566 0.221249 7.23525 80 72 95
0.631188 -0.766067 7.94762 78 91 108
0.575871 0.297167 7.22602 95 97 136
0.641476 -0.842786 8.04688 99 94 117
0.641476 -0.842786 8.04688 99 94 117
0.579344 -0.109791 7.24089 63 71 94
0.642938 -0.819971 8.00132 27 42 65
0.582469 0.605267 7.17396 43 60 76
0.655214 -0.824383 8.01372 16 25 42
0.585755 0.670082 7.15809 65 71 85
0.595625 0.0726834 7.27577 26 34 55
0.587023 0.742211 7.1455 64 74 84
0.662544 -0.832216 8.01987 25 39 40
0.662544 -0.832216 8.01987 25 39 40
0.594897 0.532855 7.1978 65 73 96
0.60445 -0.0936896 7.2707 70 83 100
0.59904 0.558929 7.18368 82 86 111
0.606529 0.158731 7.26504 64 70 86
0.607665 0.167056 7.27205 61 67 83
0.606838 0.317883 7.23449 66 78 102
0.613214 0.113304 7.26898 74 82 95
0.613214 0.113304 7.26898 74 82 95
0.613203 0.173259 7.2576 63 69 85
0.620347 -0.106164 7.27866 86 93 112
0.613098 0.59656 7.19065 62 78 91
0.613098 0.59656 7.19065 62 78 91
0.614495 0.670821 7.18158 93 101 120
0.617241 0.572905 7.20386 55 71 87
0.687827 -0.813601 8.01809 27 34 40
0.621943 0.38342 7.2251 41 58 65
0.645887 -0.30327 7.50047 65 69 96
0.622649 0.649873 7.1928 81 85 112
0.623416 0.895834 7.15035 43 59 72
0.625854 0.918215 7.139 90 92 115
0.641855 -0.0114545 7.32167 62 60 73
0.639072 -0.0914107 7.28821 74 81 100
0.638327 0.55633 7.21463 44 57 73
0.645975 0.107892 7.28943 68 80 94
0.645975 0.107892 7.28943 68 80 94
0.639126 0.549189 7.20825 37 56 70
0.653484 -0.151988 7.34544 64 68 97
0.640882 0.526821 7.18798 69 78 93
0.651995 0.259521 7.26529 69 85 101
0.657192 -0.0619199 7.32136 85 91 105
0.651752 0.556269 7.24664 91 96 116
0.660729 -0.00769535 7.31953 30 38 51
0.657494 -0.114818 7.28246 53 66 82
0.660098 0.0255133 7.3017 41 44 53
0.65692 0.342383 7.24425 55 60 79
0.671763 -0.197743 7.39488 32 39 49
0.662996 0.632333 7.20294 60 76 92
0.662996 0.632333 7.20294 60 76 92
0.664818 0.712864 7.19315 93 95 116
0.664818 0.712864 7.19315 93 95 116
0.669484 0.401364 7.23261 32 49 59
0.676935 0.00826449 7.30329 31 48 74
0.676935 0.00826449 7.30329 31 48 74
0.666556 0.78448 7.18066 49 57 78
0.666556 0.78448 7.18066 49 57 78
0.674511 0.455888 7.22919 85 81 106
0.669917 0.858419 7.16888 41 59 73
0.669917 0.858419 7.16888 41 59 73
0.692544 -0.286162 7.40694 68 74 96
0.685705 0.120745 7.30446 66 83 101
0.680221 0.557468 7.23799 58 64 90
0.672286 0.947387 7.15141 68 74 88
0.672286 0.947387 7.15141 68 74 88
0.760165 -0.835506 8.07569 38 49 53
0.687067 0.183782 7.28711 54 67 83
0.688018 0.170839 7.29279 56 69 86
0.689792 0.175814 7.29639 60 67 86
0.699911 -0.275555 7.39859 59 72 88
0.689193 0.245377 7.28239 62 64 76
0.694727 -0.0443076 7.32892 22 38 54
0.690663 0.269573 7.28032 54 60 76
0.690663 0.269573 7.28032 54 60 76
0.694637 0.0767767 7.30494 21 42 61
0.692957 0.271185 7.28119 47 59 71
0.689145 0.565083 7.23104 50 61 81
0.693925 0.356974 7.26156 58 69 87
0.706121 -0.173958 7.36651 32 39 58
0.700761 0.2966 7.26897 72 69 86
0.705879 0.0427207 7.31672 20 36 49
0.696947 0.528769 7.21051 62 69 87
0.696947 0.528769 7.21051 62 69 87
0.699768 0.552341 7.23299 65 65 89
0.713942 -0.215865 7.37029 46 47 65
0.716467 -0.231421 7.38379 45 50 70
0.70313 0.575378 7.24285 60 67 86
0.70313 0.575378 7.24285 60 67 86
0.78202 -0.810326 8.05091 22 36 49
0.79259 -1.00859 8.14158 90 99 116
0.72318 -0.296345 7.3909 56 56 80
0.72318 -0.296345 7.3909 56 56 80
0.712383 0.395588 7.26843 35 43 62
0.789879 -0.803305 8.05163 13 26 45
0.71294 0.472138 7.24389 35 54 69
0.795147 -0.80471 8.05235 22 35 52
0.730384 -0.326873 7.39235 31 43 57
0.714292 0.536459 7.22341 37 51 62
0.805626 -1.02548 8.14559 82 91 106
0.80567 -0.983416 8.14369 67 83 109
0.7231 -0.0840175 7.30842 30 36 50
0.731712 -0.186212 7.38196 20 32 46
0.807694 -1.01054 8.13222 75 86 104
0.806802 -0.916397 8.12363 39 54 73
0.72398 0.22187 7.28831 65 71 83
0.80753 -0.93293 8.1284 51 59 72
0.809547 -0.970883 8.14429 67 78 100
0.733043 -0.1474 7.36765 26 39 48
0.736035 -0.305686 7.38639 23 36 45
0.810667 -0.940319 8.13041 55 60 79
0.810667 -0.940319 8.13041 55 60 79
0.808095 -0.867758 8.09153 39 46 64
0.814569 -1.03576 8.15462 88 95 111
0.738233 -0.339444 7.39096 23 34 56
0.732195 -0.0144086 7.32975 28 41 57
0.802404 -0.785877 8.02891 40 47 65
0.816353 -0.978479 8.14777 63 75 101
0.814791 -0.949712 8.12781 45 59 72
0.729826 0.302986 7.27235 65 69 80
0.811661 -0.821437 8.06859 46 47 68
0.820786 -1.0089 8.12921 43 53 78
0.823046 -1.01901 8.13605 59 67 90
0.822823 -0.919745 8.13177 41 50 59
0.750105 -0.339694 7.39879 18 31 47
0.827859 -0.985275 8.15874 58 73 94
0.813603 -0.763193 8.01226 30 40 50
0.735669 0.619207 7.22997 50 68 82
0.753226 -0.304441 7.39038 20 39 43
0.824446 -0.867509 8.0836 28 36 49
0.824901 -0.817477 8.07648 24 41 51
0.75632 -0.343346 7.40439 30 40 50
0.747753 -0.0883542 7.31712 41 55 64
0.739491 0.673551 7.23473 71 89 103
0.833863 -1.01162 8.14542 70 81 99
0.741166 0.565018 7.22577 74 91 101
0.839914 -0.915608 8.13241 51 61 70
0.839945 -0.915423 8.13159 51 61 70
0.746256 0.895181 7.19786 101 111 138
0.76015 -0.100487 7.31786 67 77 89
0.847042 -0.832664 8.09737 35 45 55
0.849942 -0.814888 8.08338 61 70 79
0.772372 0.0974502 7.32829 78 91 107
0.859748 -0.840244 8.1089 60 67 77
0.862181 -0.861636 8.11212 62 68 82
0.780233 -0.0841733 7.33262 73 91 103
0.780233 -0.0841733 7.33262 73 91 103
0.865001 -0.85005 8.12032 61 69 80
0.865001 -0.85005 8.12032 61 69 80
0.789317 -0.34724 7.4098 70 80 92
0.778596 0.36631 7.29996 94 111 127
0.796109 -0.0810199 7.3331 86 103 121
0.796109 -0.0810199 7.3331 86 103 121
0.787244 0.4308 7.24131 104 116 138
0.813661 -0.305339 7.42712 92 105 124
0.80613 0.074997 7.34895 101 118 136
0.820257 -0.379333 7.42584 101 112 130
0.802909 0.652185 7.2428 247 246 226
0.802909 0.652185 7.2428 247 246 226
0.816174 -0.0834533 7.34862 115 121 135
0.816174 -0.0834533 7.34862 115 121 135
0.816174 -0.0834533 7.34862 115 121 135
0.824335 -0.352216 7.42007 104 111 130
0.798716 1.00155 7.17559 255 247 236
0.826107 -0.373942 7.41889 102 111 118
0.832343 -0.366595 7.429 156 158 145
0.832834 -0.378937 7.43003 156 160 146
0.830432 0.0238317 7.36185 245 240 220
0.82293 0.606177 7.26009 252 242 230
0.883367 -0.450298 7.73013 247 239 220
0.836166 0.415406 7.29969 255 247 237
0.887211 -0.46505 7.71855 253 239 226
0.858155 -0.343462 7.44202 251 244 228
0.838942 0.547189 7.26916 255 246 237
0.89318 -0.456654 7.72535 251 241 231
0.893408 -0.44501 7.71407 255 243 231
0.893408 -0.44501 7.71407 255 243 231
0.846099 0.434852 7.28872 255 250 240
0.895109 -0.430677 7.70619 251 243 230
0.870903 -0.301994 7.45242 255 245 235
0.901997 -0.460844 7.71693 254 244 234
0.913053 -0.462474 7.7278 254 245 236
0.913408 -0.474232 7.72593 255 246 237
0.871558 -0.0758644 7.35528 254 247 237
0.888683 -0.336612 7.44663 253 244 235
0.922027 -0.481388 7.72127 255 250 241
0.8904 -0.325753 7.44687 255 246 237
0.890973 -0.331403 7.44261 255 246 237
0.882878 -0.118466 7.36702 255 248 241
0.930568 -0.47391 7.72952 253 242 236
0.930568 -0.47391 7.72952 253 242 236
0.935907 -0.480525 7.70709 255 246 239
0.905128 -0.268168 7.44823 254 247 237
0.936702 -0.413606 7.70614 255 245 243
0.936702 -0.413606 7.70614 255 245 243
0.900983 0.0790527 7.39504 255 246 244
0.916267 -0.32512 7.45124 255 249 241
0.907074 -0.0959659 7.3671 255 245 243
0.918978 -0.187197 7.45012 255 251 251
0.900109 0.655679 7.29214 252 245 237
0.908222 0.389809 7.35614 233 215 227
0.916559 0.104947 7.39006 129 121 170
0.961008 -0.466254 7.74046 255 237 253
1.05649 -0.861474 8.43969 98 115 145
0.967228 -0.417843 7.72644 152 131 174
0.975463 -0.444331 7.73995 125 115 167
0.975463 -0.444331 7.73995 125 115 167
1.06434 -0.852993 8.42693 94 115 144
0.97693 -0.424203 7.73534 116 117 165
0.946379 -0.217832 7.47402 112 117 155
0.944769 -0.322447 7.45621 115 123 162
0.950292 -0.162538 7.4499 107 122 153
0.9458 -0.0272707 7.403 109 124 155
0.956167 -0.198845 7.45828 118 132 159
0.991746 -0.396775 7.72435 101 122 151
0.93968 0.632758 7.31406 255 246 252
0.958508 -0.163986 7.45367 110 127 155
0.958579 -0.15486 7.45275 106 126 151
0.952195 -0.115323 7.40029 105 125 150
0.961419 -0.178415 7.45931 117 131 160
1.02748 -0.614685 7.95337 99 115 148
0.963504 0.0917286 7.403 103 118 149
1.09731 -0.810181 8.39386 95 110 141
0.968772 0.164017 7.39596 105 120 151
0.97894 -0.164042 7.46138 103 116 148
0.974246 0.237201 7.38913 100 121 152
0.971837 0.608201 7.32339 123 137 163
0.982666 0.379748 7.36204 105 120 153
0.991961 0.0898389 7.41371 104 121 149
0.983796 0.532124 7.30815 109 122 156
0.999983 0.0657689 7.42421 102 123 152
0.984444 0.756507 7.29707 126 129 170
1.00201 -0.00224487 7.42274 106 122 148
0.988169 0.54301 7.30815 109 126 156
0.98543 0.844459 7.27253 158 154 189
1.00089 0.308649 7.3825 104 121 149
1.00422 0.380006 7.37092 102 115 150
1.01284 0.0734869 7.4073 101 117 150
1.01514 0.0872689 7.42153 93 108 141
1.02052 0.0927193 7.42934 93 108 141
1.13828 -0.884336 8.26246 85 107 131
1.01382 0.500421 7.3493 103 118 147
1.01277 0.446237 7.33944 100 117 147
1.01322 0.561177 7.34066 108 122 151
1.02522 0.217882 7.40457 105 120 149
1.03159 -0.0156427 7.44749 96 109 143
1.01543 0.759069 7.31154 101 111 146
1.02753 0.292083 7.39855 100 117 145
1.03597 -0.0261464 7.45446 89 105 130
1.0287 0.329374 7.39035 105 116 144
1.03521 0.217418 7.40098 103 120 150
1.1534 -0.640837 8.24284 92 109 137
1.03983 0.0720182 7.4241 95 116 143
1.03983 0.0720182 7.4241 95 116 143
1.0396 0.133228 7.42214 96 112 137
1.03534 0.49455 7.37052 98 107 138
1.02459 0.885172 7.2846 164 164 156
1.04033 0.317276 7.3937 103 117 146
1.04033 0.317276 7.3937 103 117 146
1.02742 0.846219 7.30009 134 141 149
1.04286 0.2238 7.40042 95 115 139
1.04614 0.272617 7.40885 112 121 150
1.0554 -0.0379402 7.46179 100 111 141
1.05619 0.00974839 7.44797 93 114 143
1.16874 -0.628539 8.2247 89 109 134
1.05031 0.357805 7.38553 106 115 144
1.17053 -0.589968 8.21914 94 109 138
1.07198 -0.169667 7.5166 99 113 142
1.08216 -0.299864 7.54733 93 107 134
1.05683 0.48807 7.36429 112 120 143
1.06696 -0.073725 7.43303 89 104 135
1.07105 0.00100965 7.45496 82 98 124
1.04554 0.994599 7.27519 255 245 245
1.05711 0.583055 7.3503 117 128 146
1.17622 -0.905587 8.17543 90 101 131
1.08698 -0.29311 7.53425 89 105 130
1.0766 0.0507724 7.45449 94 110 136
1.0597 0.732063 7.32637 170 168 169
1.07682 0.203624 7.44031 102 120 144
1.0607 0.799877 7.32322 222 215 207
1.0607 0.799877 7.32322 222 215 207
1.0787 0.114125 7.44059 100 114 140
1.09738 -0.256102 7.53688 85 100 129
1.07398 0.507136 7.36442 99 113 140
1.06636 0.870574 7.31004 176 166 167
1.07305 0.548498 7.3404 108 119 141
1.09035 0.0925423 7.44528 103 117 146
1.06809 0.964846 7.29251 255 250 231
1.0865 0.518275 7.39832 108 120 144
1.09142 0.166128 7.42806 94 110 136
1.08853 0.363027 7.40309 96 110 136
1.09234 0.238355 7.41378 97 115 135
1.19726 -0.924211 8.10878 88 100 126
1.1006 0.0572601 7.45515 82 97 126
1.11031 -0.0830153 7.51271 94 103 136
1.0964 -0.0825225 7.41683 94 103 136
1.09398 0.514128 7.38274 94 106 130
1.09698 0.565091 7.37637 104 119 142
1.09698 0.565091 7.37637 104 119 142
1.09624 0.599289 7.36766 119 126 145
1.09756 0.562482 7.36925 102 117 140
1.12405 -0.308756 7.53132 82 98 124
1.21002 -0.919919 8.09904 84 98 124
1.21002 -0.919919 8.09904 84 98 124
1.1239 -0.136787 7.50941 89 103 132
1.10202 0.611428 7.35931 120 128 149
1.10202 0.611428 7.35931 120 128 149
1.2151 -0.895073 8.09921 85 99 126
1.11815 0.168771 7.44398 89 103 129
1.11853 0.104091 7.44218 97 111 137
1.11853 0.104091 7.44218 97 111 137
1.10394 0.814623 7.3321 231 214 204
1.22354 -0.636247 8.08786 96 109 143
1.12381 0.308955 7.42305 89 101 125
1.11789 0.577389 7.37616 108 118 143
1.23305 -0.907892 8.08139 65 81 104
1.14906 -0.32116 7.52861 83 103 130
1.23328 -0.785582 8.06393 82 97 126
1.23719 -0.854251 8.07848 86 102 128
1.15217 -0.307371 7.52099 91 102 124
1.23818 -0.756041 8.06673 79 101 124
1.23803 -0.744584 8.06001 90 102 126
1.24458 -0.739009 8.05783 86 100 126
1.13877 0.76429 7.35223 130 126 149
1.25265 -0.837996 8.07713 87 104 124
1.25835 -0.786016 8.07198 84 101 121
1.1389 1.01705 7.29043 203 184 188
1.26444 -0.847103 8.08516 80 96 119
1.26444 -0.847103 8.08516 80 96 119
1.16622 0.18092 7.45387 81 99 123
1.18547 -0.324215 7.54746 94 107 139
1.26929 -0.807918 8.07412 86 102 127
1.17996 0.0328626 7.45731 86 103 131
1.27559 -0.608582 8.05126 84 95 127
1.16984 0.539663 7.38208 93 105 129
1.2828 -0.932333 8.08838 71 91 115
1.27962 -0.633619 8.0517 84 101 119
1.28089 -0.585457 8.04091 78 98 122
1.28089 -0.585457 8.04091 78 98 122
1.29284 -0.865716 8.09726 81 97 122
1.29456 -0.902517 8.10316 78 95 121
1.18871 0.407119 7.43914 77 95 119
1.29573 -0.873579 8.10159 75 93 115
1.29573 -0.873579 8.10159 75 93 115
1.28584 -0.505508 8.03923 84 101 119
1.17889 0.735666 7.36569 110 119 150
1.17378 0.548639 7.33289 99 114 135
1.18437 0.444738 7.39389 66 82 107
1.28952 -0.650541 8.04902 77 92 115
1.19862 0.0919341 7.47904 81 103 126
1.21408 -0.329251 7.56373 84 99 122
1.2161 -0.337269 7.55655 73 90 110
1.18473 0.728668 7.35859 84 95 123
1.21827 -0.353923 7.56144 84 100 123
1.30256 -0.693873 8.07269 76 93 111
1.21412 0.361038 7.48574 82 94 120
1.40908 -0.849318 8.6047 68 84 107
1.21545 0.619767 7.38923 83 101 123
1.41715 -0.84235 8.59869 74 92 112
1.4163 -0.738679 8.5779 80 98 118
1.4163 -0.738679 8.5779 80 98 118
1.42036 -0.775716 8.58769 78 95 113
1.42648 -0.839184 8.60329 81 93 115
1.26669 -0.282726 7.57984 85 106 125
1.44501 -0.801894 8.58382 83 100 120
1.26201 -0.0593517 7.49728 82 102 126
1.25124 0.44638 7.41904 91 103 125
1.24977 0.934044 7.40149 86 101 122
1.25167 0.627548 7.39714 114 122 135
1.26118 0.510503 7.41894 86 104 126
1.25964 0.594108 7.40841 91 103 119
1.27855 0.095498 7.49547 83 95 119
1.28287 0.0386342 7.50482 76 91 112
1.29602 -0.306098 7.57379 68 84 109
1.29894 0.216661 7.54562 90 104 130
1.28802 0.678949 7.46409 94 103 112
1.28802 0.678949 7.46409 94 103 112
1.28194 0.563025 7.3921 84 95 117
1.29143 0.836477 7.44052 95 102 121
1.45307 -0.612874 8.3608 69 90 111
1.31991 -0.304539 7.59244 78 89 109
1.46565 -0.695735 8.38148 76 95 112
1.47555 -0.705969 8.35759 69 86 106
1.3456 -0.195975 7.61973 75 93 105
1.48175 -0.683017 8.37874 70 85 108
1.33441 -0.0579545 7.52181 70 86 102
1.33893 0.00570814 7.53472 78 93 112
1.48637 -0.675284 8.35009 69 86 102
1.34227 -0.0759729 7.50295 79 96 116
1.3519 -0.0696497 7.51324 73 88 107
1.35566 0.119162 7.52521 65 82 100
1.371 -0.141086 7.60984 55 76 93
1.3638 -0.0477462 7.53507 62 82 93
1.3708 -0.109862 7.55255 81 99 103
1.37723 0.0385511 7.53309 60 74 85
1.34619 1.03019 7.35639 35 59 37
1.34619 1.03019 7.35639 35 59 37
1.3798 0.0872344 7.54002 63 74 78
1.38021 0.298186 7.51106 36 61 39
1.50714 -0.765683 8.1963 65 82 100
1.37032 0.697972 7.442 22 55 26
1.51043 -0.799999 8.1833 67 80 96
1.38696 0.305018 7.5123 37 59 36
1.38424 0.474871 7.47709 25 55 29
1.40055 0.0122443 7.56445 38 65 50
1.4025 -0.0225672 7.572 39 56 66
1.39969 0.0715281 7.5507 33 60 45
1.39591 0.262918 7.52922 25 52 35
1.39339 0.394138 7.49656 31 62 30
1.51937 -0.73504 8.17096 59 78 93
1.40346 -0.0980306 7.54414 63 71 74
1.39278 0.584695 7.46943 50 76 39
1.39749 0.500547 7.48306 27 57 31
1.39749 0.500547 7.48306 27 57 31
1.39749 0.500547 7.48306 27 57 31
1.40838 0.214282 7.53974 22 49 34
1.52358 -0.66706 8.15455 63 74 92
1.52358 -0.66706 8.15455 63 74 92
1.40338 0.376085 7.50927 21 49 24
1.38872 0.788305 7.42653 28 57 27
1.38872 0.788305 7.42653 28 57 27
1.40369 0.592482 7.46506 34 57 29
1.40771 0.496841 7.48608 25 53 28
1.42628 -0.0192382 7.56474 21 51 23
1.42808 -0.03591 7.56864 23 48 29
1.42218 -0.063849 7.51974 24 54 28
1.39913 1.00928 7.39451 32 55 27
1.54538 -0.789366 8.16266 67 79 93
1.54496 -0.697839 8.15595 58 77 92
1.5468 -0.757756 8.16143 68 79 97
1.41728 0.459618 7.47486 32 59 28
1.43384 0.0560912 7.55784 24 49 28
1.43412 0.0649193 7.55583 28 52 36
1.43412 0.0649193 7.55583 28 52 36
1.42192 0.528412 7.48969 19 50 18
1.4219 0.585226 7.47618 43 68 39
1.42428 0.540614 7.48072 26 54 31
1.42762 0.49391 7.48635 28 53 31
1.41503 0.897916 7.41881 24 54 30
1.41503 0.897916 7.41881 24 54 30
1.56131 -0.823229 8.1829 57 68 88
1.4257 0.73243 7.45682 26 60 27
1.42926 0.483168 7.46512 22 55 28
1.42926 0.483168 7.46512 22 55 28
1.44018 0.412957 7.50959 26 47 30
1.5748 -0.897081 8.19378 67 75 94
1.5748 -0.897081 8.19378 67 75 94
1.44341 0.484322 7.50166 21 55 30
1.42261 1.08849 7.39259 30 57 26
1.57422 -0.767271 8.17625 57 70 87
1.44839 0.000487673 7.5229 24 51 18
1.5747 -0.752872 8.17619 56 69 85
1.43734 0.770433 7.44869 28 59 28
1.45255 -0.00629548 7.50598 22 47 18
1.44629 0.654281 7.46911 25 55 29
1.45508 0.433417 7.50865 20 49 31
1.4587 0.092915 7.52525 22 53 21
1.45854 0.411708 7.50344 22 52 28
1.58589 -0.746461 8.12992 29 54 35
1.46523 0.259236 7.50271 23 51 28
1.46659 0.0993993 7.50586 23 52 22
1.46659 0.0993993 7.50586 23 52 22
1.46236 0.028943 7.4782 24 55 23
1.56905 -0.581122 7.96375 24 53 25
1.47343 0.243573 7.47772 30 56 27
1.47514 0.48875 7.4676 21 49 26
1.4767 0.315877 7.46692 25 55 31
1.47776 -0.00359589 7.4571 23 53 17
1.57857 -0.596946 7.96254 20 57 26
1.47702 0.242498 7.43881 27 60 31
1.47449 0.856503 7.42607 41 68 33
1.46567 1.15431 7.37921 27 52 30
1.6039 -0.706046 8.06516 26 52 23
1.48068 0.681313 7.44275 37 57 29
1.47878 0.844008 7.42364 45 70 30
1.47513 1.05094 7.40142 30 54 30
1.47972 0.533679 7.42358 26 50 28
1.4754 1.06207 7.40082 29 54 32
1.48063 0.551489 7.42561 33 56 38
1.4819 0.323319 7.43056 24 54 30
1.48276 0.362563 7.42567 29 54 35
1.58425 -0.573366 7.92476 24 57 30
1.48574 -0.0294694 7.41564 27 52 23
1.48033 -0.089342 7.3854 23 53 27
1.48727 1.01458 7.41085 33 59 32
1.59411 -0.609514 7.93644 23 54 23
1.5919 -0.590977 7.92044 25 56 25
1.49181 0.615749 7.4136 29 54 24
1.49181 0.615749 7.4136 29 54 24
1.49181 0.615749 7.4136 29 54 24
1.49393 0.835926 7.39013 27 56 28
1.49393 0.835926 7.39013 27 56 28
1.49447 1.02093 7.37327 34 62 39
1.50304 0.0744407 7.39235 25 52 21
1.63706 -0.757719 8.03253 17 46 15
1.50872 -0.35745 7.40329 16 46 18
1.51425 -0.33655 7.40223 25 51 26
1.50569 0.540347 7.35695 25 51 24
1.5133 0.0115039 7.3889 27 56 25
1.51584 -0.352351 7.39289 19 52 25
1.52747 0.267481 7.43729 26 51 30
1.50795 0.546168 7.34169 27 55 30
1.63402 -0.685998 7.94437 22 52 18
1.51382 0.47216 7.35439 15 39 17
1.53139 0.342484 7.43091 23 48 26
1.53541 0.333812 7.42027 24 52 27
1.5284 -0.294112 7.3756 22 51 21
1.65233 -0.729561 7.96655 28 51 35
1.65775 -0.76696 7.99013 22 48 23
1.52289 0.375181 7.33175 20 52 29
1.54243 -0.226224 7.37378 18 48 22
1.54962 -0.403825 7.3458 14 48 21
1.54962 -0.403825 7.3458 14 48 21
1.54104 -0.00281874 7.28191 24 54 18
1.55173 -0.397578 7.33162 25 54 24
1.54692 0.0583163 7.28129 28 54 19
1.56269 -0.399978 7.31086 21 52 18
1.56269 -0.399978 7.31086 21 52 18
1.56209 -0.33604 7.29448 25 56 24
1.56148 0.0202383 7.28682 26 49 20
1.56385 0.0279934 7.27921 24 50 21
1.56628 -0.364438 7.28102 12 47 15
1.57025 0.345803 7.24867 19 43 19
1.57451 0.115601 7.25939 25 54 26
1.5774 -0.36185 7.26194 26 51 21
1.58142 0.0256775 7.25543 25 50 28
1.58524 0.0942748 7.24137 27 57 31
1.58637 -0.354207 7.23698 30 57 24
1.58594 0.105276 7.23429 24 49 27
1.58685 0.129882 7.23478 47 56 39
1.58775 0.0110233 7.23421 26 52 27
1.58614 -0.0142385 7.22622 25 53 28
1.59181 -0.344761 7.24245 18 49 18
1.58341 0.536497 7.20405 26 52 27
1.58909 0.230249 7.22225 16 45 15
1.5938 0.108253 7.22663 26 54 32
1.59608 0.00459439 7.22933 15 44 13
1.58073 -0.130495 7.1554 0 0 0
1.5944 0.421389 7.18551 0 0 0
1.58974 -0.128429 7.14672 0 0 0
1.60934 -0.233546 7.21751 0 0 0
1.60483 0.18814 7.19501 0 0 0
1.5976 0.927456 7.14902 0 0 0
1.59536 -0.152585 7.13724 0 0 0
1.59536 -0.152585 7.13724 0 0 0
1.5973 -0.137287 7.13184 0 0 0
1.60344 -0.0501968 7.15814 0 0 0
1.60781 0.666681 7.15494 0 0 0
1.60782 0.691736 7.1516 0 0 0
1.61031 0.293046 7.16217 0 0 0
1.60586 0.931572 7.13458 0 0 0
1.60767 0.486444 7.12863 0 0 0
1.62397 -0.269337 7.19942 0 0 0
1.61147 0.784294 7.13906 0 0 0
1.62972 -0.275406 7.20156 0 0 0
1.61594 0.703447 7.13265 0 0 0
1.61473 0.471953 7.12624 0 0 0
1.62989 -0.231729 7.18375 0 0 0
1.64129 -0.284707 7.21251 0 0 0
1.64209 -0.269008 7.19672 0 0 0
1.62425 0.364716 7.11649 0 0 0
1.62425 0.364716 7.11649 0 0 0
1.64138 -0.246444 7.17772 0 0 0
1.64002 -0.218453 7.17276 0 0 0
1.62674 0.597023 7.11234 0 0 0
1.61878 -0.169251 7.06709 0 0 0
1.62581 -0.14905 7.06666 0 0 0
1.63744 -0.029071 7.11313 0 0 0
1.6495 -0.0925581 7.0662 0 0 0
1.66687 0.291131 7.1372 0 0 0
1.681 -0.288882 7.1645 0 0 0
1.69722 -0.379726 7.23363 0 0 0
1.66225 0.0103163 7.07355 0 0 0
1.66452 -0.128251 7.06192 0 0 0
1.70843 -0.38189 7.22862 0 0 0
1.66783 -0.0712215 7.0296 0 0 0
1.68101 0.637867 7.08192 0 0 0
1.67884 -0.135744 7.02766 0 0 0
1.67616 -0.0636619 7.00609 0 0 0
1.73387 -0.419395 7.2342 0 0 0
1.67857 0.482665 7.00307 0 0 0
1.69486 0.804126 7.06456 0 0 0
1.67598 0.369411 6.96522 0 0 0
1.68975 -0.103524 7.01682 0 0 0
1.6886 -0.138465 7.01114 0 0 0
1.69172 -0.110145 7.0172 0 0 0
1.69275 -0.0968665 7.01422 0 0 0
1.69014 -0.124684 6.99885 0 0 0
1.69098 0.0405117 6.99772 0 0 0
1.69332 -0.150066 7.00747 0 0 0
1.69824 -0.0428954 6.99554 0 0 0
1.69633 -0.0624635 6.98391 0 0 0
1.70275 0.0267391 6.99109 0 0 0
1.70102 0.0466343 6.9822 0 0 0
1.7017 0.00867026 6.97455 0 0 0
1.70547 -0.0429736 6.98774 0 0 0
1.70374 0.104915 6.97273 0 0 0
1.70501 0.0638613 6.96322 0 0 0
1.70129 0.299169 6.94038 0 0 0
1.69454 0.333709 6.90885 0 0 0
1.71428 -0.144611 6.96087 0 0 0
1.71116 0.306417 6.94671 0 0 0
1.71762 0.136799 6.93798 0 0 0
1.71752 0.0920766 6.93581 0 0 0
1.72062 -0.150814 6.94574 0 0 0
1.72303 0.0858266 6.9293 0 0 0
1.71817 0.484246 6.9077 0 0 0
1.70975 -0.2259 6.86542 0 0 0
1.71348 -0.185822 6.87686 0 0 0
1.70913 -0.208004 6.85388 0 0 0
1.71189 -0.195043 6.85987 0 0 0
1.72975 -0.150734 6.92713 0 0 0
1.72975 -0.150734 6.92713 0 0 0
1.72074 0.448686 6.885 0 0 0
1.73237 0.0262541 6.92626 0 0 0
1.71702 -0.204528 6.8601 0 0 0
1.73023 0.418413 6.89044 0 0 0
1.73656 -0.156939 6.91397 0 0 0
1.88902 -0.895796 7.51543 0 0 0
1.74171 0.210743 6.91759 0 0 0
1.72823 -0.193082 6.85749 0 0 0
1.73577 0.398938 6.8855 0 0 0
1.739 0.32196 6.89185 0 0 0
1.73333 0.653668 6.86606 0 0 0
1.73719 0.562345 6.86847 0 0 0
1.81184 -0.497198 7.15082 0 0 0
1.7464 0.384108 6.88043 0 0 0
1.76861 -0.257446 6.95404 0 0 0
1.7935 -0.366579 7.04562 0 0 0
1.74155 0.922526 6.83918 0 0 0
1.7462 0.679325 6.84315 0 0 0
1.82894 -0.501499 7.16564 0 0 0
1.83692 -0.521424 7.18954 0 0 0
1.7529 0.557669 6.84971 0 0 0
1.7499 0.753938 6.83736 0 0 0
1.755 0.47391 6.85326 0 0 0
1.8407 -0.494838 7.16832 0 0 0
1.7555 0.355032 6.82526 0 0 0
1.75346 0.87664 6.81136 0 0 0
1.75958 0.95549 6.83158 0 0 0
1.75859 0.737395 6.82655 0 0 0
1.75526 0.441194 6.8066 0 0 0
1.75769 0.347286 6.81222 0 0 0
1.76161 0.448618 6.79924 0 0 0
1.77005 0.353443 6.8238 0 0 0
1.77942 0.372888 6.81555 0 0 0
1.77784 0.293921 6.79719 0 0 0
1.78949 0.348528 6.83167 0 0 0
1.80698 -0.235634 6.89377 0 0 0
1.77618 0.67298 6.77491 0 0 0
1.78608 0.289692 6.7951 0 0 0
1.78022 0.823265 6.7616 0 0 0
1.821 -0.218758 6.91196 0 0 0
1.82502 -0.0955042 6.92341 0 0 0
1.80261 0.398421 6.83648 0 0 0
1.80385 0.505792 6.80904 0 0 0
1.8322 -0.0411355 6.90964 0 0 0
1.83008 0.0361607 6.90086 0 0 0
1.83055 0.0548518 6.90233 0 0 0
1.80866 0.299678 6.81407 0 0 0
1.82232 0.242602 6.86278 0 0 0
1.80813 0.311393 6.80334 0 0 0
1.83822 -0.0515482 6.91621 0 0 0
1.83511 0.129644 6.89342 0 0 0
1.84028 -0.0822274 6.91248 0 0 0
1.83005 0.180176 6.87052 0 0 0
1.79545 0.905296 6.73477 0 0 0
1.84329 -0.17759 6.91447 0 0 0
1.81124 0.733666 6.78995 0 0 0
1.85331 -0.129883 6.94408 0 0 0
1.84164 0.139533 6.89439 0 0 0
1.83885 0.206399 6.87848 0 0 0
1.8237 0.293438 6.82149 0 0 0
1.85126 -0.0435947 6.91543 0 0 0
1.81201 0.654652 6.76727 0 0 0
1.81201 0.654652 6.76727 0 0 0
1.80949 0.936731 6.75567 0 0 0
1.82929 0.468381 6.82487 0 0 0
1.82865 0.308375 6.8118 0 0 0
1.83803 0.328696 6.84545 0 0 0
1.81301 0.894159 6.74969 0 0 0
1.84658 0.21805 6.8714 0 0 0
1.84742 0.266047 6.87109 0 0 0
1.83748 0.54244 6.8242 0 0 0
1.87356 -0.123463 6.95379 0 0 0
1.84655 0.378586 6.85337 0 0 0
1.85331 0.25025 6.8763 0 0 0
1.85907 0.155991 6.892 0 0 0
1.83651 0.620469 6.80632 0 0 0
1.87458 -0.0961093 6.94466 0 0 0
1.84722 0.506314 6.83602 0 0 0
1.86225 0.256408 6.88197 0 0 0
1.93206 -0.409395 7.1373 0 0 0
1.83828 0.694093 6.78837 0 0 0
1.8661 0.188981 6.88544 0 0 0
1.86958 0.195471 6.88901 0 0 0
1.87068 0.203549 6.89264 0 0 0
1.87038 0.208436 6.88866 0 0 0
1.85211 0.58136 6.81802 0 0 0
1.88225 0.0310316 6.92674 0 0 0
1.88342 0.0490196 6.92841 0 0 0
1.87398 0.227151 6.89132 0 0 0
1.87398 0.227151 6.89132 0 0 0
1.89663 -0.0981899 6.97036 0 0 0
1.89663 -0.0981899 6.97036 0 0 0
1.86455 0.461674 6.84715 0 0 0
1.8818 0.116735 6.91053 0 0 0
1.85516 0.658714 6.80746 0 0 0
1.85979 0.46369 6.82263 0 0 0
1.85979 0.46369 6.82263 0 0 0
1.87169 0.286642 6.8633 0 0 0
1.89221 -0.0317913 6.93794 0 0 0
1.85977 0.593237 6.81887 0 0 0
1.87545 0.295184 6.87444 0 0 0
1.85592 0.732456 6.80062 0 0 0
1.89461 -0.00842089 6.92701 0 0 0
1.86884 0.309706 6.83137 0 0 0
1.86884 0.309706 6.83137 0 0 0
1.89983 0.0256076 6.93354 0 0 0
1.88207 0.402115 6.8636 0 0 0
1.87147 0.503097 6.82487 0 0 0
1.95223 -0.398753 7.11066 0 0 0
1.86193 0.877451 6.77914 0 0 0
1.87528 0.545843 6.82716 0 0 0
1.87676 0.610478 6.82452 0 0 0
1.90581 0.0612975 6.92665 0 0 0
1.914 -0.0542956 6.95169 0 0 0
1.95971 -0.387119 7.11763 0 0 0
1.88496 0.492469 6.8431 0 0 0
1.8605 0.905904 6.75411 0 0 0
1.87579 0.735788 6.79471 0 0 0
1.91759 -0.175058 6.94432 0 0 0
1.91759 -0.175058 6.94432 0 0 0
1.91566 -0.23008 6.93603 0 0 0
1.91772 0.0317496 6.93514 0 0 0
1.89947 0.396131 6.86323 0 0 0
1.8861 0.623108 6.81377 0 0 0
1.96291 -0.405932 7.09105 0 0 0
1.88877 0.630327 6.82228 0 0 0
1.91078 0.176044 6.89855 0 0 0
1.91076 0.215581 6.89664 0 0 0
1.93277 -0.0904643 6.96877 0 0 0
1.90947 0.391324 6.88185 0 0 0
1.90947 0.391324 6.88185 0 0 0
1.9139 0.297137 6.89466 0 0 0
1.90387 0.563276 6.84686 0 0 0
1.91266 0.184585 6.87505 0 0 0
1.96984 -0.398535 7.07887 0 0 0
1.9442 -0.125439 6.97838 0 0 0
1.94691 -0.0377394 6.97298 0 0 0
1.97643 -0.398074 7.06823 0 0 0
1.9392 0.0758587 6.93495 0 0 0
1.91952 0.345475 6.86097 0 0 0
1.91952 0.345475 6.86097 0 0 0
1.97608 -0.308722 7.0595 0 0 0
1.95281 -0.0519782 6.97015 0 0 0
1.93809 0.285151 6.90494 0 0 0
1.98306 -0.35746 7.06125 0 0 0
1.98329 -0.389745 7.06081 0 0 0
1.97187 -0.255649 7.01697 0 0 0
1.95645 0.0217296 6.95832 0 0 0
1.91627 0.687107 6.8151 0 0 0
1.98085 -0.414226 7.03678 0 0 0
1.96891 -0.111451 6.98549 0 0 0
1.98862 -0.352702 7.04843 0 0 0
1.98862 -0.352702 7.04843 0 0 0
1.98862 -0.352702 7.04843 0 0 0
1.97117 -0.0991994 6.98486 0 0 0
1.98628 -0.4226 7.03164 0 0 0
1.91641 0.867546 6.78304 0 0 0
1.91641 0.867546 6.78304 0 0 0
1.97238 -0.0450133 6.96923 0 0 0
1.94187 0.551168 6.85994 0 0 0
1.95018 0.422564 6.88764 0 0 0
1.96984 -0.189889 6.95308 0 0 0
1.97905 -0.128059 6.98403 0 0 0
1.94523 0.545294 6.86288 0 0 0
1.97418 0.0347815 6.96203 0 0 0
1.96293 0.290094 6.92146 0 0 0
1.96878 0.113148 6.94122 0 0 0
1.99534 -0.428958 7.0322 0 0 0
1.96568 0.169681 6.92622 0 0 0
1.96721 0.206313 6.931 0 0 0
1.95633 0.368316 6.89141 0 0 0
1.96253 0.260917 6.91022 0 0 0
1.97601 0.0408601 6.95647 0 0 0
1.96594 0.273826 6.91768 0 0 0
1.98048 -0.00769162 6.95994 0 0 0
1.97049 0.268243 6.92315 0 0 0
1.97998 0.114319 6.9485 0 0 0
2.10737 -0.65196 7.39076 0 0 0
2.00797 -0.287281 7.04166 0 0 0
2.00348 -0.233999 7.02495 0 0 0
1.96005 0.563535 6.86966 0 0 0
1.96183 0.533164 6.87285 0 0 0
1.98612 0.0638459 6.95243 0 0 0
1.98612 0.0638459 6.95243 0 0 0
1.96053 0.570863 6.86138 0 0 0
1.98944 -0.208335 6.9615 0 0 0
1.99992 -0.145861 6.99574 0 0 0
1.99992 -0.145861 6.99574 0 0 0
1.97017 0.382238 6.88786 0 0 0
1.96056 0.59538 6.85234 0 0 0
2.01363 -0.230924 7.02391 0 0 0
1.97561 0.467783 6.88617 0 0 0
1.98838 0.26308 6.92531 0 0 0
1.96857 0.614402 6.85281 0 0 0
1.97299 0.590856 6.86138 0 0 0
2.00755 0.0631193 6.96863 0 0 0
2.00486 0.283656 6.94796 0 0 0
