ply
format ascii 1.0 
element vertex 1347
property float32 x 
property float32 y 
property float32 z
property uchar red  
property uchar green
property uchar blue
element face 0
property list uchar int vertex_indices
end_header
-0.61902 -1.42255 7.6125 47 54 82
-0.613235 -1.39836 7.58748 146 129 113
-0.625419 -1.64169 7.67657 151 136 115
-0.623249 -1.5814 7.66826 106 120 120
-0.630631 -1.65449 7.71023 148 137 117
-0.487917 -0.740621 6.97 123 119 116
-0.464579 -0.59864 6.85852 116 116 108
-0.57708 -1.14794 7.44417 150 145 141
-0.459888 -0.589825 6.84275 123 120 115
-0.62504 -1.59791 7.70723 123 122 120
-0.62504 -1.59791 7.70723 123 122 120
-0.618046 -1.64172 7.6795 147 132 109
-0.622794 -1.57469 7.70153 0 23 0
-0.615316 -1.56907 7.66837 0 23 0
-0.621488 -1.54782 7.69857 14 25 31
-0.456639 -0.765352 6.86732 99 99 91
-0.611198 -1.541 7.70538 14 19 25
-0.449493 -0.622779 6.85908 115 114 109
-0.437731 -0.399881 6.80428 80 73 67
-0.446215 -0.55194 6.85319 121 111 112
-0.398372 0.406649 6.58175 131 128 111
-0.448256 -0.782374 6.89432 40 49 48
-0.387729 0.404757 6.56013 133 132 114
-0.387665 0.476655 6.56051 128 128 126
-0.439978 -0.591775 6.87007 62 67 63
-0.566036 -1.18916 7.54205 147 141 129
-0.429626 -0.587044 6.84896 71 75 76
-0.554402 -1.20468 7.51943 88 68 67
-0.541472 -1.14074 7.46143 156 146 134
-0.417069 -0.753558 6.87425 118 109 102
-0.263819 0.573291 6.04459 25 41 38
-0.559348 -1.41117 7.65605 141 124 117
-0.544964 -1.2704 7.60085 135 132 125
-0.410291 -0.697037 6.88958 67 57 55
-0.521216 -1.16384 7.50225 144 143 125
-0.402875 -0.76421 6.87103 42 45 60
-0.545672 -1.41838 7.64772 84 87 94
-0.405677 -0.751202 6.89709 118 120 107
-0.50972 -1.15318 7.4792 152 148 139
-0.39687 -0.680604 6.87181 79 69 68
-0.535215 -1.29479 7.64608 121 112 115
-0.50803 -1.14375 7.4987 157 150 140
-0.528521 -1.29463 7.65019 119 120 125
-0.385714 -0.675366 6.88051 84 73 71
-0.527607 -1.28095 7.67411 114 123 130
-0.51972 -1.27824 7.67845 101 104 111
-0.478182 -1.14987 7.47614 120 104 89
-0.36331 -0.761998 6.89141 124 113 117
-0.513025 -1.23916 7.72459 79 69 59
-0.362553 -0.53201 6.89002 82 100 120
-0.362553 -0.53201 6.89002 82 100 120
-0.364286 -0.804911 6.91783 71 81 93
-0.357095 -0.235298 6.87217 83 101 123
-0.352551 -0.079639 6.84899 82 81 89
-0.352551 -0.079639 6.84899 82 81 89
-0.452275 -1.08351 7.45683 120 113 97
-0.470895 -1.24364 7.56491 126 109 89
-0.470895 -1.24364 7.56491 126 109 89
-0.383956 -0.748866 7.08046 112 109 100
-0.33968 -0.463198 6.8396 110 100 108
-0.205867 0.555394 6.07706 87 88 108
-0.263687 0.502711 6.39789 112 105 99
-0.464226 -1.23268 7.56651 121 106 87
-0.440852 -1.13174 7.48769 154 144 134
-0.340386 -0.820729 6.92354 73 88 109
-0.338985 -0.865753 6.92329 61 78 96
-0.340534 -0.639753 6.93973 111 110 105
-0.327105 -0.750787 6.89208 114 109 103
-0.312605 0.395736 6.77874 114 110 109
-0.313771 0.155671 6.8149 59 71 95
-0.430616 -1.14675 7.5206 115 105 96
-0.303226 0.0502733 6.776 93 92 90
-0.329323 -0.664462 6.95425 77 71 71
-0.327483 -0.663816 6.94539 77 71 71
-0.308853 0.172924 6.81368 77 68 63
-0.322386 -0.848287 6.92818 218 235 229
-0.435993 -1.25033 7.5858 142 120 96
-0.170971 0.570312 6.04322 42 43 48
-0.421546 -1.14028 7.52012 148 144 133
-0.410744 -1.10535 7.47021 138 140 119
-0.311054 -0.266004 6.88034 97 124 131
-0.325832 -0.657717 6.98918 120 115 112
-0.408799 -1.12384 7.48431 154 148 134
-0.40575 -1.11728 7.48344 152 148 137
-0.309439 -0.877804 6.92857 154 143 185
-0.30515 -0.776063 6.92475 61 75 86
-0.291824 -0.443499 6.8491 113 109 110
-0.410339 -1.18357 7.56325 123 97 110
-0.402308 -1.12666 7.52046 156 149 139
-0.395822 -1.11183 7.48447 143 143 133
-0.294123 -0.801155 6.91721 229 238 255
-0.295792 -0.769215 6.93507 45 53 64
-0.279564 -0.496834 6.83454 65 79 90
-0.293961 -0.815229 6.93696 87 81 115
-0.396599 -1.17543 7.54382 149 131 129
-0.396149 -1.15542 7.54905 158 148 138
-0.393513 -1.16646 7.5415 149 141 130
-0.273419 0.402664 6.80877 112 107 103
-0.273419 0.402664 6.80877 112 107 103
-0.170946 0.532744 6.21996 56 50 34
-0.360399 -1.12685 7.5066 155 150 131
-0.242385 0.0520479 6.77607 109 104 108
-0.251507 0.135939 6.83997 96 96 108
-0.265642 -0.797562 6.97244 120 126 140
-0.354846 -1.11937 7.5202 155 146 129
-0.243815 0.176934 6.82796 86 68 54
-0.372686 -1.16542 7.63834 154 146 135
-0.244959 -0.481463 6.86167 60 73 92
-0.199101 0.472295 6.57068 122 118 115
-0.254704 -0.695141 6.95059 83 73 72
-0.249719 -0.785273 6.95326 240 255 241
-0.354986 -1.12848 7.61173 156 150 136
-0.407858 -1.23453 7.947 153 146 130
-0.397181 -1.23454 7.9367 149 142 124
-0.39367 -1.22113 7.94742 154 142 128
-0.218819 -0.327981 6.86127 100 98 99
-0.218819 -0.327981 6.86127 100 98 99
-0.22586 -0.329079 6.90872 100 98 99
-0.22586 -0.329079 6.90872 100 98 99
-0.223807 -0.678501 6.93552 70 60 59
-0.139499 0.507731 6.4071 84 86 72
-0.213204 -0.510918 6.88959 76 85 92
-0.0978887 0.52573 6.15552 40 44 29
-0.120626 0.528161 6.30582 29 39 31
-0.216556 -0.692293 6.95498 70 59 63
-0.349434 -1.25173 7.83405 104 81 75
-0.349434 -1.25173 7.83405 104 81 75
-0.212611 -0.762184 6.98014 92 96 95
-0.212687 -0.657574 6.97812 111 107 108
-0.333473 -1.24883 7.8034 89 70 63
-0.333473 -1.24883 7.8034 89 70 63
-0.187398 -0.0719829 6.85827 77 78 80
-0.32447 -1.25779 7.77176 89 70 64
-0.103447 0.527915 6.33323 39 49 40
-0.182416 -0.524903 6.89596 61 84 90
-0.247402 -0.927161 7.35723 92 81 124
-0.186159 -0.606817 6.96525 90 93 98
-0.145504 -0.77812 6.7168 245 246 255
-0.184525 -0.614924 6.97569 112 107 103
-0.301219 -1.14355 7.73689 151 145 131
-0.201225 -0.815467 7.09735 80 81 102
-0.201225 -0.815467 7.09735 80 81 102
-0.295891 -1.15007 7.73013 154 144 135
-0.17963 -0.737425 7.00349 103 99 96
-0.170831 -0.761487 6.97134 101 100 96
-0.167159 -0.755835 6.97265 104 105 100
-0.163481 -0.568753 6.96421 68 78 87
-0.163092 -0.59045 6.97113 66 75 90
-0.264927 -1.12407 7.69021 124 128 113
-0.258228 -1.1624 7.67414 146 139 131
-0.150784 -0.580495 6.96445 71 78 86
-0.130893 0.458485 6.80415 113 115 112
-0.151933 -0.554807 6.97243 69 75 87
-0.246859 -1.20644 7.62752 148 122 135
-0.217059 -1.27395 7.49515 95 70 66
-0.238341 -1.29755 7.64528 95 70 66
-0.134172 -0.569724 6.97392 67 77 79
-0.225669 -1.26779 7.609 113 88 81
-0.219069 -1.08568 7.58164 86 83 78
-0.21349 -1.27706 7.61211 93 68 64
-0.209409 -1.09658 7.58712 80 85 78
-0.209694 -1.18375 7.62312 143 129 118
-0.204699 -1.19854 7.60526 108 78 80
-0.11423 -0.566702 6.98174 67 74 82
-0.201762 -1.03305 7.60779 95 99 100
-0.111186 -0.551301 6.98034 66 75 92
-0.196698 -1.04114 7.58349 93 82 98
-0.184873 -0.967246 7.55666 72 88 111
-0.0667962 0.411535 6.73645 78 77 73
-0.0910466 -0.387854 6.93772 57 57 59
-0.011393 0.52863 6.35786 39 51 49
-0.0977522 -0.532809 6.99568 48 70 83
-0.101962 -0.60843 7.02981 66 82 105
-0.09771 -0.569081 7.00929 61 72 90
-0.179278 -1.00205 7.60209 87 90 97
-0.182123 -1.26284 7.63825 96 73 67
-0.17854 -1.15144 7.63431 145 139 127
-0.171027 -0.938902 7.57636 227 237 228
-0.178801 -1.21939 7.64022 69 56 40
-0.126201 -0.807407 7.26844 45 62 78
-0.047041 0.407787 6.6948 59 61 56
-0.174704 -1.21304 7.64254 70 53 43
-0.0485927 0.403625 6.70899 123 121 126
-0.173803 -1.18634 7.6388 138 119 121
-0.170706 -1.26142 7.65319 96 78 66
-0.044747 0.415195 6.71305 88 85 80
-0.0552273 0.383195 6.80669 117 128 134
-0.0648106 -0.442231 6.97695 97 101 104
-0.165648 -1.08737 7.73287 102 99 92
-0.168483 -1.13758 7.77194 122 123 115
-0.147989 -1.15169 7.63415 136 130 118
0.0466292 0.565238 6.18388 16 33 51
-0.156484 -1.08843 7.73636 93 90 81
-0.0376401 0.0640913 6.88078 101 100 106
-0.0347902 -0.285296 6.9157 106 108 105
0.0863419 -0.407453 6.07048 98 99 94
-0.0915173 -0.790013 7.44167 80 82 81
-0.0238597 -0.288082 6.96359 107 105 116
-0.0224576 -0.338141 6.97335 98 103 106
-0.0798078 -0.796765 7.42582 93 99 97
-0.0798078 -0.796765 7.42582 93 99 97
-0.0164486 -0.28547 6.9645 72 87 106
-0.00797649 -0.159293 6.95017 81 89 92
-0.0669474 -0.76887 7.44882 88 89 91
-0.104298 -1.1182 7.79461 122 121 116
-0.111024 -1.12363 7.83732 122 121 116
0.00137216 -0.535498 7.03128 60 70 82
-0.0857592 -1.12156 7.79317 76 72 61
0.0573662 0.441578 6.66207 97 100 107
-0.0670514 -1.10816 7.82326 69 70 72
0.050615 0.431226 6.87654 89 101 113
-0.06188 -1.11601 7.84594 77 79 78
0.0352595 -0.559647 7.0678 76 78 75
0.0477185 -0.529186 7.03132 75 80 76
0.00113711 -0.753091 7.43947 82 92 104
0.0669071 -0.0459264 6.90538 88 103 124
-0.0395853 -1.1178 7.83659 83 86 95
0.0659773 -0.488338 6.98333 83 85 97
-0.0311477 -1.12013 7.8612 51 61 70
-0.0143345 -1.08546 7.80324 81 80 98
-0.0118634 -1.09868 7.80727 42 45 60
0.0900305 0.378125 6.91334 43 56 62
0.129848 0.536985 6.66583 79 82 87
0.0841885 -0.554772 7.10009 48 58 59
0.102136 -0.48896 7.0208 67 78 82
0.0784035 -0.648231 7.25109 74 78 89
0.0943638 -0.375003 7.18179 80 77 94
0.0954781 -0.438618 7.20558 69 83 92
0.0859259 -0.714838 7.34963 57 62 65
0.0990581 -0.618196 7.24693 88 91 110
0.216909 0.578722 6.21918 16 35 49
0.117724 0.132666 7.12304 57 64 80
0.10949 -0.655539 7.2461 83 87 99
0.115197 -0.673078 7.23397 59 74 81
0.119051 -0.666096 7.2439 72 80 93
0.120055 -0.672673 7.26068 65 75 84
0.147835 -0.665927 7.27098 82 86 98
0.160293 -0.458693 7.20599 65 71 87
0.116613 -1.23917 7.67825 115 114 119
0.161524 -0.283902 7.2346 30 45 48
0.166873 -0.0661489 7.22369 87 93 119
0.101953 -1.10352 7.88926 73 74 94
0.18246 0.355433 7.17775 41 58 65
0.175868 -0.662049 7.2825 57 67 77
0.121037 -1.12409 7.89517 81 88 106
0.193218 -0.668561 7.24736 58 66 79
0.192041 -0.229496 7.25576 39 42 51
0.133337 -1.10783 7.90251 35 63 66
0.193113 -0.714088 7.3 68 71 76
0.214045 -0.0971176 7.24721 51 61 73
0.229875 0.0923259 7.16024 48 57 74
0.307705 0.59283 6.43198 90 93 102
0.180131 -1.13099 7.91386 69 76 95
0.234479 -0.644703 7.31863 22 39 49
0.242514 -0.32442 7.24174 31 40 57
0.241373 -0.674437 7.29091 26 36 48
0.18419 -1.12989 7.93999 54 67 83
0.1905 -1.11192 7.91216 18 31 48
0.224589 -0.776129 7.56447 64 72 91
0.228831 -0.752764 7.54344 64 72 83
0.261704 -0.0239824 7.1595 76 78 93
0.262444 -0.457361 7.23906 30 38 51
0.24279 -0.798156 7.55043 29 33 42
0.208289 -1.14624 7.9597 56 72 85
-1.23511 -1.94766 24.1898 46 56 66
0.276973 -0.0645524 7.23458 88 90 105
0.272805 -0.605396 7.31368 57 71 74
0.29051 0.54177 7.1408 95 110 131
0.286098 -0.457443 7.23336 65 73 86
0.260816 -0.783374 7.59418 54 73 79
0.231 -1.13344 7.95799 39 57 59
0.291939 -0.607166 7.31783 67 79 93
0.245151 -1.14247 7.9526 78 100 113
0.302479 -0.503625 7.31181 82 96 109
0.286977 -0.745523 7.56455 85 99 112
0.327768 0.451166 7.15629 103 116 133
0.327768 0.451166 7.15629 103 116 133
0.306127 -0.793864 7.5761 255 247 218
0.34205 0.0681866 7.21271 245 234 212
0.31499 -0.739894 7.5795 245 232 216
0.288371 -1.10758 7.9382 242 229 212
0.340081 -0.450996 7.26813 240 232 211
0.293601 -1.10378 7.95319 242 230 214
0.36371 -0.354422 7.29634 248 234 223
0.364368 -0.266178 7.2865 247 234 218
0.318559 -1.10191 7.94787 237 222 217
0.368464 -0.0898395 7.25867 249 237 225
0.38104 0.492425 7.1454 250 241 226
0.374182 -0.582757 7.36542 251 241 231
0.372756 -0.582576 7.37926 251 241 231
0.380601 -0.338575 7.30753 251 239 227
0.380601 -0.338575 7.30753 251 239 227
0.38925 0.393125 7.20341 252 242 232
0.390058 0.353589 7.19776 250 238 226
0.386141 -0.497148 7.29236 253 239 230
0.386141 -0.497148 7.29236 253 239 230
0.398058 -0.232723 7.28622 249 239 227
0.401703 -0.5977 7.44818 96 109 143
0.420664 -0.554052 7.3964 104 121 149
0.414432 -0.628851 7.50453 96 110 139
0.382567 -1.11333 7.99664 94 105 135
0.426556 -0.455172 7.32508 99 116 142
0.432937 0.449292 7.20288 251 242 233
0.389352 -1.08315 7.979 93 108 139
0.434152 -0.0602839 7.28832 250 241 232
0.433107 -0.383986 7.34549 122 130 153
0.439037 -0.160704 7.29838 252 243 234
0.439037 -0.160704 7.29838 252 243 234
0.440468 -0.449651 7.30299 103 115 139
0.461797 0.629425 6.95004 255 246 237
0.440153 -0.226354 7.31676 247 237 227
0.433342 -0.573687 7.44646 97 112 145
0.401314 -1.10555 7.99343 86 103 129
0.445323 -0.213022 7.3121 255 249 237
0.445282 -0.52593 7.37395 96 110 139
0.454053 -0.193839 7.30325 253 243 234
0.409736 -1.1041 8.02448 87 107 131
0.462321 -0.454101 7.31828 99 115 140
0.465278 0.122776 7.26789 252 243 234
0.355493 -0.552333 9.06236 98 113 142
0.469839 0.42861 7.22341 249 240 231
0.461193 -0.630517 7.40693 96 113 139
0.427014 -1.13926 8.03543 88 106 126
0.473845 0.310445 7.23685 254 247 239
0.468805 -0.612735 7.39681 91 109 133
0.498742 0.487601 6.94589 255 250 241
0.476129 -0.678603 7.40797 89 109 133
0.484042 0.000927038 7.2926 250 240 231
0.49339 0.185191 7.26918 255 246 237
0.498841 0.311322 7.25583 252 243 236
0.496521 -0.370509 7.35816 103 115 141
0.511149 0.494611 7.19906 250 241 234
0.502678 -0.693238 7.40676 92 102 129
0.508182 -0.656985 7.37897 94 107 126
0.479422 -1.09791 8.0129 76 90 119
0.480122 -1.1301 8.06856 75 96 115
0.519309 -0.100628 7.3455 249 239 229
0.542725 0.608314 6.95731 250 241 234
0.522218 -0.582022 7.42267 91 103 127
0.522896 -0.610208 7.42189 106 117 137
0.552804 0.576828 6.97206 252 243 234
0.552804 0.576828 6.97206 252 243 234
0.559912 0.493309 6.96832 248 238 229
0.517319 -1.14708 8.08205 85 102 122
0.549964 -0.589086 7.45866 161 162 154
0.554423 -0.693715 7.42058 98 110 132
0.521366 -1.27818 8.11727 80 93 112
0.559401 -0.68938 7.41294 95 106 126
0.529802 -1.28181 8.11135 83 95 119
0.531411 -1.27193 8.09532 80 92 116
0.535065 -1.14145 8.05378 79 96 114
0.535721 -1.24381 8.08559 79 97 117
0.534482 -1.24627 8.10226 79 97 117
0.538507 -1.19756 8.08286 74 90 113
0.538507 -1.19756 8.08286 74 90 113
0.537648 -1.27809 8.11166 80 91 119
0.539428 -1.26714 8.08824 81 96 125
0.539428 -1.26714 8.08824 81 96 125
0.538777 -1.17859 8.0968 63 78 101
0.574395 -0.461896 7.36599 243 230 213
0.545173 -1.07089 8.00833 80 95 116
0.547461 -1.20064 8.08644 69 87 107
0.547938 -1.16931 8.10197 86 102 118
0.585868 0.137139 7.30072 250 238 226
0.554182 -1.1322 8.05378 75 91 114
0.58885 0.542556 7.25279 240 231 216
0.562221 -1.14719 8.07739 79 100 119
0.579498 -0.752473 7.67811 84 99 120
0.594465 -0.457875 7.34387 247 234 218
0.565116 -1.09174 8.02408 89 104 125
0.565116 -1.09174 8.02408 89 104 125
0.595122 0.2367 7.33725 250 238 224
0.606436 0.504889 7.12596 250 242 223
0.594741 -0.671355 7.46524 109 118 133
0.570495 -1.13855 8.07324 89 109 133
0.603142 0.134614 7.30915 244 233 215
0.576151 -1.08294 8.05053 71 91 116
0.577302 -1.12813 8.06709 78 95 123
0.608025 -0.0599121 7.32298 247 235 219
0.607836 -0.462097 7.37151 149 128 147
0.587354 -1.10452 8.08934 59 77 99
0.602684 -0.789372 7.72296 86 98 122
0.627828 0.561822 7.27082 176 194 95
0.644557 -0.633035 7.45683 80 99 114
0.644557 -0.633035 7.45683 80 99 114
0.641129 -0.741924 7.69737 79 95 108
0.650295 -0.661458 7.45238 81 94 111
0.652066 -0.296834 7.41274 125 143 103
0.657039 0.543016 7.28251 192 211 95
0.651857 -0.622628 7.47846 78 91 110
0.657336 0.578777 7.32162 180 198 88
0.658981 -0.490606 7.37437 116 121 125
0.650933 -0.750219 7.68976 87 97 109
0.660171 -0.303002 7.42851 165 184 103
0.659985 -0.666425 7.45668 99 108 123
0.657736 -0.775145 7.75176 90 99 116
0.675049 -0.0802953 7.37025 180 203 86
0.665686 -0.751521 7.71461 96 103 113
0.658201 -1.07679 7.99056 90 99 114
0.663446 -1.0354 8.06789 112 112 110
0.663446 -1.0354 8.06789 112 112 110
0.692513 0.145137 7.33878 167 188 61
0.695052 -0.504259 7.47003 29 58 27
0.69509 -0.555649 7.46944 30 62 38
0.701713 -0.506775 7.47096 31 57 30
0.708552 -0.12 7.39037 54 82 34
0.70714 -0.542517 7.52241 24 57 26
0.716601 0.460815 7.27777 184 204 71
0.716164 -0.412622 7.44814 30 61 30
0.726675 -0.27 7.43075 29 61 24
0.729585 -0.189085 7.41746 39 64 35
0.741163 -0.42455 7.45593 39 61 38
0.742624 -0.0847177 7.40485 37 73 29
0.746209 0.467063 7.30491 179 201 64
0.744871 0.124399 7.38099 142 161 71
0.746571 0.0431972 7.39095 57 91 31
0.748844 0.188601 7.35662 160 183 53
0.748324 0.0845553 7.39028 86 117 47
0.750072 0.0531626 7.36812 66 96 34
0.750405 -0.18881 7.42663 37 67 31
0.754713 0.313617 7.33982 172 197 70
0.756537 0.376417 7.33308 177 196 80
0.756183 -0.0550595 7.40176 39 71 30
0.757825 0.259198 7.34904 176 195 87
0.739355 -1.14686 8.39509 22 55 26
0.760285 -0.448544 7.44034 23 54 23
0.761972 0.0619799 7.39434 86 106 47
0.761291 -0.136948 7.43995 33 58 26
0.765008 -0.0105576 7.36702 40 66 29
0.761486 -0.631064 7.63767 29 58 28
0.766557 -0.275216 7.4462 33 59 24
0.768936 -0.223886 7.44761 38 66 28
0.76187 -0.884589 7.91 29 58 30
0.754626 -1.14679 8.38706 34 61 30
0.755617 -1.14245 8.35991 34 61 30
0.756329 -1.13517 8.36974 29 58 30
0.78371 -0.610136 7.60844 30 66 30
0.789728 -0.481692 7.42921 41 66 37
0.789728 -0.481692 7.42921 41 66 37
0.791101 0.201325 7.39379 164 185 54
0.791903 -0.203596 7.42282 39 63 27
0.794753 -0.0793293 7.43505 41 58 39
0.778768 -1.05662 8.36718 30 51 32
0.781393 -1.08193 8.34856 27 59 20
0.781807 -1.01952 8.35346 24 55 23
0.781807 -1.01952 8.35346 24 55 23
0.799898 -0.0552256 7.43962 52 65 37
0.788783 -1.14743 8.31622 21 52 18
0.79216 -0.970187 8.33655 21 57 21
0.808439 -0.457631 7.44875 29 58 28
0.79332 -1.09333 8.36201 26 54 31
0.809038 0.16421 7.38584 93 122 38
0.811679 -0.145994 7.42886 23 61 22
0.814088 -0.0756045 7.43533 35 59 33
0.814876 -0.106199 7.44732 25 62 19
0.814876 -0.106199 7.44732 25 62 19
0.819919 -0.125919 7.4439 36 63 30
0.819919 -0.125919 7.4439 36 63 30
0.808367 -0.955932 8.31556 27 59 35
0.811125 -1.15233 8.26006 28 54 27
0.829574 0.502032 7.14559 181 201 76
0.826296 -0.515896 7.52621 25 56 24
0.828533 -0.438054 7.46304 29 60 26
0.83708 0.251484 7.39 151 168 66
0.838703 -0.517389 7.52438 32 64 25
0.838703 -0.517389 7.52438 32 64 25
0.841051 0.432287 7.3464 171 197 61
0.841362 0.375637 7.36949 175 205 75
0.841362 0.375637 7.36949 175 205 75
0.832814 -1.16573 8.19755 17 50 23
0.846848 0.582588 7.11078 181 200 82
0.843738 -0.185281 7.45686 37 61 29
0.847623 -0.658755 7.51843 27 56 26
0.853589 0.0805629 7.42468 62 66 52
0.856907 0.466508 7.38116 174 179 61
0.861425 0.520485 7.10878 160 182 55
0.870497 0.375906 7.38503 178 205 66
0.891953 -0.44545 7.48877 28 58 24
0.89844 0.156115 7.41619 34 65 34
0.901136 0.20117 7.39437 44 66 28
0.901095 -1.1757 8.05388 29 58 28
0.903507 -0.128372 7.48505 38 64 35
0.903116 -0.959203 8.09834 23 57 20
0.909031 0.499024 7.10368 186 208 61
0.909021 -0.929422 8.09678 27 56 28
0.91333 -0.67803 7.57215 29 63 26
0.914909 0.468661 7.37418 161 184 52
0.914651 -0.916371 8.0923 25 58 27
0.921427 -1.0942 8.04264 29 55 26
0.921731 -0.872251 8.06769 26 54 31
0.923741 -0.999683 8.04417 29 55 30
0.925726 -0.966396 8.04921 32 63 32
0.9294 -1.13196 8.03999 23 52 22
0.937963 -1.04764 8.03502 23 54 22
0.941014 -1.12382 8.0719 15 49 14
0.951333 -0.660931 7.59071 25 56 24
0.951906 -0.65313 7.56956 29 58 28
0.951592 0.0821261 7.44313 22 59 26
0.952148 -0.0850118 7.49497 29 59 33
0.952148 -0.0850118 7.49497 29 59 33
0.95391 -0.95046 8.03637 23 51 26
0.954182 0.342287 7.4597 49 70 37
0.956977 -0.779407 8.00676 19 56 23
0.958499 -1.05878 8.04735 28 55 24
0.958499 -1.05878 8.04735 28 55 24
0.959679 -0.888156 8.0371 27 53 24
0.962131 -1.16979 8.05855 24 54 30
0.961095 0.218148 7.48253 17 54 20
0.961095 0.218148 7.48253 17 54 20
0.961095 0.218148 7.48253 17 54 20
0.963752 -1.00377 8.04441 29 55 30
0.969703 -1.06378 8.0501 21 56 23
0.970562 -0.890358 8.02825 30 59 29
0.971099 -0.880119 8.02669 26 53 20
0.971389 -0.771 8.01241 28 58 32
0.973615 -1.16943 8.08121 25 56 25
0.971558 -0.613414 7.58486 23 55 18
0.973924 0.390609 7.44568 40 66 27
0.973924 0.390609 7.44568 40 66 27
0.981163 -1.17973 8.06783 47 58 44
0.986755 -1.01723 8.05129 20 51 19
0.992154 -0.983071 8.05676 25 55 21
0.993848 -0.937358 8.06094 23 52 24
0.992586 -0.244051 7.57281 28 61 32
1.00212 -0.932413 8.0423 26 56 20
1.00394 -0.921782 8.03951 24 54 20
1.00429 -0.903154 8.03954 26 58 21
1.00098 -0.657562 7.58498 29 58 28
1.00022 0.134057 7.49939 27 61 28
1.00289 0.251092 7.50172 22 53 19
1.00389 -0.438479 7.52266 33 60 29
1.00882 0.365199 7.48609 29 58 30
1.01816 -0.293116 7.55331 22 53 21
1.0279 -0.496785 7.58945 29 53 27
1.02949 -0.609718 7.6796 23 58 25
1.02927 0.449612 7.48546 37 68 27
1.04859 -0.986677 8.56179 26 52 25
1.03697 0.280809 7.4966 26 62 24
1.04557 -0.0800726 7.51887 41 66 37
1.06083 -0.971022 8.54105 23 52 22
1.06147 -0.982492 8.54803 31 57 28
1.0465 -0.0258194 7.49755 30 58 33
1.04779 -0.454582 7.54417 32 57 25
1.06437 -1.09755 8.5427 29 55 28
1.05378 -0.122166 7.55173 37 63 28
1.07316 -1.11926 8.53651 23 57 20
1.0733 -1.13185 8.5535 22 55 24
1.07369 -1.08598 8.54907 23 58 25
1.07382 -1.10663 8.53044 28 59 28
1.05941 -0.474646 7.54232 24 62 23
1.07577 -1.03096 8.53889 22 52 24
1.07608 -1.04528 8.53983 19 54 22
1.07639 -1.03987 8.54655 20 53 24
1.07702 -1.06585 8.54392 26 55 27
1.07692 -1.10016 8.52855 18 51 22
1.07787 -1.14737 8.56009 21 55 22
1.0809 -1.12968 8.55545 26 59 30
1.08773 -1.01314 8.51848 13 44 12
1.07153 -0.43803 7.54663 27 57 23
1.07153 -0.43803 7.54663 27 57 23
1.07153 -0.43803 7.54663 27 57 23
1.09041 -0.981969 8.48166 22 56 23
1.07538 -0.369622 7.55735 28 58 24
1.09881 -1.11006 8.55476 28 53 23
1.09881 -1.11006 8.55476 28 53 23
1.10021 -1.09745 8.56026 19 50 19
1.08131 0.134958 7.49443 24 59 26
1.08714 0.470085 7.44176 29 60 19
1.09148 -0.236421 7.55379 35 62 29
1.10771 -0.934065 8.36391 24 53 25
1.10661 -1.09456 7.99366 24 48 26
1.09765 -0.143185 7.55066 29 59 25
1.10137 -0.0823367 7.54864 37 63 38
1.11266 -0.153048 7.55938 35 63 25
1.11844 0.220598 7.4903 24 57 12
1.12429 -0.450908 7.53093 24 55 21
1.12506 0.0668633 7.51179 26 56 20
1.12805 -0.29494 7.58318 29 64 32
1.12769 -0.0557764 7.55078 33 60 27
1.12831 0.327865 7.48372 27 59 18
1.13196 0.0728144 7.52373 25 55 21
1.13417 -0.327001 7.58457 23 60 19
1.1364 -0.418776 7.58968 29 61 24
1.15495 -1.00436 8.31217 21 54 27
1.14038 -0.393879 7.56656 21 56 14
1.14205 -0.369716 7.54563 24 58 25
1.14319 0.253708 7.50163 27 58 24
1.16447 -1.05601 8.19094 20 53 24
1.1489 -0.0807464 7.54993 27 59 22
1.1489 -0.0807464 7.54993 27 59 22
1.15753 -1.06708 7.86882 26 51 22
1.16687 -1.10674 8.17716 17 46 15
1.15183 -0.264036 7.56737 17 52 10
1.1689 -1.06981 8.18539 23 54 23
1.15148 0.447207 7.48093 26 60 25
1.15148 0.447207 7.48093 26 60 25
1.15558 -0.0310461 7.53622 25 59 24
1.15837 -0.166459 7.5361 28 57 26
1.15837 -0.166459 7.5361 28 57 26
1.15499 0.643954 7.39045 28 64 28
1.16079 -0.10663 7.5354 30 63 34
1.16113 -0.000947866 7.52974 27 58 27
1.18032 -1.15053 8.14561 23 52 24
1.18333 -1.039 8.17952 18 52 19
1.18351 -1.09547 8.14759 27 57 19
1.1864 -1.04081 8.14504 18 55 22
1.16586 -0.455085 7.43664 16 53 20
1.16883 0.00179482 7.52139 25 60 27
1.18684 -1.17552 8.12045 19 53 16
1.19065 -0.964036 8.14138 22 50 25
1.17202 0.644697 7.42038 34 61 26
1.18504 -1.0902 7.88173 17 51 18
1.19349 -1.12182 8.13302 18 49 17
1.17744 0.0610189 7.48398 31 61 23
1.1981 -1.00539 8.13768 20 56 30
1.18064 -0.0997739 7.5105 24 60 24
1.17813 -0.463784 7.40416 29 64 24
1.18137 0.2956 7.48522 26 58 21
1.18137 0.2956 7.48522 26 58 21
1.18254 0.43798 7.47867 29 65 27
1.18319 0.446867 7.46697 27 63 25
1.18251 -0.469935 7.41105 22 56 21
1.18568 0.452601 7.45894 32 62 28
1.21827 -1.14536 8.16296 24 51 16
1.19841 -0.467345 7.33314 28 54 17
1.20223 -0.488422 7.30987 18 54 16
1.23077 -0.99052 8.07983 21 54 27
1.21062 0.0573709 7.41836 30 60 32
1.23958 -1.05699 8.15527 22 53 12
1.21432 0.0223315 7.37194 24 57 26
1.2176 -0.655643 7.39319 27 58 27
1.21898 0.0797843 7.38672 29 58 28
1.21963 0.4624 7.37761 28 60 23
1.24828 -1.10981 8.16439 20 54 21
1.24829 -1.11018 8.16474 20 54 21
1.22801 -0.264245 7.47118 26 63 22
1.22445 0.0208149 7.33709 35 62 27
1.22878 -0.627351 7.39453 32 56 24
1.23252 -0.187326 7.46378 30 62 21
1.23168 -0.63297 7.38776 34 61 28
1.23595 -0.124875 7.45721 25 57 18
1.26242 -1.01438 8.06505 17 48 17
1.23599 -0.668763 7.3366 24 55 21
1.27225 -1.02417 8.10595 12 50 13
1.2795 -1.12006 8.13398 22 53 19
1.2475 0.631766 7.27268 44 67 39
1.25184 -0.705639 7.34174 20 49 18
1.40619 0.829549 10.9168 34 61 30
1.253 0.540416 7.30814 34 61 30
1.28775 -1.03898 8.03875 16 50 15
1.28596 -0.986216 7.98601 20 52 13
1.26078 0.558634 7.29743 35 62 27
1.26278 -0.209202 7.32001 22 53 12
1.2655 0.598806 7.30995 33 64 30
1.26623 -0.121681 7.32699 25 60 20
1.26571 -0.147882 7.31537 20 57 16
1.30312 -1.15846 8.18877 20 56 10
1.26728 -0.30926 7.32765 24 58 21
1.26607 0.0537338 7.27662 20 54 17
1.30058 -1.02025 7.99532 22 54 17
1.26834 0.442267 7.21238 25 52 19
1.30419 -1.05083 7.9925 16 50 13
1.30444 -1.01196 7.96988 24 56 19
1.27364 0.609777 7.22396 34 60 21
1.27756 0.529894 7.27503 27 59 20
1.28147 -0.560338 7.32976 21 58 15
1.27912 0.442157 7.22748 21 51 15
1.31253 -1.00696 7.95358 26 55 24
1.28322 0.139048 7.27077 24 50 21
1.28203 -0.483114 7.19543 24 56 17
1.28586 -0.0981354 7.2519 22 57 24
1.28881 -0.39509 7.24324 21 54 23
1.29105 -0.05854 7.25558 25 56 22
1.29196 -0.281345 7.26631 24 61 20
1.29408 -0.135173 7.26831 29 59 21
1.29657 -0.648407 7.24578 29 62 33
1.48419 0.704576 10.9592 10 47 14
1.48419 0.704576 10.9592 10 47 14
1.29941 -0.0369953 7.21702 26 63 12
1.29963 0.446272 7.20814 10 47 14
1.29998 0.447111 7.22596 10 47 14
1.30105 -0.626072 7.25711 28 60 37
1.29967 -0.438013 7.21094 22 57 24
1.30371 0.0571737 7.23749 17 52 19
1.30429 -0.648618 7.24344 28 62 25
1.30582 -0.57082 7.24727 32 64 25
1.30761 -0.58481 7.23457 30 59 29
1.30952 0.13786 7.2148 26 62 18
1.30537 -0.49914 7.14586 21 52 10
1.30962 0.439717 7.19986 31 61 25
1.30559 -0.485134 7.14215 26 58 17
1.31587 0.266124 7.20396 23 62 18
1.31161 -0.489634 7.12488 29 54 12
1.31603 0.492498 7.13734 16 55 10
1.31849 -0.643189 7.19502 24 62 23
1.31849 0.619156 7.14664 37 65 24
1.31562 -0.524448 7.11441 17 51 16
1.32186 0.362912 7.19258 30 53 27
1.31794 -0.504562 7.09337 22 58 22
1.32398 0.426535 7.18185 25 60 20
1.32137 -0.350317 7.14789 32 60 22
1.32635 0.570715 7.15155 21 63 17
1.32822 0.358233 7.15872 38 58 31
1.32654 -0.49343 7.09574 28 59 27
1.33578 -0.355818 7.14029 0 0 0
1.33824 -0.506555 7.07686 0 0 0
1.34139 -0.401508 7.10812 0 0 0
1.34339 0.0367551 7.09963 0 0 0
1.34141 -0.496573 7.05996 0 0 0
1.34834 -0.57638 7.18245 0 0 0
1.34883 -0.472727 7.12612 0 0 0
1.34985 -0.453915 7.1248 0 0 0
1.35431 -0.574795 7.1875 0 0 0
1.35006 -0.493044 7.04624 0 0 0
1.36409 -0.669017 7.27791 0 0 0
1.358 -0.549716 7.11863 0 0 0
1.36276 -0.100437 7.11551 0 0 0
1.36297 -0.466498 7.11098 0 0 0
1.37299 -0.68905 7.26253 0 0 0
1.3624 0.507661 7.00754 0 0 0
1.38091 -0.715276 7.29146 0 0 0
1.37015 -0.479452 7.08244 0 0 0
1.3747 -0.413983 7.03074 0 0 0
1.38844 -0.680453 7.25323 0 0 0
1.38101 -0.463191 7.06496 0 0 0
1.38101 -0.463191 7.06496 0 0 0
1.38498 -0.343139 7.05537 0 0 0
1.3801 -0.500229 6.98071 0 0 0
1.38596 0.113021 7.05102 0 0 0
1.38484 0.60602 6.9716 0 0 0
1.38915 -0.422054 7.02878 0 0 0
1.3875 -0.0520049 6.97344 0 0 0
1.3863 -0.506535 6.96295 0 0 0
1.39125 -0.438543 7.03347 0 0 0
1.39532 0.533124 7.00886 0 0 0
1.39532 0.533124 7.00886 0 0 0
1.39466 -0.078702 6.98577 0 0 0
1.39526 -0.0653601 6.95395 0 0 0
1.40057 -0.438773 7.02772 0 0 0
1.40361 -0.484842 7.00264 0 0 0
1.40644 -0.112941 7.01273 0 0 0
1.40685 -0.445735 7.02704 0 0 0
1.40617 -0.31156 7.00596 0 0 0
1.40093 -0.510077 6.92609 0 0 0
1.42403 -0.748887 7.25991 0 0 0
1.40897 -0.413373 6.99813 0 0 0
1.41007 -0.233838 6.99653 0 0 0
1.40676 -0.52219 6.90115 0 0 0
1.40911 -0.556982 6.87622 0 0 0
1.41877 -0.110663 6.95951 0 0 0
1.41273 -0.537505 6.86808 0 0 0
1.42202 0.0277805 6.97362 0 0 0
1.42044 -0.517911 6.91058 0 0 0
1.42892 -0.393585 6.97095 0 0 0
1.42956 -0.17116 6.96152 0 0 0
1.45988 -0.778492 7.23001 0 0 0
1.44048 -0.470292 6.944 0 0 0
1.44206 0.0903663 6.93004 0 0 0
1.44414 -0.362478 6.94081 0 0 0
1.51775 -0.465845 7.96636 0 0 0
1.44272 -0.413821 6.91802 0 0 0
1.44536 0.109761 6.93319 0 0 0
1.44275 -0.413751 6.90825 0 0 0
1.44234 -0.0697211 6.87885 0 0 0
1.44495 -0.436466 6.91521 0 0 0
1.44555 -0.384183 6.91828 0 0 0
1.44555 -0.384183 6.91828 0 0 0
1.449 0.215095 6.91413 0 0 0
1.44953 -0.45452 6.9376 0 0 0
1.45278 -0.382442 6.93065 0 0 0
1.46498 -0.144219 6.90681 0 0 0
1.46653 -0.512289 6.91315 0 0 0
1.46861 0.226051 6.88761 0 0 0
1.46815 -0.0587223 6.86259 0 0 0
1.47308 -0.0626005 6.86547 0 0 0
1.48508 -0.0936827 6.88621 0 0 0
1.68199 -0.724461 9.2651 0 0 0
1.49306 -0.107826 6.83962 0 0 0
1.50633 -0.550317 6.91772 0 0 0
1.50031 -0.103929 6.86227 0 0 0
1.51151 -0.344578 6.95179 0 0 0
1.50408 -0.0929857 6.84959 0 0 0
1.51533 -0.283747 6.94409 0 0 0
1.51822 -0.220086 6.93784 0 0 0
1.51786 -0.0826745 6.88101 0 0 0
1.51681 -0.104917 6.85593 0 0 0
1.526 -0.4483 6.95988 0 0 0
1.52783 -0.210114 6.91819 0 0 0
1.53662 -0.303285 6.94371 0 0 0
1.54661 -0.622792 7.06607 0 0 0
1.53905 -0.353314 6.95829 0 0 0
1.5377 -0.0845383 6.90927 0 0 0
1.54263 -0.178364 6.90755 0 0 0
1.54616 -0.234523 6.9348 0 0 0
1.54865 -0.284811 6.95694 0 0 0
1.54465 -0.0812979 6.87903 0 0 0
1.55413 -0.363294 6.96027 0 0 0
1.55248 -0.192956 6.93937 0 0 0
1.55547 -0.313252 6.96485 0 0 0
1.55934 -0.0717839 6.90754 0 0 0
1.56695 -0.528508 7.00015 0 0 0
1.56269 -0.0810519 6.9204 0 0 0
1.56678 -0.177205 6.93209 0 0 0
1.56834 -0.181398 6.93342 0 0 0
1.5665 0.0892105 6.89387 0 0 0
1.56771 0.057804 6.9085 0 0 0
1.57044 -0.124548 6.93644 0 0 0
1.57539 0.152264 6.87199 0 0 0
1.57666 0.238449 6.88219 0 0 0
1.58135 0.0419991 6.92211 0 0 0
1.58298 -0.141292 6.91489 0 0 0
1.58774 -0.227218 6.95434 0 0 0
1.5852 0.286455 6.88146 0 0 0
1.58855 0.190105 6.8819 0 0 0
1.59071 0.251368 6.8858 0 0 0
1.5976 -0.558635 6.97579 0 0 0
1.60041 -0.445282 6.99305 0 0 0
1.59712 -0.00588556 6.92586 0 0 0
1.59768 -0.262946 6.91919 0 0 0
1.59448 0.388129 6.86136 0 0 0
1.60987 -0.200719 6.94238 0 0 0
1.61758 -0.459516 7.00011 0 0 0
1.61479 0.0661304 6.9227 0 0 0
1.6193 -0.523412 6.97641 0 0 0
1.61922 -0.212358 6.94976 0 0 0
1.62188 -0.250982 6.95467 0 0 0
1.62127 0.0974863 6.92734 0 0 0
1.62621 -0.330648 6.99257 0 0 0
1.62723 -0.320583 7.00014 0 0 0
1.64804 -0.734127 7.18158 0 0 0
1.64942 -0.727021 7.14412 0 0 0
1.63905 -0.339909 7.0043 0 0 0
1.63922 -0.403225 6.99766 0 0 0
1.64052 -0.34511 6.97211 0 0 0
1.6441 -0.363145 7.00142 0 0 0
1.65248 -0.685069 7.09333 0 0 0
1.65325 -0.663636 7.09498 0 0 0
1.64525 -0.282406 6.99935 0 0 0
1.64525 -0.282406 6.99935 0 0 0
1.64027 0.095781 6.9307 0 0 0
1.64909 -0.437848 6.99328 0 0 0
1.65463 -0.18631 6.9872 0 0 0
1.65573 -0.221782 6.9986 0 0 0
1.6645 -0.679909 7.06136 0 0 0
1.66438 -0.614355 7.0562 0 0 0
1.66421 -0.556875 7.04898 0 0 0
1.65953 -0.128054 6.9794 0 0 0
1.67204 -0.561795 7.06319 0 0 0
1.66715 -0.00479939 6.96094 0 0 0
1.6778 -0.400791 7.02906 0 0 0
1.67177 0.0905696 6.93457 0 0 0
1.68133 -0.341246 7.01624 0 0 0
1.68204 -0.262604 6.99439 0 0 0
1.67843 0.200112 6.92527 0 0 0
1.69045 -0.35351 7.00018 0 0 0
1.68835 0.0440473 6.95862 0 0 0
1.68811 0.175166 6.94419 0 0 0
1.69043 0.0497766 6.96576 0 0 0
1.69722 -0.262056 6.99731 0 0 0
1.69973 -0.232248 6.99267 0 0 0
1.69821 0.127534 6.9503 0 0 0
1.71526 0.0513704 6.95723 0 0 0
1.71841 -0.503688 6.99631 0 0 0
1.72941 -0.140395 7.00457 0 0 0
1.73203 -0.357292 7.02755 0 0 0
1.73209 0.00356709 6.96683 0 0 0
1.98599 -0.0699625 9.18067 0 0 0
1.73871 -0.068828 6.97411 0 0 0
1.74981 -0.323456 7.0622 0 0 0
1.7568 0.0845195 6.95458 0 0 0
1.75737 0.367487 6.92083 0 0 0
1.79718 -0.635058 7.21027 0 0 0
1.78704 -0.307586 7.08208 0 0 0
1.96969 -0.331675 8.59246 0 0 0
1.79177 -0.285725 7.08957 0 0 0
1.78928 -0.284369 7.05294 0 0 0
1.78763 -0.517593 7.01532 0 0 0
1.79228 0.072177 7.00667 0 0 0
1.79971 -0.15013 7.06737 0 0 0
1.80098 -0.305805 7.07918 0 0 0
1.80311 -0.535054 7.02982 0 0 0
1.82346 -0.518859 7.057 0 0 0
1.84596 -0.304813 7.12507 0 0 0
1.8315 0.226049 6.98987 0 0 0
1.84764 -0.276399 7.11962 0 0 0
1.85129 -0.224963 7.10357 0 0 0
1.85306 -0.213764 7.11157 0 0 0
1.86133 -0.603172 7.1505 0 0 0
1.86757 -0.670048 7.1333 0 0 0
1.87883 -0.654916 7.14105 0 0 0
1.87767 -0.614615 7.12895 0 0 0
1.87847 -0.557148 7.12188 0 0 0
1.87191 0.30345 7.00836 0 0 0
1.89379 -0.562829 7.15098 0 0 0
1.88215 0.16924 7.01522 0 0 0
1.88758 -0.0735438 7.05554 0 0 0
1.89346 -0.545493 7.0801 0 0 0
1.91155 -0.552101 7.15418 0 0 0
1.90581 -0.360852 7.10857 0 0 0
1.93214 -0.442494 7.14262 0 0 0
1.93285 -0.366815 7.13259 0 0 0
1.93379 -0.306429 7.10199 0 0 0
1.94221 -0.24562 7.11901 0 0 0
1.9403 -0.261702 7.08516 0 0 0
1.94528 -0.433662 7.10973 0 0 0
1.9508 -0.202013 7.11109 0 0 0
1.95713 -0.277132 7.12368 0 0 0
1.95685 -0.263885 7.0995 0 0 0
1.96801 -0.604231 7.17195 0 0 0
1.96555 -0.305626 7.13704 0 0 0
1.96437 -0.252496 7.09937 0 0 0
1.96741 -0.165322 7.08276 0 0 0
1.97485 -0.324226 7.12812 0 0 0
1.97796 -0.521055 7.16284 0 0 0
1.97641 -0.279363 7.13305 0 0 0
1.97815 -0.279773 7.14847 0 0 0
1.97452 -0.517786 7.13934 0 0 0
1.97537 -0.500381 7.10334 0 0 0
1.98037 -0.274028 7.13702 0 0 0
1.98485 -0.222181 7.13942 0 0 0
1.98391 -0.21707 7.13181 0 0 0
2.00688 -0.664708 7.2653 0 0 0
1.99555 -0.253854 7.1055 0 0 0
1.99411 -0.0156478 7.09439 0 0 0
1.99736 -0.0396216 7.0937 0 0 0
2.00944 -0.30432 7.15332 0 0 0
2.0093 -0.113189 7.12218 0 0 0
2.01508 -0.176245 7.13062 0 0 0
2.01508 -0.176245 7.13062 0 0 0
2.03134 -0.443882 7.1441 0 0 0
2.02885 -0.512647 7.11503 0 0 0
2.05444 -0.388847 7.19743 0 0 0
2.04906 -0.300159 7.14209 0 0 0
2.05323 -0.327355 7.14615 0 0 0
2.06233 -0.419394 7.19681 0 0 0
2.05464 -0.159703 7.12789 0 0 0
2.05828 -0.170113 7.15417 0 0 0
2.06892 -0.385117 7.15608 0 0 0
2.0781 -0.333609 7.18972 0 0 0
2.08501 -0.551571 7.22537 0 0 0
2.07748 -0.122333 7.15419 0 0 0
2.07825 -0.112111 7.15369 0 0 0
2.08309 -0.220605 7.13814 0 0 0
2.08949 -0.159165 7.14876 0 0 0
2.08808 -0.138543 7.13164 0 0 0
2.11741 -0.536795 7.21998 0 0 0
2.11893 -0.547544 7.2147 0 0 0
2.12361 -0.54406 7.19283 0 0 0
2.13316 -0.451294 7.19682 0 0 0
2.13548 -0.532184 7.18532 0 0 0
2.14088 -0.369804 7.18692 0 0 0
2.17489 -0.505146 7.21937 0 0 0
2.17213 -0.488407 7.18889 0 0 0
2.16625 -0.53437 7.14937 0 0 0
2.19696 -0.522249 7.21777 0 0 0
2.19849 -0.515919 7.21379 0 0 0
3.9213 0.983308 16.54 0 0 0
3.96682 0.925909 16.7394 0 0 0
4.04013 0.979099 16.4976 0 0 0
3.98209 1.08736 16.1551 0 0 0
3.99995 1.08179 16.2295 0 0 0
3.99268 1.06672 16.1393 0 0 0
2.40081 0.614454 7.63011 0 0 0
3.99709 1.05284 16.1294 0 0 0
4.01128 1.09581 16.197 0 0 0
4.01128 1.09581 16.197 0 0 0
4.00938 1.15804 16.1349 0 0 0
4.05053 0.960364 16.3306 0 0 0
4.0295 1.04678 16.1563 0 0 0
4.02139 1.19749 16.1076 0 0 0
4.062 1.11649 16.2896 0 0 0
4.04982 1.08349 16.2211 0 0 0
4.02764 1.02304 16.1015 0 0 0
4.05224 1.00836 16.1855 0 0 0
4.05566 1.11825 16.1834 0 0 0
4.07052 1.15573 16.2503 0 0 0
4.06679 1.13567 16.1655 0 0 0
4.13046 0.998688 16.4865 0 0 0
4.13046 0.998688 16.4865 0 0 0
4.06606 1.20806 16.1432 0 0 0
4.04466 1.2089 16.0183 0 0 0
4.07129 0.946134 16.1509 0 0 0
4.07957 1.04994 16.1789 0 0 0
4.04431 1.0199 15.9849 0 0 0
4.06855 1.1856 16.0986 0 0 0
4.073 0.903352 16.1286 0 0 0
4.0742 1.2271 16.1173 0 0 0
4.06554 1.19381 16.0335 0 0 0
4.08702 1.08691 16.1446 0 0 0
4.07541 1.21511 16.0779 0 0 0
4.07268 1.20136 16.0549 0 0 0
4.10489 1.13888 16.2059 0 0 0
4.14077 1.00238 16.3896 0 0 0
4.11026 1.17815 16.2138 0 0 0
4.08897 1.11992 16.1047 0 0 0
4.09245 1.22542 16.1049 0 0 0
4.09528 1.01286 16.1152 0 0 0
4.09528 1.01286 16.1152 0 0 0
4.10566 1.09216 16.1558 0 0 0
4.11443 1.03925 16.1689 0 0 0
4.10931 1.14837 16.0534 0 0 0
4.10927 0.933405 16.0392 0 0 0
4.11787 1.08775 16.0613 0 0 0
4.14117 1.00968 16.157 0 0 0
4.13758 1.00784 16.0238 0 0 0
2.46983 -0.254685 7.15758 0 0 0
2.48041 -0.23288 7.18862 0 0 0
2.50009 -0.265498 7.16131 0 0 0
2.50181 -0.33652 7.16343 0 0 0
2.51171 -0.334031 7.15381 0 0 0
-2.5715 0.475381 5.51596 181 225 252
-2.2942 0.115105 5.37285 197 231 255
-2.28805 0.0846974 5.37543 199 234 254
-2.29407 -0.0905921 5.41042 200 235 254
-2.23475 0.396307 5.32918 189 229 254
-2.28609 -0.446103 5.46044 213 243 254
-2.28154 -0.480577 5.46266 216 244 255
-2.28895 -0.619625 5.48671 218 247 255
-2.22354 0.278958 5.3692 193 231 254
-2.212 0.338516 5.35878 192 229 255
-2.21382 0.246368 5.37464 195 231 255
-2.21382 0.246368 5.37464 195 231 255
-2.21733 0.206372 5.3822 197 231 255
-2.22212 -0.0361577 5.41409 205 236 255
-2.21909 -0.43016 5.47276 214 244 255
-2.20664 -0.197763 5.4468 211 240 255
-2.21887 -0.530225 5.48584 218 247 255
-2.19112 -0.0658556 5.43605 209 238 255
-2.19845 -0.275177 5.45948 212 241 255
-2.17323 0.0129824 5.42764 204 237 255
-2.15096 0.333069 5.38134 195 229 254
-2.21831 0.0529616 5.53484 204 237 255
-2.13848 0.166204 5.39879 202 234 255
-2.17129 -0.382435 5.4835 215 243 255
-2.17186 -0.485115 5.52098 218 247 255
-2.15604 -0.482364 5.49196 218 247 255
-2.12631 -0.376168 5.50205 216 244 255
-2.1002 0.103284 5.43991 204 237 255
-2.14308 -0.109103 5.55974 212 239 255
-2.09643 -0.187783 5.48283 213 241 255
-2.14617 -0.0217195 5.57162 207 239 254
-2.08348 -0.023953 5.45735 207 239 254
-2.07708 -0.0661924 5.46218 208 240 255
-2.04581 0.345223 5.40244 196 232 254
-2.09437 -0.54005 5.53646 221 248 255
-2.1432 0.466513 5.62015 196 232 255
-2.14168 0.276754 5.62698 199 234 254
-2.0616 -0.18079 5.49649 213 241 255
-2.07556 -0.614407 5.55567 224 249 255
-2.01251 0.378229 5.42482 202 232 255
-2.09106 0.116185 5.65428 204 237 254
-2.01927 -0.421177 5.54696 221 248 255
-1.98861 0.191326 5.49526 206 234 255
-2.06934 0.139422 5.66089 204 237 254
-2.01781 -0.778328 5.59556 231 252 255
-1.94529 0.438253 5.42707 200 232 255
-2.00939 -0.722347 5.60112 228 252 255
-2.11774 -0.977707 5.83276 232 253 254
-1.92781 0.432484 5.43913 200 232 255
-1.41978 0.333478 4.46823 202 235 254
-2.09819 -1.00496 5.85339 234 254 255
-1.96351 -0.363878 5.59097 222 246 255
-1.93546 0.0858033 5.53311 50 70 107
-1.89596 0.391206 5.44827 202 234 255
-1.87233 0.441681 5.45677 201 233 254
-1.9893 0.201905 5.70391 207 238 255
-1.93608 -0.801906 5.62925 232 253 254
-2.05387 -1.182 6.00687 238 255 255
-1.84553 -0.193866 5.56702 221 245 255
-1.83121 0.20504 5.53121 206 237 255
-2.0521 -1.2419 6.03204 241 255 255
-2.05118 -1.23752 6.03201 240 255 255
-1.83575 -0.0421649 5.55031 215 243 255
-2.04838 -1.24926 6.02936 243 254 255
-1.83091 -0.237325 5.59274 220 247 255
-2.02397 -1.25291 6.04291 243 254 255
-1.98042 -1.06894 5.96068 124 135 127
-1.80386 -0.316631 5.61524 225 248 255
-1.79823 -0.339252 5.6169 225 248 255
-1.79966 -0.382718 5.62635 226 249 255
-1.77498 0.0737686 5.56844 235 255 255
-1.78418 -0.167589 5.60276 219 246 255
-1.77844 -0.232835 5.60933 221 248 255
-1.78159 -0.265285 5.61947 224 247 255
-2.22904 -1.19468 6.61382 122 112 110
-2.22765 -1.18719 6.61148 123 116 110
-1.77421 -0.388369 5.6314 226 249 255
-2.21639 -1.19497 6.61479 110 94 105
-1.71762 0.237539 5.56081 208 240 255
-1.74269 -0.386686 5.64958 226 249 255
-1.72744 -0.0572859 5.61079 221 245 255
-1.72466 -0.173747 5.62161 223 248 255
-1.82462 -0.872561 5.86236 126 135 144
-1.69758 0.147717 5.57836 209 239 255
-1.69491 0.0708828 5.59911 78 86 99
-1.70696 -0.37675 5.65925 227 251 255
-1.69984 -0.460675 5.66537 230 251 255
-1.66139 0.344862 5.56126 209 238 255
-1.66894 -0.00800041 5.61838 239 253 255
-1.67038 -0.0861053 5.62712 135 134 165
-1.66868 -0.097281 5.62663 143 146 153
-1.67317 -0.210258 5.64838 224 247 253
-1.67717 -0.333155 5.66182 227 252 255
-1.6705 -0.229903 5.64747 224 249 254
-1.6713 -0.219499 5.64983 225 248 255
-1.6599 0.00654596 5.61754 236 242 238
-1.6687 -0.251314 5.64807 221 249 253
-1.65248 0.0822721 5.61215 157 154 175
-1.71845 0.0213494 5.76488 110 125 130
-1.64601 -0.346549 5.67459 86 95 112
-1.64867 -0.461422 5.69205 106 111 140
-1.59533 -0.175305 5.6283 115 119 131
-1.65225 -0.679088 5.77468 234 254 255
-1.78987 0.568769 6.23128 67 85 109
-1.91275 0.103027 6.55162 88 103 126
-1.98815 -0.870546 6.77385 239 255 255
-1.98899 -0.917141 6.78185 241 255 255
-1.99165 -1.09616 6.79959 241 255 255
-1.98529 -1.02724 6.79739 95 102 156
-1.9852 -1.04419 6.79821 241 255 255
-1.98465 -1.05088 6.79736 241 255 255
-1.98441 -1.08222 6.80429 243 255 255
-1.98214 -1.13462 6.80989 151 150 226
-1.80705 -0.356162 6.38603 42 58 84
-1.78642 0.0923594 6.33642 49 70 91
-1.78336 0.0630435 6.338 46 62 88
-1.79656 -0.295298 6.38312 63 80 110
-1.78829 -0.297245 6.3828 66 77 109
-1.78829 -0.297245 6.3828 66 77 109
-1.76439 0.232504 6.31746 45 62 88
-1.89408 0.317574 6.62972 29 42 61
-1.76502 0.179477 6.3254 70 82 104
-1.76704 0.119384 6.33441 77 100 118
-1.77376 -0.187924 6.37482 58 73 94
-1.7334 0.473266 6.26362 50 61 83
-1.76884 -0.138598 6.37361 51 56 85
-1.76129 -0.41267 6.39173 44 59 82
-1.75346 -0.553529 6.44982 40 56 81
-1.72155 0.0311451 6.35904 42 57 80
-1.72155 0.0311451 6.35904 42 57 80
-1.65356 -0.712191 6.49529 36 51 70
-1.64604 -0.717927 6.49045 41 53 75
-1.59863 0.500551 6.33095 40 52 74
-1.57586 0.0131126 6.41313 41 56 77
-1.56437 -0.536974 6.52789 134 120 107
-1.51197 0.429495 6.38817 67 84 114
-1.53195 -0.521588 6.48432 105 93 79
-1.7281 -1.16277 7.09551 38 62 74
-1.51307 -0.119224 6.49182 55 63 86
-1.49359 0.28461 6.42784 124 115 110
-1.50347 0.0491768 6.46481 46 57 79
-1.5121 -0.223942 6.49768 104 88 72
-1.50402 0.0107363 6.47027 47 53 77
-1.72377 -1.19255 7.10716 39 54 73
-1.50529 -0.111992 6.48642 48 64 89
-1.50373 -0.189317 6.49883 118 112 100
-1.50562 -0.33532 6.5111 65 82 110
-1.50562 -0.33532 6.5111 65 82 110
-1.50548 -0.355326 6.51602 49 60 88
-1.49343 -0.0920138 6.49375 40 51 73
-1.71041 -1.22288 7.12716 55 64 105
-1.49245 -0.312064 6.50172 36 55 70
-1.71012 -1.2678 7.13534 125 150 172
-1.48996 -0.334903 6.52258 45 60 89
-1.69805 -1.22036 7.13918 84 106 127
-1.45547 -0.375948 6.54698 47 60 79
-1.42004 -0.0151573 6.5049 50 52 75
-1.39436 -0.650538 6.62273 42 56 82
-1.52822 -1.12797 7.16851 98 81 97
-1.47588 -1.12138 7.18488 157 141 118
-1.30095 -0.723222 6.65154 99 103 128
-1.28913 -0.183552 6.62952 98 119 136
-1.29004 -0.718451 6.66596 79 80 82
-1.19113 0.424533 6.52118 136 109 82
-1.19869 -0.055528 6.59104 120 110 100
-1.20667 -0.408697 6.64873 129 113 97
-1.15998 0.0669164 6.61026 148 136 122
-1.19791 -0.189266 6.74469 134 123 105
-1.34868 -1.14817 7.26446 91 87 88
-1.15019 -0.439473 6.6779 149 139 130
-1.12598 -0.227469 6.65798 104 100 91
-1.13182 -0.445426 6.69065 161 154 135
-1.10654 -0.185541 6.66131 111 93 69
-1.11173 -0.309575 6.68255 132 117 96
-1.09576 -0.332065 6.69103 147 143 131
-1.25987 -1.12263 7.28368 156 155 150
-1.25331 -1.1264 7.29093 159 154 151
-1.12182 -0.047957 6.83365 154 152 140
-1.05917 0.268057 6.61136 145 132 116
-1.06966 -0.146366 6.6762 131 125 109
-1.06966 -0.146366 6.6762 131 125 109
-1.07116 -0.357657 6.70449 112 90 93
-1.06434 -0.339466 6.70099 146 143 134
-1.13965 0.138948 6.97752 128 122 100
-1.02911 0.107048 6.64131 141 130 110
-1.1596 -1.09669 7.30112 162 164 159
-1.15937 -1.11646 7.32879 164 163 159
-1.13749 -1.11523 7.33294 110 98 98
-0.970777 -0.2442 6.82553 87 103 119
-0.995341 -1.09583 7.37527 156 165 172
-0.881248 -0.781496 7.08398 119 110 105
-0.781074 -0.229968 6.80893 56 77 104
-0.809308 -0.997977 7.05149 54 59 39
-0.744934 -0.30211 6.7785 65 79 88
-0.64965 0.0249202 6.65157 55 63 65
-0.670525 -0.695216 6.90434 106 97 90
-0.622087 -0.494561 6.70814 75 71 62
-0.590272 -0.367849 6.74598 75 72 55
-0.590272 -0.367849 6.74598 75 72 55
-0.498556 0.471805 6.31552 147 135 121
-0.573438 -0.353285 6.74467 93 79 78
-0.464898 0.561208 6.22136 117 113 101
-0.526317 -0.477124 6.74363 108 107 103
-0.644724 -1.15117 7.41309 162 141 136
-0.6428 -1.14242 7.40806 152 133 126
-0.421483 -0.526724 6.45012 119 112 93
-0.589539 -1.14635 7.43506 120 101 94
-0.625375 -1.59399 7.67218 128 124 115
-0.363907 -0.560438 6.40975 109 104 98
-0.444828 -0.555914 6.83688 110 107 100
-0.443449 -0.603187 6.85408 96 97 83
-0.427515 -0.4844 6.79007 56 54 55
-0.427515 -0.4844 6.79007 56 54 55
-0.383117 0.176258 6.78881 42 58 74
-0.540696 -1.46284 7.68198 29 38 53
-0.429137 0.148076 7.29461 92 101 108
-0.235688 -0.722728 6.34298 62 78 93
-0.324614 0.167358 6.80983 87 107 134
-0.425699 -1.09922 7.4576 145 135 126
-0.315823 0.173364 6.81505 57 64 82
-0.299891 0.177164 6.81311 93 72 51
-0.313662 -0.639768 6.94991 106 106 96
-0.284857 -0.0977978 6.81466 86 82 79
-0.282179 0.168517 6.83096 83 68 45
-0.278245 0.155783 6.83296 81 70 74
-0.271988 0.393109 6.8018 124 120 117
-0.376425 -1.09181 7.4721 118 116 104
-0.187809 0.494958 6.49546 58 63 56
-0.181203 0.489689 6.48689 108 106 107
-0.230649 0.352493 6.83162 97 93 92
-0.229238 0.363464 6.82565 91 95 94
-0.229238 0.363464 6.82565 91 95 94
-0.318718 -1.01088 7.4087 68 56 68
-0.317104 -1.01807 7.41558 62 52 53
-0.236181 -0.573943 6.93045 80 84 95
-0.122755 0.544037 6.21715 44 39 33
-0.135964 0.517526 6.41036 100 96 85
-0.134419 0.512224 6.40391 98 96 83
-0.119719 0.0641894 6.83534 116 117 119
-0.120482 0.0519818 6.8473 99 101 100
-0.225211 -1.3095 7.66224 74 64 52
-0.223241 -1.30089 7.6527 94 75 68
-0.210984 -1.07952 7.58504 88 87 95
-0.205662 -0.958944 7.57311 91 90 104
-0.202653 -1.13445 7.59874 127 117 108
-0.189082 -0.942049 7.56144 238 235 254
-0.190682 -1.09654 7.60099 89 90 84
-0.190142 -1.14864 7.60408 144 136 123
-0.179497 -0.959055 7.58349 39 44 73
-0.0640196 -0.442442 6.97127 97 101 104
-0.0616385 -0.380333 6.95737 76 61 68
-0.157301 -1.08891 7.73754 93 90 81
-0.0310627 -0.520323 6.94034 32 35 40
-0.0268535 -0.487581 6.94793 28 41 47
-0.0207238 -0.160666 6.94133 89 91 90
0.105816 -0.46699 6.04397 46 71 76
0.0140481 -0.472662 6.97276 80 80 90
0.0439765 0.434292 6.86801 93 103 112
0.0439765 0.434292 6.86801 93 103 112
-0.062862 -1.10475 7.78992 69 70 72
-0.0195658 -0.781009 7.45123 89 93 102
-0.0334663 -1.10872 7.81523 64 70 82
-0.00438273 -1.11858 7.82982 46 51 54
0.129897 0.529379 6.64208 75 80 84
0.116007 -0.494841 6.9866 80 95 102
0.0254167 -1.09235 7.82107 78 86 88
0.113734 -0.643774 7.24167 65 72 80
0.165825 -0.715716 7.26393 61 70 77
0.174498 -0.32722 7.21418 70 81 99
0.203635 -0.258725 7.26003 28 41 49
0.346877 -0.569597 5.81672 53 64 70
0.149706 -1.11261 7.89555 62 72 82
0.269888 -1.01206 6.94814 79 85 99
0.239817 -0.663927 7.29919 22 28 42
0.287068 -0.627516 7.32345 59 76 84
0.303692 -0.524863 7.31433 89 103 116
0.312088 -0.300088 7.26315 92 108 123
0.322606 0.457291 7.15561 101 118 138
0.30208 -0.714191 7.52854 137 137 129
0.448906 -0.311108 5.78072 194 193 175
0.303857 -0.777048 7.5805 248 241 215
0.336813 0.0544945 7.20606 255 255 229
0.345989 -0.0794356 7.24061 243 227 211
0.357231 -0.412739 7.30137 247 234 218
0.366252 -0.134761 7.26696 240 228 212
0.36858 -0.185942 7.27804 249 240 225
0.522606 -0.354078 5.26526 250 238 224
0.385976 -0.456922 7.28384 250 240 230
0.38766 -0.233354 7.29411 241 231 219
0.39968 -0.380648 7.32218 245 231 228
0.404595 -0.196984 7.29297 250 242 229
0.563894 -0.34883 5.0761 121 115 149
0.414729 -0.0161593 7.2462 249 239 229
0.389433 -1.10562 7.98042 96 107 137
0.441635 -0.0579646 7.28809 246 236 227
0.439844 -0.52001 7.36646 100 115 144
0.446127 -0.185472 7.30819 252 244 231
0.475327 -0.257457 7.31522 214 197 213
0.496171 0.263164 7.25528 252 245 237
0.500473 -0.0416225 7.30537 254 244 235
0.468621 -1.10032 8.00503 86 102 128
0.524802 0.491741 7.20156 245 238 230
0.506487 -1.06893 7.99477 82 98 121
0.543658 -0.463505 7.34473 165 155 156
0.585932 -1.02737 6.99891 77 95 117
0.549451 -1.18644 8.0895 61 79 99
0.563627 -1.13069 8.0556 81 99 119
0.609891 -0.00677083 7.33162 255 253 241
0.64072 -0.742283 7.69817 79 95 108
0.668027 -0.557794 7.47163 73 86 94
0.675257 -0.448082 7.39857 86 122 50
0.688735 -0.085369 7.38327 107 122 57
0.674246 -0.975194 7.95586 46 65 69
0.694394 -0.505157 7.47129 29 58 27
0.69782 -0.787204 7.72893 26 54 31
0.714411 -0.222273 7.41581 40 63 35
0.716007 -0.412899 7.44844 30 61 30
0.721206 0.190764 7.35415 175 198 64
0.717177 -0.7258 7.71317 22 55 28
0.725561 -0.404806 7.45656 34 63 33
0.74509 0.124137 7.38055 142 161 71
0.747194 -0.329947 7.44983 28 54 25
0.757424 0.241236 7.36424 174 193 75
0.774127 -0.424694 7.48084 34 60 23
0.793872 -0.0592808 7.43272 65 75 51
0.795187 -0.277231 7.46146 29 59 31
0.800027 -0.345547 7.46768 30 59 28
0.801564 -0.447368 7.44597 34 58 36
0.814233 -0.0758241 7.43502 35 59 33
0.830668 0.0202051 7.42837 28 63 31
0.831717 0.213711 7.39641 138 156 74
0.853707 -0.505867 7.52629 30 61 27
0.858209 -0.470199 7.46234 46 62 33
0.892402 -0.446404 7.48697 28 58 24
0.906929 -1.06895 7.18914 33 59 34
0.923585 -0.679937 7.55061 22 57 27
0.930535 -1.06656 7.21311 28 54 25
