ply
format ascii 1.0 
element vertex 1350
property float32 x 
property float32 y 
property float32 z
property uchar red  
property uchar green
property uchar blue
element face 0
property list uchar int vertex_indices
end_header
-0.43199 -0.888894 6.75423 42 45 60
-0.579865 -1.58539 7.53935 84 87 94
-0.433628 -0.875042 6.77496 118 120 107
-0.53611 -1.30125 7.3439 152 148 139
-0.426094 -0.801954 6.75648 79 69 68
-0.569566 -1.4567 7.54011 121 112 115
-0.540913 -1.29576 7.38899 157 150 140
-0.562823 -1.45662 7.54436 119 120 125
-0.414901 -0.796664 6.76549 84 73 71
-0.56185 -1.44256 7.56816 114 123 130
-0.553922 -1.43985 7.57278 101 104 111
-0.511076 -1.30217 7.36801 120 104 89
-0.392217 -0.886987 6.77522 124 113 117
-0.547717 -1.4003 7.62193 79 69 59
-0.390722 -0.647168 6.77259 82 100 120
-0.390722 -0.647168 6.77259 82 100 120
-0.391893 -0.931205 6.7951 71 81 93
-0.381806 -0.337395 6.74494 83 101 123
-0.382305 -0.175412 6.74363 82 81 89
-0.382305 -0.175412 6.74363 82 81 89
-0.484383 -1.23217 7.34702 120 113 97
-0.503634 -1.40117 7.45546 126 109 89
-0.503634 -1.40117 7.45546 126 109 89
-0.413271 -0.876277 6.96478 112 109 100
-0.368577 -0.575118 6.72734 110 100 108
-0.229653 0.495947 5.95907 87 88 108
-0.29001 0.437727 6.28741 112 105 99
-0.496941 -1.38981 7.45741 121 106 87
-0.467523 -1.27991 7.35607 154 144 134
-0.364201 -0.945545 6.78686 73 88 109
-0.361759 -0.991816 6.78226 61 78 96
-0.368574 -0.76009 6.82143 111 110 105
-0.355716 -0.875346 6.77616 114 109 103
-0.341916 0.321824 6.67796 114 110 109
-0.343301 0.0707577 6.71278 59 71 95
-0.462834 -1.29939 7.41181 115 105 96
-0.331514 -0.0389285 6.66757 93 92 90
-0.357298 -0.786044 6.83583 77 71 71
-0.34942 -0.78238 6.80369 77 71 71
-0.337799 0.0885736 6.7092 77 68 63
-0.349605 -0.97643 6.80477 218 235 229
-0.468509 -1.40863 7.4771 142 120 96
-0.194277 0.511791 5.92445 42 43 48
-0.45368 -1.29266 7.41149 148 144 133
-0.437131 -1.25195 7.33851 138 140 119
-0.339341 -0.370164 6.76827 97 124 131
-0.354063 -0.779704 6.87209 120 115 112
-0.441036 -1.27525 7.37706 154 148 134
-0.437464 -1.2679 7.37387 152 148 137
-0.336483 -1.00707 6.80453 154 143 185
-0.333712 -0.90225 6.80921 61 75 86
-0.319238 -0.55438 6.73207 113 109 110
-0.442581 -1.33868 7.45532 123 97 110
-0.434271 -1.2785 7.41219 156 149 139
-0.427948 -1.26275 7.37752 143 143 133
-0.322531 -0.928216 6.80116 229 238 255
-0.323047 -0.894484 6.81363 45 53 64
-0.306622 -0.609579 6.71583 65 79 90
-0.321101 -0.942298 6.81457 87 81 115
-0.428549 -1.32977 7.4353 149 131 129
-0.428199 -1.30908 7.44126 158 148 138
-0.425436 -1.32038 7.43312 149 141 130
-0.302457 0.3287 6.70889 112 107 103
-0.302457 0.3287 6.70889 112 107 103
-0.19661 0.471609 6.11115 56 50 34
-0.391787 -1.27839 7.39783 155 150 131
-0.269966 -0.0370916 6.66723 109 104 108
-0.279824 0.0495881 6.73507 96 96 108
-0.292838 -0.924667 6.85156 120 126 140
-0.386302 -1.27092 7.41217 155 146 129
-0.272079 0.0925523 6.72364 86 68 54
-0.405209 -1.32157 7.53422 154 146 135
-0.273095 -0.594541 6.74989 60 73 92
-0.225786 0.404065 6.46414 122 118 115
-0.283084 -0.818553 6.83721 83 73 72
-0.277925 -0.912376 6.83834 240 255 241
-0.387147 -1.28248 7.50722 156 150 136
-0.443179 -1.40079 7.8547 153 146 130
-0.432265 -1.40056 7.84393 149 142 124
-0.42884 -1.38684 7.85552 154 142 128
-0.207853 -0.422042 6.51898 100 98 99
-0.207853 -0.422042 6.51898 100 98 99
-0.25332 -0.436317 6.79596 100 98 99
-0.25332 -0.436317 6.79596 100 98 99
-0.250654 -0.80026 6.81602 70 60 59
-0.165682 0.443414 6.30164 84 86 72
-0.240002 -0.625203 6.77218 76 85 92
-0.121126 0.464123 6.0379 40 44 29
-0.144945 0.465112 6.19223 29 39 31
-0.243436 -0.814963 6.83578 70 59 63
-0.382994 -1.41604 7.73623 104 81 75
-0.382994 -1.41604 7.73623 104 81 75
-0.239468 -0.888066 6.86021 92 96 95
-0.239759 -0.779322 6.86042 111 107 108
-0.366588 -1.41228 7.7043 89 70 63
-0.366588 -1.41228 7.7043 89 70 63
-0.209035 -0.167177 6.72633 77 78 80
-0.357196 -1.42086 7.67103 89 70 64
-0.127767 0.464559 6.22031 39 49 40
-0.208945 -0.639858 6.77841 61 84 90
-0.276917 -1.06737 7.24734 92 81 124
-0.213013 -0.726311 6.84824 90 93 98
-0.102236 -0.846395 6.16315 245 246 255
-0.211417 -0.734938 6.85885 112 107 103
-0.33368 -1.30107 7.63752 151 145 131
-0.228708 -0.945815 6.98046 80 81 102
-0.228708 -0.945815 6.98046 80 81 102
-0.328219 -1.30771 7.63032 154 144 135
-0.2064 -0.862802 6.88485 103 99 96
-0.197271 -0.887168 6.85114 101 100 96
-0.194766 -0.882138 6.85893 104 105 100
-0.191224 -0.687232 6.85351 68 78 87
-0.189801 -0.7094 6.85463 66 75 90
-0.296629 -1.27972 7.58932 124 128 113
-0.28964 -1.31926 7.57164 146 139 131
-0.172416 -0.697353 6.82712 71 78 86
-0.158712 0.387447 6.70721 113 115 112
-0.178612 -0.672352 6.85673 69 75 87
-0.277687 -1.36401 7.52196 148 122 135
-0.158839 -1.32676 6.80958 95 70 66
-0.268989 -1.45921 7.53826 95 70 66
-0.161672 -0.688419 6.86348 67 77 79
-0.255979 -1.42739 7.50119 113 88 81
-0.246167 -1.23491 7.46132 86 83 78
-0.243666 -1.43711 7.50424 93 68 64
-0.235149 -1.24566 7.46068 80 85 78
-0.240317 -1.3406 7.51916 143 129 118
-0.230285 -1.35176 7.47712 108 78 80
-0.14058 -0.684891 6.86601 67 74 82
-0.232291 -1.18305 7.50558 95 99 100
-0.137517 -0.668841 6.86485 66 75 92
-0.227162 -1.19116 7.48111 93 82 98
-0.212826 -1.11254 7.44344 72 88 111
-0.0928233 0.338659 6.633 78 77 73
-0.118147 -0.498315 6.82961 57 57 59
-0.034937 0.464962 6.24491 39 51 49
-0.124086 -0.649886 6.88113 48 70 83
-0.12938 -0.729738 6.92027 66 82 105
-0.124068 -0.687876 6.89445 61 72 90
-0.209553 -1.15064 7.50037 87 90 97
-0.212159 -1.42296 7.53189 96 73 67
-0.208727 -1.30694 7.53042 145 139 127
-0.201149 -1.08427 7.47503 227 237 228
-0.208893 -1.37779 7.53495 69 56 40
-0.154045 -0.940898 7.1578 45 62 78
-0.0726015 0.335201 6.58981 59 61 56
-0.204778 -1.37124 7.53752 70 53 43
-0.0742388 0.330691 6.60436 123 121 126
-0.203895 -1.34336 7.53427 138 119 121
-0.20071 -1.42183 7.54749 96 78 66
-0.0703751 0.342728 6.60869 88 85 80
-0.0814796 0.308237 6.70501 117 128 134
-0.0908526 -0.55528 6.86362 97 101 104
-0.190863 -1.23841 7.60699 102 99 92
-0.199513 -1.29569 7.67443 122 123 115
-0.177814 -1.30719 7.53029 136 130 118
0.0229481 0.505821 6.07513 16 33 51
-0.187104 -1.2436 7.63781 93 90 81
-0.0635978 -0.026019 6.77473 101 100 106
-0.0604506 -0.390836 6.80373 106 108 105
0.0660267 -0.503475 5.93233 98 99 94
-0.120083 -0.926311 7.33823 80 82 81
-0.0504552 -0.394714 6.85793 107 105 116
-0.0481884 -0.446823 6.86195 98 103 106
-0.108444 -0.93328 7.32352 93 99 97
-0.108444 -0.93328 7.32352 93 99 97
-0.0421359 -0.391803 6.85386 72 87 106
-0.0336782 -0.260066 6.84174 81 89 92
-0.0952783 -0.90441 7.34604 88 89 91
-0.127082 -1.2702 7.65885 122 121 116
-0.141745 -1.28265 7.74314 122 121 116
-0.0241729 -0.653322 6.91769 60 70 82
-0.115681 -1.27935 7.69585 76 72 61
0.0331422 0.370787 6.55594 97 100 107
-0.0971114 -1.26619 7.72881 69 70 72
0.0252769 0.357599 6.77747 89 101 113
-0.0919991 -1.2749 7.75238 77 79 78
0.00909908 -0.679586 6.96005 76 78 75
0.021787 -0.647214 6.92322 75 80 76
-0.0266106 -0.887984 7.33838 82 92 104
0.0421469 -0.141172 6.7973 88 103 124
-0.0693433 -1.27655 7.74257 83 86 95
0.0412825 -0.603359 6.8688 83 85 97
-0.0609287 -1.27955 7.76825 51 61 70
-0.0436098 -1.24208 7.7085 81 80 98
-0.0408831 -1.25576 7.71086 42 45 60
0.0651056 0.301606 6.81402 43 56 62
0.106338 0.470372 6.56123 79 82 87
0.0591484 -0.674644 6.98844 48 58 59
0.0767715 -0.605123 6.91322 67 78 82
0.0526859 -0.774798 7.14291 74 78 89
0.0689071 -0.488766 7.07675 80 77 94
0.0699775 -0.555515 7.10009 69 83 92
0.0598542 -0.84612 7.244 57 62 65
0.0735688 -0.743424 7.13915 88 91 110
0.196026 0.518363 6.10165 16 35 49
0.0923987 0.0422929 7.02631 57 64 80
0.0841335 -0.782318 7.1376 83 87 99
0.0899854 -0.800339 7.12456 59 74 81
0.0938305 -0.793261 7.135 72 80 93
0.0947759 -0.800434 7.15226 65 75 84
0.122812 -0.793604 7.16306 82 86 98
0.135557 -0.576442 7.09987 65 71 87
0.0897806 -1.39936 7.57471 115 114 119
0.136558 -0.3946 7.13332 30 45 48
0.141882 -0.166986 7.12655 87 93 119
0.0738445 -1.26288 7.7981 73 74 94
0.157612 0.274745 7.08759 41 58 65
0.151104 -0.789784 7.17507 57 67 77
0.0931834 -1.28448 7.80382 81 88 106
0.170856 -0.79428 7.12706 58 66 79
0.167343 -0.338138 7.15629 39 42 51
0.10561 -1.26768 7.81189 35 63 66
0.168501 -0.844327 7.1921 68 71 76
0.189613 -0.199706 7.14996 51 61 73
0.205896 -0.000422336 7.06347 48 57 74
0.286931 0.530865 6.31979 90 93 102
0.153401 -1.29165 7.82016 69 76 95
0.21023 -0.772396 7.21284 22 39 49
0.222415 -0.435678 7.11671 31 40 57
0.21732 -0.802838 7.18338 26 36 48
0.157032 -1.29157 7.85066 54 67 83
0.16845 -1.26747 7.78985 18 31 48
0.199333 -0.914282 7.46599 64 72 91
0.206849 -0.887132 7.42393 64 72 83
0.238168 -0.121989 7.06019 76 78 93
0.242865 -0.573804 7.10935 30 38 51
0.217736 -0.937069 7.45164 29 33 42
0.1814 -1.30909 7.87095 56 72 85
-1.5508 -2.68294 27.1139 46 56 66
0.253384 -0.165489 7.13729 88 90 105
0.24901 -0.731324 7.20838 57 71 74
0.267017 0.470714 7.05452 95 110 131
0.262249 -0.575864 7.13179 65 73 86
0.235917 -0.922441 7.49678 54 73 79
0.204442 -1.29569 7.86944 39 57 59
0.267979 -0.733542 7.21585 67 79 93
0.218816 -1.30499 7.86361 78 100 113
0.278675 -0.625392 7.21151 82 96 109
0.262512 -0.882346 7.46664 85 99 112
0.305056 0.375184 7.06608 103 116 133
0.305056 0.375184 7.06608 103 116 133
0.281825 -0.933068 7.4781 255 247 218
0.319369 -0.0264116 7.1169 245 234 212
0.290837 -0.876769 7.48231 245 232 216
0.263096 -1.26769 7.8456 242 229 212
0.317199 -0.569497 7.16402 240 232 211
0.267953 -1.26461 7.8651 242 230 214
0.341034 -0.469225 7.19523 248 234 223
0.341737 -0.376936 7.18678 247 234 218
0.296195 -1.25935 7.83596 237 222 217
0.345985 -0.192284 7.16137 249 237 225
0.359104 0.4185 7.05527 250 241 226
0.354502 -0.707814 7.24052 251 241 231
0.349923 -0.708759 7.27689 251 241 231
0.358109 -0.452869 7.20708 251 239 227
0.358109 -0.452869 7.20708 251 239 227
0.367273 0.313804 7.11346 252 242 232
0.368101 0.272454 7.10678 250 238 226
0.363728 -0.618054 7.18811 253 239 230
0.363728 -0.618054 7.18811 253 239 230
0.375552 -0.342049 7.19002 249 239 227
0.378877 -0.725964 7.34993 96 109 143
0.398384 -0.679308 7.29507 104 121 149
0.391792 -0.759394 7.40616 96 110 139
0.358527 -1.27487 7.90571 94 105 135
0.404552 -0.574849 7.22282 99 116 142
0.411327 0.372964 7.1165 251 242 233
0.365021 -1.24365 7.89259 93 108 139
0.412193 -0.161792 7.19524 250 241 232
0.411156 -0.500918 7.24549 122 130 153
0.419687 -0.266411 7.18471 252 243 234
0.419687 -0.266411 7.18471 252 243 234
0.418679 -0.568698 7.19995 103 115 139
0.44147 0.563897 6.85425 255 246 237
0.418416 -0.335827 7.21869 247 237 227
0.411073 -0.700744 7.34698 97 112 145
0.377113 -1.26738 7.90727 86 103 129
0.426201 -0.321013 7.19618 255 249 237
0.423376 -0.649543 7.27209 96 110 139
0.432266 -0.301676 7.20813 253 243 234
0.385579 -1.26659 7.93987 87 107 131
0.440468 -0.573806 7.21886 99 115 140
0.447076 0.029912 7.15338 252 243 234
0.327504 -0.70884 9.05094 98 113 142
0.448974 0.350706 7.13436 249 240 231
0.439135 -0.759478 7.30679 96 113 139
0.403077 -1.30356 7.95058 88 106 126
0.452948 0.226761 7.14605 254 247 239
0.447086 -0.740515 7.29416 91 109 133
0.478813 0.415475 6.84706 255 250 241
0.454447 -0.809408 7.30441 89 109 133
0.463022 -0.0979027 7.19788 250 240 231
0.472402 0.0953812 7.17983 255 246 237
0.478019 0.227682 7.16839 252 243 236
0.47534 -0.487058 7.25868 103 115 141
0.490947 0.420111 7.11005 250 241 234
0.481297 -0.824643 7.30286 92 102 129
0.486937 -0.786306 7.27464 94 107 126
0.45676 -1.25906 7.92261 76 90 119
0.45691 -1.29477 7.98558 75 96 115
0.498609 -0.204879 7.2507 249 239 229
0.523409 0.541644 6.86078 250 241 234
0.500925 -0.709141 7.32381 91 103 127
0.50362 -0.73607 7.3046 106 117 137
0.533566 0.508534 6.87548 252 243 234
0.533566 0.508534 6.87548 252 243 234
0.540717 0.421152 6.86987 248 238 229
0.494637 -1.31282 7.99937 85 102 122
0.529141 -0.716999 7.35879 161 162 154
0.535241 -0.824152 7.30323 98 110 132
0.498602 -1.45061 8.03347 80 93 112
0.538682 -0.820726 7.30918 95 106 126
0.507172 -1.45426 8.02718 83 95 119
0.509317 -1.44246 8.00416 80 92 116
0.514852 -1.30289 7.9475 79 96 114
0.513716 -1.4129 7.99466 79 97 117
0.51196 -1.41692 8.01843 79 97 117
0.51658 -1.36455 7.99277 74 90 113
0.51658 -1.36455 7.99277 74 90 113
0.515138 -1.45038 8.02759 80 91 119
0.518951 -1.43502 7.9825 81 96 125
0.517457 -1.43731 7.9969 81 96 125
0.516374 -1.34609 8.01418 63 78 101
0.554099 -0.582571 7.26472 243 230 213
0.525696 -1.22801 7.89754 80 95 116
0.525661 -1.36784 7.99636 69 87 107
0.525677 -1.33651 8.01977 86 102 118
0.5663 0.0444658 7.20835 250 238 226
0.532551 -1.29568 7.96395 75 91 114
0.56973 0.46974 7.16621 240 231 216
0.542179 -1.30984 7.97331 79 100 119
0.55863 -0.891816 7.5843 84 99 120
0.574443 -0.577976 7.24169 247 234 218
0.543287 -1.25365 7.93969 89 104 125
0.543287 -1.25365 7.93969 89 104 125
0.575731 0.148229 7.24822 250 238 224
0.587668 0.431568 7.03336 250 242 223
0.574391 -0.802945 7.36391 109 118 133
0.550716 -1.30045 7.96765 89 109 133
0.583795 0.041706 7.217 244 233 215
0.554459 -1.24506 7.96762 71 91 116
0.556005 -1.29169 7.97773 78 95 123
0.58855 -0.161979 7.2276 247 235 219
0.587747 -0.583043 7.27308 149 128 147
0.565765 -1.2685 8.0079 59 77 99
0.582145 -0.931072 7.62892 86 98 122
0.60927 0.489733 7.18512 176 194 95
0.624858 -0.762799 7.35576 80 99 114
0.624858 -0.762799 7.35576 80 99 114
0.622576 -0.879774 7.58866 79 95 108
0.63051 -0.792547 7.35253 81 94 111
0.632851 -0.411014 7.31626 125 143 103
0.638696 0.470221 7.19959 192 211 95
0.632242 -0.752353 7.37846 78 91 110
0.639197 0.506976 7.23811 180 198 88
0.639668 -0.612664 7.27259 116 121 125
0.631007 -0.889698 7.59651 87 97 109
0.641043 -0.417721 7.33254 165 184 103
0.640439 -0.797619 7.35488 99 108 123
0.63783 -0.916989 7.66081 90 99 116
0.656243 -0.183974 7.27858 180 203 86
0.646034 -0.891367 7.62088 96 103 113
0.637798 -1.23727 7.90484 90 99 114
0.643117 -1.19574 7.98679 112 112 110
0.643117 -1.19574 7.98679 112 112 110
0.674377 0.0522986 7.24743 167 188 61
0.677812 -0.627458 7.3547 29 58 27
0.676946 -0.682506 7.36229 30 62 38
0.682762 -0.631384 7.37435 31 57 30
0.690152 -0.225814 7.29846 54 82 34
0.688239 -0.669598 7.42658 24 57 26
0.699205 0.38368 7.18969 184 204 71
0.697511 -0.532644 7.35254 30 61 30
0.709482 -0.38256 7.32404 29 61 24
0.711502 -0.298477 7.3229 39 64 35
0.722817 -0.545235 7.36028 39 61 38
0.724728 -0.189123 7.31397 37 73 29
0.729241 0.389909 7.2178 179 201 64
0.727287 0.0301308 7.29316 142 161 71
0.729029 -0.0551225 7.29954 57 91 31
0.731536 0.0975485 7.2664 160 183 53
0.73074 -0.0117254 7.30199 86 117 47
0.732594 -0.044375 7.27587 66 96 34
0.732488 -0.298343 7.33443 37 67 31
0.737655 0.228697 7.25126 172 197 70
0.739597 0.294573 7.2453 177 196 80
0.738637 -0.158083 7.30888 39 71 30
0.74074 0.171573 7.25974 176 195 87
0.72058 -1.31801 8.3165 22 55 26
0.742244 -0.569926 7.34167 23 54 23
0.744666 -0.0355154 7.30333 86 106 47
0.743701 -0.244311 7.34712 33 58 26
0.747639 -0.111026 7.27346 40 66 29
0.743213 -0.764194 7.54409 29 58 28
0.748748 -0.389003 7.35291 33 59 24
0.752785 -0.33464 7.33618 38 66 28
0.74326 -1.03462 7.82409 29 58 30
0.735535 -1.31966 8.32046 34 61 30
0.737089 -1.31265 8.28 34 61 30
0.737828 -1.30524 8.29035 29 58 30
0.765755 -0.741774 7.51396 30 66 30
0.772002 -0.604324 7.32933 41 66 37
0.772002 -0.604324 7.32933 41 66 37
0.774405 0.110378 7.3051 164 185 54
0.774621 -0.313727 7.32779 39 63 27
0.777603 -0.183937 7.34493 41 58 39
0.760225 -1.22475 8.30144 30 51 32
0.762858 -1.25082 8.28117 27 59 20
0.763371 -1.18556 8.2877 24 55 23
0.763371 -1.18556 8.2877 24 55 23
0.782948 -0.158822 7.34809 52 65 37
0.770272 -1.31866 8.24569 21 52 18
0.773976 -1.13347 8.27087 21 57 21
0.791777 -0.579205 7.34111 29 58 28
0.774978 -1.26308 8.29513 26 54 31
0.792531 0.0716071 7.296 93 122 38
0.794743 -0.253599 7.33509 23 61 22
0.797866 -0.179641 7.33643 35 59 33
0.798054 -0.212263 7.35507 25 62 19
0.798054 -0.212263 7.35507 25 62 19
0.803131 -0.232838 7.35111 36 63 30
0.803131 -0.232838 7.35111 36 63 30
0.790926 -1.11656 8.23763 27 59 35
0.792959 -1.32247 8.18642 28 54 27
0.813753 0.428176 7.05183 181 201 76
0.808979 -0.641835 7.43058 25 56 24
0.811371 -0.55936 7.3652 29 60 26
0.821001 0.163122 7.30438 151 168 66
0.821539 -0.643363 7.42865 32 64 25
0.821539 -0.643363 7.42865 32 64 25
0.825397 0.352927 7.2596 171 197 61
0.825634 0.293287 7.28267 175 205 75
0.825634 0.293287 7.28267 175 205 75
0.814949 -1.33501 8.12031 17 50 23
0.831358 0.512877 7.01693 181 200 82
0.827186 -0.295114 7.36325 37 61 29
0.830375 -0.790764 7.41873 27 56 26
0.838828 -0.0164237 7.32038 62 66 52
0.841556 0.388425 7.29655 174 179 61
0.84602 0.447848 7.01354 160 182 55
0.85519 0.29338 7.29883 178 205 66
0.875598 -0.567529 7.39163 28 58 24
0.883174 0.0627029 7.32694 34 65 34
0.88597 0.110165 7.30484 44 66 28
0.884352 -1.34086 7.96184 29 58 28
0.887869 -0.23604 7.39357 38 64 35
0.886633 -1.1167 8.02013 23 57 20
0.89418 0.425396 7.00748 186 208 61
0.892686 -1.0855 8.019 27 56 28
0.896911 -0.811923 7.47432 29 63 26
0.900403 0.3907 7.2886 161 184 52
0.898422 -1.07175 8.01461 25 58 27
0.904913 -1.2566 7.95886 29 55 26
0.905667 -1.02505 7.98957 26 54 31
0.90744 -1.15783 7.96233 29 55 30
0.909525 -1.12314 7.96828 32 63 32
0.91311 -1.29488 7.94823 23 52 22
0.922361 -1.20595 7.93731 23 54 22
0.924775 -1.28823 7.98898 15 49 14
0.935454 -0.79442 7.49382 25 56 24
0.936018 -0.785866 7.47189 29 58 28
0.936952 -0.0151446 7.35333 22 59 26
0.937257 -0.19083 7.40464 29 59 33
0.937257 -0.19083 7.40464 29 59 33
0.938308 -1.10522 7.948 23 51 26
0.940116 0.257206 7.37526 49 70 37
0.941558 -0.926599 7.92731 19 56 23
0.942612 -1.21969 7.9645 28 55 24
0.942612 -1.21969 7.9645 28 55 24
0.944134 -1.04102 7.95703 27 53 24
0.946257 -1.33473 7.9665 24 54 30
0.946918 0.126801 7.39682 17 54 20
0.946918 0.126801 7.39682 17 54 20
0.946918 0.126801 7.39682 17 54 20
0.948052 -1.1621 7.96239 29 55 30
0.954648 -1.22275 7.94985 21 56 23
0.955305 -1.04224 7.94071 30 59 29
0.955729 -1.03239 7.94621 26 53 20
0.956218 -0.917915 7.9334 28 58 32
0.957789 -1.33611 7.99787 25 56 25
0.956022 -0.744689 7.4885 23 55 18
0.960215 0.30803 7.3615 40 66 27
0.960215 0.30803 7.3615 40 66 27
0.965555 -1.34528 7.97577 47 58 44
0.971521 -1.17525 7.96191 20 51 19
0.976947 -1.14073 7.9758 25 55 21
0.978768 -1.09301 7.98107 23 52 24
0.97806 -0.358437 7.48255 28 61 32
0.98746 -1.08619 7.95027 26 56 20
0.989371 -1.07525 7.94676 24 54 20
0.989679 -1.05562 7.94873 26 58 21
0.985724 -0.790775 7.48771 29 58 28
0.986422 0.0385579 7.41432 27 61 28
0.989415 0.161067 7.41705 22 53 19
0.989018 -0.560827 7.42661 33 60 29
0.99564 0.280891 7.40286 29 58 30
1.00384 -0.40943 7.46119 22 53 21
1.01362 -0.622896 7.49007 29 53 27
1.0149 -0.742619 7.58725 23 58 25
1.01657 0.369426 7.40355 37 68 27
1.03535 -1.15575 8.50827 26 52 25
1.02402 0.192407 7.41386 26 62 24
1.032 -0.185989 7.43016 41 66 37
1.04781 -1.13884 8.48659 23 52 22
1.04845 -1.15104 8.49379 31 57 28
1.03303 -0.128926 7.40753 30 58 33
1.03382 -0.57803 7.44248 32 57 25
1.05113 -1.27166 8.48576 29 55 28
1.0403 -0.230538 7.46324 37 63 28
1.06013 -1.29178 8.46204 23 57 20
1.06017 -1.30788 8.49648 22 55 24
1.06067 -1.25966 8.49272 23 58 25
1.06082 -1.27844 8.45602 28 59 28
1.04517 -0.59938 7.44748 24 62 23
1.06288 -1.2017 8.48309 22 52 24
1.06318 -1.21675 8.48378 19 54 22
1.06352 -1.21123 8.49104 20 53 24
1.06409 -1.23842 8.4877 26 55 27
1.06388 -1.27406 8.47074 18 51 22
1.06481 -1.32431 8.50311 21 55 22
1.06793 -1.30565 8.49857 26 59 30
1.07506 -1.18254 8.46188 13 44 12
1.05757 -0.560769 7.45131 27 57 23
1.05757 -0.560769 7.45131 27 57 23
1.05757 -0.560769 7.45131 27 57 23
1.07777 -1.14901 8.42353 22 56 23
1.06166 -0.489471 7.46372 28 58 24
1.08622 -1.28506 8.49823 28 53 23
1.08622 -1.28506 8.49823 28 53 23
1.08769 -1.27196 8.50432 19 50 19
1.06866 0.0395366 7.40872 24 59 26
1.07521 0.391584 7.36058 29 60 19
1.07826 -0.350138 7.46226 35 62 29
1.09519 -1.09615 8.30002 24 53 25
1.09271 -1.25586 7.9075 24 48 26
1.08473 -0.252523 7.46144 29 59 25
1.08864 -0.188805 7.46049 37 63 38
1.09994 -0.263007 7.46946 35 63 25
1.10651 0.129204 7.4037 24 57 12
1.11093 -0.573928 7.4344 24 55 21
1.11292 -0.0321142 7.42346 26 56 20
1.11527 -0.411818 7.49169 29 64 32
1.11551 -0.161032 7.45944 33 60 27
1.11677 0.241702 7.39872 27 59 18
1.12008 -0.0258428 7.43377 25 55 21
1.12139 -0.445369 7.4926 23 60 19
1.12344 -0.541401 7.49633 29 61 24
1.14294 -1.16867 8.24396 21 54 27
1.12747 -0.514972 7.47259 21 56 14
1.12916 -0.489358 7.45121 24 58 25
1.13173 0.163748 7.41602 27 58 24
1.15212 -1.22001 8.11519 20 53 24
1.13683 -0.1872 7.4607 27 59 22
1.13683 -0.1872 7.4607 27 59 22
1.11745 -1.09135 6.87152 26 51 22
1.15434 -1.27116 8.08925 17 46 15
1.13939 -0.379233 7.47557 17 52 10
1.15656 -1.23434 8.10916 23 54 23
1.14056 0.367074 7.4002 26 60 25
1.14056 0.367074 7.4002 26 60 25
1.14369 -0.134936 7.44834 25 59 24
1.14617 -0.276672 7.44463 28 57 26
1.14617 -0.276672 7.44463 28 57 26
1.14434 0.574158 7.3064 28 64 28
1.14877 -0.214071 7.44508 30 63 34
1.14937 -0.103374 7.44086 27 58 27
1.16783 -1.31784 8.0657 23 52 24
1.17128 -1.20195 8.10348 18 52 19
1.17121 -1.2603 8.06882 27 57 19
1.17428 -1.20305 8.06714 18 55 22
1.15272 -0.576593 7.33581 16 53 20
1.15716 -0.100341 7.43366 25 60 27
1.1743 -1.34337 8.03877 19 53 16
1.17878 -1.12264 8.06474 22 50 25
1.16173 0.575028 7.34117 34 61 26
1.14252 -1.1147 6.89455 17 51 18
1.18105 -1.28705 8.0487 18 49 17
1.16591 -0.0378573 7.39403 31 61 23
1.18624 -1.16582 8.06006 20 56 30
1.16883 -0.206503 7.42044 24 60 24
1.16501 -0.585081 7.30165 29 64 24
1.1705 0.207834 7.39925 26 58 21
1.1705 0.207834 7.39925 26 58 21
1.17203 0.35718 7.39487 29 65 27
1.17267 0.366628 7.38277 27 63 25
1.16945 -0.59163 7.30883 22 56 21
1.17519 0.37272 7.37435 32 62 28
1.20644 -1.31283 8.08402 24 51 16
1.18529 -0.587512 7.22752 28 54 17
1.18901 -0.609073 7.20299 18 54 16
1.21925 -1.14896 7.99939 21 54 27
1.1993 -0.0407685 7.32502 30 60 32
1.22828 -1.2202 8.07749 22 53 12
1.2028 -0.0767663 7.27599 24 57 26
1.20439 -0.784966 7.2869 27 58 27
1.20772 -0.0168834 7.29243 29 58 28
1.20936 0.383848 7.2893 28 60 23
1.23686 -1.27402 8.07544 20 54 21
1.23702 -1.27606 8.08647 20 54 21
1.21624 -0.377857 7.37463 26 63 22
1.21293 -0.0778589 7.23966 35 62 27
1.21577 -0.755498 7.28877 32 56 24
1.22098 -0.297345 7.36815 30 62 21
1.21867 -0.761224 7.28161 34 61 28
1.2246 -0.231953 7.36229 25 57 18
1.25126 -1.17358 7.98335 17 48 17
1.22275 -0.797527 7.22769 24 55 21
1.26137 -1.18475 8.02624 12 50 13
1.26857 -1.28571 8.05407 22 53 19
1.23769 0.562377 7.18234 44 67 39
1.23868 -0.836049 7.23246 20 49 18
1.42283 0.747901 11.2138 34 61 30
1.24313 0.466294 7.21772 34 61 30
1.27679 -1.19871 7.95523 16 50 15
1.27492 -1.14237 7.90083 20 52 13
1.25103 0.485515 7.20719 35 62 27
1.25102 -0.317911 7.2178 22 53 12
1.25597 0.527462 7.22056 33 64 30
1.25478 -0.226619 7.22643 25 60 20
1.25413 -0.253806 7.21394 20 57 16
1.29243 -1.32527 8.09931 20 56 10
1.25539 -0.422667 7.22814 24 58 21
1.25491 -0.0426077 7.17683 20 54 17
1.28969 -1.17814 7.90995 22 54 17
1.25803 0.364511 7.11615 25 52 19
1.29309 -1.20886 7.89856 16 50 13
1.29352 -1.1689 7.88338 24 56 19
1.26391 0.539767 7.13087 34 60 21
1.26785 0.455588 7.18283 27 59 20
1.26897 -0.684391 7.22219 21 58 15
1.269 0.364225 7.13182 21 51 15
1.30151 -1.16228 7.85924 26 55 24
1.27247 0.046641 7.17198 24 50 21
1.26923 -0.601447 7.08374 24 56 17
1.2744 -0.200888 7.14848 22 57 24
1.27662 -0.510871 7.13978 21 54 23
1.27977 -0.159596 7.15274 25 56 22
1.2801 -0.392327 7.16054 24 61 20
1.28268 -0.239812 7.16511 29 59 21
1.28365 -0.774532 7.1333 29 62 33
1.51647 0.62449 11.4826 10 47 14
1.51647 0.62449 11.4826 10 47 14
1.28813 -0.136535 7.11313 26 63 12
1.28969 0.368725 7.11156 10 47 14
1.29028 0.369836 7.13679 10 47 14
1.28828 -0.751488 7.14539 28 60 37
1.28723 -0.554728 7.10044 22 57 24
1.29297 -0.0384423 7.14181 17 52 19
1.29143 -0.7747 7.13079 28 62 25
1.29333 -0.694168 7.14075 32 64 25
1.29492 -0.70809 7.12267 30 59 29
1.29884 0.0461299 7.11323 26 62 18
1.29255 -0.617231 7.03188 21 52 10
1.29975 0.361947 7.10273 31 61 25
1.29279 -0.602578 7.02823 26 58 17
1.30559 0.180326 7.10399 23 62 18
1.29878 -0.606949 7.01021 29 54 12
1.30612 0.417829 7.0384 16 55 10
1.30557 -0.768114 7.08062 24 62 23
1.30902 0.550274 7.05003 37 65 24
1.30268 -0.643001 6.99881 17 51 16
1.31188 0.28167 7.09376 30 53 27
1.305 -0.621914 6.97724 22 58 22
1.31417 0.348342 7.08364 25 60 20
1.30913 -0.462243 7.03617 32 60 22
1.31684 0.499474 7.05377 21 63 17
1.31816 0.277166 7.05844 38 58 31
1.31372 -0.610368 6.97984 28 59 27
1.32363 -0.467843 7.02813 0 0 0
1.32539 -0.623682 6.96001 0 0 0
1.32902 -0.514879 6.99399 0 0 0
1.33229 -0.0578788 6.99183 0 0 0
1.32855 -0.612983 6.94259 0 0 0
1.33584 -0.698305 7.06837 0 0 0
1.33639 -0.589355 7.01153 0 0 0
1.33747 -0.569741 7.01041 0 0 0
1.34189 -0.696755 7.07368 0 0 0
1.33722 -0.609058 6.92836 0 0 0
1.3519 -0.796602 7.16617 0 0 0
1.34539 -0.669357 7.00252 0 0 0
1.35151 -0.20123 7.00603 0 0 0
1.35061 -0.582594 6.99585 0 0 0
1.36089 -0.817592 7.15397 0 0 0
1.35248 0.434984 6.90317 0 0 0
1.36881 -0.845024 7.17937 0 0 0
1.35792 -0.596117 6.97312 0 0 0
1.36224 -0.526503 6.91334 0 0 0
1.37633 -0.808023 7.1403 0 0 0
1.36861 -0.578321 6.94807 0 0 0
1.36861 -0.578321 6.94807 0 0 0
1.37293 -0.453182 6.93996 0 0 0
1.36719 -0.615333 6.86021 0 0 0
1.37529 0.0223593 6.94232 0 0 0
1.37528 0.538118 6.86712 0 0 0
1.37706 -0.535422 6.91904 0 0 0
1.37597 -0.148627 6.85921 0 0 0
1.37334 -0.621567 6.84171 0 0 0
1.37887 -0.552106 6.91572 0 0 0
1.38583 0.461561 6.90475 0 0 0
1.38583 0.461561 6.90475 0 0 0
1.38317 -0.176628 6.87156 0 0 0
1.38367 -0.162254 6.83875 0 0 0
1.38823 -0.552242 6.90971 0 0 0
1.39103 -0.599716 6.88299 0 0 0
1.39507 -0.212705 6.89871 0 0 0
1.39454 -0.55947 6.90884 0 0 0
1.39416 -0.419465 6.88901 0 0 0
1.38789 -0.62457 6.80341 0 0 0
1.41208 -0.87936 7.14584 0 0 0
1.39663 -0.525288 6.87936 0 0 0
1.39828 -0.338385 6.88023 0 0 0
1.39361 -0.636701 6.7774 0 0 0
1.39574 -0.672389 6.75112 0 0 0
1.40726 -0.20953 6.84369 0 0 0
1.39941 -0.652002 6.74294 0 0 0
1.41104 -0.0654828 6.86034 0 0 0
1.40782 -0.633223 6.79641 0 0 0
1.41667 -0.504223 6.8514 0 0 0
1.41796 -0.272564 6.84483 0 0 0
1.448 -0.909548 7.11421 0 0 0
1.42834 -0.584223 6.83123 0 0 0
1.43123 0.00034966 6.81594 0 0 0
1.43195 -0.471336 6.82047 0 0 0
1.45315 -0.544824 7.10346 0 0 0
1.43024 -0.524339 6.79616 0 0 0
1.43464 0.0205219 6.81947 0 0 0
1.43022 -0.524092 6.78599 0 0 0
1.43074 -0.165687 6.76054 0 0 0
1.4324 -0.547835 6.79293 0 0 0
1.43319 -0.493525 6.79685 0 0 0
1.43319 -0.493525 6.79685 0 0 0
1.43855 0.130585 6.80112 0 0 0
1.43749 -0.567696 6.8249 0 0 0
1.44097 -0.492536 6.81895 0 0 0
1.45347 -0.243665 6.78826 0 0 0
1.45388 -0.626603 6.78956 0 0 0
1.45822 0.142331 6.77357 0 0 0
1.4567 -0.153998 6.74367 0 0 0
1.46168 -0.158078 6.74656 0 0 0
1.47432 -0.190977 6.77808 0 0 0
1.61311 -0.815337 8.36689 0 0 0
1.48152 -0.204763 6.71902 0 0 0
1.49458 -0.666903 6.80156 0 0 0
1.48896 -0.201049 6.74248 0 0 0
1.50045 -0.453433 6.84084 0 0 0
1.49272 -0.18947 6.72949 0 0 0
1.50448 -0.389944 6.83396 0 0 0
1.50766 -0.323777 6.84018 0 0 0
1.50681 -0.179208 6.76203 0 0 0
1.50554 -0.201981 6.73572 0 0 0
1.51426 -0.560903 6.83851 0 0 0
1.51665 -0.312419 6.79861 0 0 0
1.52534 -0.409783 6.8237 0 0 0
1.53507 -0.744318 6.94605 0 0 0
1.52772 -0.462075 6.83808 0 0 0
1.52758 -0.181787 6.80152 0 0 0
1.53161 -0.279209 6.78796 0 0 0
1.53513 -0.338084 6.81535 0 0 0
1.53839 -0.39162 6.85666 0 0 0
1.5338 -0.177745 6.75974 0 0 0
1.54288 -0.472487 6.8399 0 0 0
1.54227 -0.29526 6.83043 0 0 0
1.54498 -0.421002 6.85442 0 0 0
1.54945 -0.168466 6.79983 0 0 0
1.55598 -0.645719 6.88689 0 0 0
1.55223 -0.178106 6.80245 0 0 0
1.55609 -0.278384 6.81318 0 0 0
1.55766 -0.282769 6.81448 0 0 0
1.55649 -0.000398845 6.77729 0 0 0
1.55837 -0.0333127 6.80287 0 0 0
1.56062 -0.223907 6.82845 0 0 0
1.56552 0.0655786 6.75527 0 0 0
1.56792 0.155595 6.77886 0 0 0
1.57216 -0.0499964 6.81646 0 0 0
1.5731 -0.241041 6.80604 0 0 0
1.5778 -0.331194 6.84491 0 0 0
1.57672 0.205734 6.77885 0 0 0
1.57898 0.104879 6.76605 0 0 0
1.58256 0.170499 6.80101 0 0 0
1.5861 -0.67587 6.85296 0 0 0
1.58943 -0.558324 6.8724 0 0 0
1.58793 -0.100009 6.81942 0 0 0
1.58685 -0.367396 6.79841 0 0 0
1.58636 0.312191 6.75988 0 0 0
1.60017 -0.303394 6.83296 0 0 0
1.60673 -0.573249 6.87942 0 0 0
1.60601 -0.024836 6.81721 0 0 0
1.60867 -0.639983 6.86234 0 0 0
1.60892 -0.315246 6.8306 0 0 0
1.6115 -0.35552 6.83512 0 0 0
1.61319 0.00832423 6.83677 0 0 0
1.61645 -0.439555 6.88206 0 0 0
1.61755 -0.429191 6.88996 0 0 0
1.63767 -0.862331 7.06381 0 0 0
1.63883 -0.854181 7.02494 0 0 0
1.62942 -0.449385 6.89376 0 0 0
1.62871 -0.514644 6.87751 0 0 0
1.63007 -0.453747 6.85182 0 0 0
1.6338 -0.473007 6.88189 0 0 0
1.64171 -0.809538 6.97274 0 0 0
1.64258 -0.787285 6.97476 0 0 0
1.63588 -0.389398 6.88967 0 0 0
1.63588 -0.389398 6.88967 0 0 0
1.63266 0.00668199 6.8461 0 0 0
1.63851 -0.550578 6.87242 0 0 0
1.64563 -0.289058 6.87874 0 0 0
1.64667 -0.326208 6.88984 0 0 0
1.65362 -0.80354 6.93961 0 0 0
1.65371 -0.735285 6.93514 0 0 0
1.65369 -0.675374 6.92841 0 0 0
1.65117 -0.22839 6.88202 0 0 0
1.66219 -0.681395 6.95009 0 0 0
1.65881 -0.09939 6.85483 0 0 0
1.66896 -0.514199 6.93036 0 0 0
1.66286 0.00043513 6.81848 0 0 0
1.67214 -0.45096 6.90569 0 0 0
1.67234 -0.368252 6.87571 0 0 0
1.6699 0.114714 6.81024 0 0 0
1.68053 -0.462949 6.88043 0 0 0
1.67957 -0.048372 6.84268 0 0 0
1.68058 0.088652 6.84046 0 0 0
1.68322 -0.0419542 6.88123 0 0 0
1.68766 -0.367726 6.87861 0 0 0
1.69027 -0.336624 6.87419 0 0 0
1.69062 0.0388407 6.84587 0 0 0
1.7067 -0.0407285 6.8411 0 0 0
1.70811 -0.619073 6.87423 0 0 0
1.72138 -0.241451 6.89673 0 0 0
1.72261 -0.467337 6.90843 0 0 0
1.72443 -0.0907603 6.86043 0 0 0
1.97688 -0.197855 8.98207 0 0 0
1.73001 -0.16618 6.85676 0 0 0
1.74279 -0.435745 6.98165 0 0 0
1.74867 -0.00616417 6.83837 0 0 0
1.75004 0.28922 6.80689 0 0 0
1.78862 -0.759716 7.09398 0 0 0
1.77862 -0.416496 6.96507 0 0 0
1.92542 -0.447794 8.12959 0 0 0
1.78544 -0.395572 7.00128 0 0 0
1.78076 -0.391845 6.93527 0 0 0
1.77792 -0.633846 6.89328 0 0 0
1.78672 -0.0190421 6.92258 0 0 0
1.79189 -0.252275 6.95185 0 0 0
1.79267 -0.414598 6.96215 0 0 0
1.79356 -0.652262 6.90798 0 0 0
1.81651 -0.639458 6.9728 0 0 0
1.83839 -0.414318 7.00943 0 0 0
1.82476 0.140859 6.87586 0 0 0
1.84016 -0.384639 7.00425 0 0 0
1.8439 -0.330796 6.98813 0 0 0
1.84579 -0.319258 6.99659 0 0 0
1.85347 -0.725865 7.03732 0 0 0
1.85881 -0.794583 7.01318 0 0 0
1.87028 -0.77899 7.02135 0 0 0
1.86917 -0.736835 7.00929 0 0 0
1.87013 -0.676916 7.00265 0 0 0
1.86591 0.221312 6.89524 0 0 0
1.88837 -0.687221 7.06915 0 0 0
1.8758 0.0812848 6.901 0 0 0
1.88298 -0.172822 6.96773 0 0 0
1.88493 -0.664008 6.9594 0 0 0
1.90377 -0.672253 7.03606 0 0 0
1.90144 -0.473093 7.03653 0 0 0
1.92554 -0.558395 7.03133 0 0 0
1.92652 -0.479397 7.02231 0 0 0
1.92672 -0.415595 6.98482 0 0 0
1.93848 -0.354382 7.0405 0 0 0
1.9333 -0.368741 6.9678 0 0 0
1.93784 -0.548169 6.99116 0 0 0
1.94522 -0.307297 7.00294 0 0 0
1.95406 -0.38784 7.05192 0 0 0
1.9501 -0.371246 6.98255 0 0 0
1.96064 -0.72682 7.05366 0 0 0
1.96218 -0.417758 7.05972 0 0 0
1.95772 -0.359383 6.98252 0 0 0
1.96099 -0.268326 6.96629 0 0 0
1.96826 -0.434553 7.0114 0 0 0
1.97412 -0.643214 7.08873 0 0 0
1.97006 -0.387914 7.01707 0 0 0
1.97273 -0.388932 7.03964 0 0 0
1.96791 -0.636725 7.02647 0 0 0
1.96783 -0.617466 6.98349 0 0 0
1.97761 -0.384753 7.06441 0 0 0
1.97969 -0.328755 7.03131 0 0 0
1.97871 -0.32331 7.02361 0 0 0
2.00043 -0.791534 7.14953 0 0 0
1.9892 -0.360891 6.98863 0 0 0
1.98966 -0.112677 6.98865 0 0 0
1.99179 -0.137528 6.97891 0 0 0
2.00422 -0.414585 7.04393 0 0 0
2.00474 -0.214837 7.01525 0 0 0
2.01034 -0.280722 7.02278 0 0 0
2.01034 -0.280722 7.02278 0 0 0
2.02484 -0.559383 7.02609 0 0 0
2.02176 -0.630417 6.9951 0 0 0
2.04955 -0.503362 7.0873 0 0 0
2.04327 -0.409703 7.02561 0 0 0
2.0474 -0.43809 7.02944 0 0 0
2.05734 -0.535165 7.08598 0 0 0
2.04935 -0.263168 7.0125 0 0 0
2.05414 -0.274682 7.04663 0 0 0
2.06307 -0.498402 7.03898 0 0 0
2.07618 -0.447517 7.10655 0 0 0
2.07979 -0.673281 7.11272 0 0 0
2.07649 -0.225645 7.07554 0 0 0
2.07456 -0.214182 7.04691 0 0 0
2.07786 -0.326771 7.02214 0 0 0
2.08467 -0.262927 7.03379 0 0 0
2.08317 -0.241177 7.01632 0 0 0
2.11611 -0.661527 7.14273 0 0 0
2.11337 -0.668534 7.09757 0 0 0
2.11787 -0.664497 7.07485 0 0 0
2.12794 -0.567998 7.08003 0 0 0
2.12982 -0.651996 7.06717 0 0 0
2.13597 -0.482966 7.07066 0 0 0
2.17058 -0.624785 7.10658 0 0 0
2.16696 -0.606473 7.07106 0 0 0
2.16041 -0.653582 7.02952 0 0 0
2.19604 -0.645572 7.13382 0 0 0
2.19776 -0.638926 7.1313 0 0 0
4.18466 0.862773 17.5623 0 0 0
4.23932 0.796523 17.801 0 0 0
4.31224 0.858205 17.5087 0 0 0
4.24035 0.982326 17.1009 0 0 0
4.26179 0.975569 17.1898 0 0 0
4.25121 0.959269 17.0813 0 0 0
2.40861 0.539522 7.54566 0 0 0
4.25561 0.943763 17.0691 0 0 0
4.27322 0.99151 17.1511 0 0 0
4.27322 0.99151 17.1511 0 0 0
4.26983 1.06174 17.0781 0 0 0
4.3186 0.838451 17.3077 0 0 0
4.29135 0.936731 17.1006 0 0 0
4.28235 1.10614 17.0463 0 0 0
4.33101 1.01409 17.2623 0 0 0
4.31553 0.977479 17.1791 0 0 0
4.28755 0.910483 17.0341 0 0 0
4.31655 0.893402 17.1345 0 0 0
4.321 1.01672 17.1346 0 0 0
4.33944 1.05842 17.2162 0 0 0
4.33265 1.03637 17.1133 0 0 0
4.41028 0.8803 17.496 0 0 0
4.41028 0.8803 17.496 0 0 0
4.33181 1.11776 17.0887 0 0 0
4.305 1.1194 16.9392 0 0 0
4.33563 0.823838 17.0908 0 0 0
4.34624 0.940075 17.1272 0 0 0
4.3022 0.907795 16.8945 0 0 0
4.33301 1.0928 17.0346 0 0 0
4.33649 0.776046 17.0631 0 0 0
4.33998 1.13925 17.0579 0 0 0
4.32782 1.10234 16.9563 0 0 0
4.35359 0.981787 17.087 0 0 0
4.33998 1.12598 17.01 0 0 0
4.33623 1.11069 16.9822 0 0 0
4.37511 1.03968 17.1614 0 0 0
4.41851 0.885137 17.3788 0 0 0
4.38144 1.08372 17.1718 0 0 0
4.35477 1.01906 17.0399 0 0 0
4.35928 1.13738 17.0424 0 0 0
4.36103 0.898904 17.0495 0 0 0
4.36103 0.898904 17.0495 0 0 0
4.37418 0.987595 17.1006 0 0 0
4.38357 0.92812 17.1145 0 0 0
4.37534 1.05121 16.9783 0 0 0
4.37327 0.810407 16.9562 0 0 0
4.38447 0.983239 16.9867 0 0 0
4.4119 0.895001 17.0991 0 0 0
4.40394 0.893889 16.9391 0 0 0
2.46743 -0.362491 7.03851 0 0 0
2.47857 -0.340284 7.07082 0 0 0
2.49787 -0.373799 7.04192 0 0 0
2.49931 -0.447773 7.04352 0 0 0
2.50914 -0.445012 7.03339 0 0 0
-2.59617 0.419504 5.37908 181 225 252
-2.3138 0.0480461 5.23165 197 231 255
-2.30747 0.0165562 5.23388 199 234 254
-2.31265 -0.165159 5.2666 200 235 254
-2.25616 0.339731 5.19224 189 229 254
-2.30266 -0.532991 5.31197 213 243 254
-2.2979 -0.568589 5.31377 216 244 255
-2.30454 -0.712343 5.33591 218 247 255
-2.24477 0.217698 5.23109 193 231 254
-2.23356 0.279517 5.22153 192 229 255
-2.23492 0.183882 5.2362 195 231 255
-2.23492 0.183882 5.2362 195 231 255
-2.24301 0.141721 5.2507 197 231 255
-2.24156 -0.108971 5.27183 205 236 255
-2.24434 -0.517373 5.33776 214 244 255
-2.22544 -0.276477 5.30265 211 240 255
-2.23561 -0.620249 5.33707 218 247 255
-2.21087 -0.14 5.29389 209 238 255
-2.21689 -0.356638 5.31441 212 241 255
-2.19354 -0.0583573 5.28673 204 237 255
-2.1799 0.273122 5.25565 195 229 254
-2.27079 -0.0184379 5.44844 204 237 255
-2.15964 0.100579 5.26016 202 234 255
-2.18944 -0.467782 5.33736 215 243 255
-2.19974 -0.575832 5.39138 218 247 255
-2.17363 -0.571055 5.34459 218 247 255
-2.14507 -0.461653 5.35666 216 244 255
-2.12754 0.0343286 5.31065 204 237 255
-2.18915 -0.187754 5.4629 212 239 255
-2.11645 -0.266772 5.34031 213 241 255
-2.19541 -0.0969044 5.48041 207 239 254
-2.10811 -0.097369 5.32347 207 239 254
-2.09776 -0.140765 5.32141 208 240 255
-2.06872 0.285988 5.26736 196 232 254
-2.11262 -0.631395 5.38931 221 248 255
-2.19944 0.412936 5.54154 196 232 255
-2.19734 0.214295 5.54718 199 234 254
-2.08801 -0.260694 5.36446 213 241 255
-2.10278 -0.709901 5.42298 224 249 255
-2.03612 0.319951 5.29077 202 232 255
-2.14339 0.0459156 5.56909 204 237 254
-2.03894 -0.508955 5.40241 221 248 255
-2.01491 0.124196 5.36472 206 234 255
-2.12191 0.0701149 5.57661 204 237 254
-2.03566 -0.878256 5.44624 231 252 255
-1.96951 0.3822 5.29455 200 232 255
-2.02779 -0.820665 5.45277 228 252 255
-2.13785 -1.08827 5.68225 232 253 254
-1.95658 0.375474 5.31429 200 232 255
-1.43088 0.284906 4.3325 202 235 254
-2.11853 -1.1168 5.7029 234 254 255
-1.98456 -0.450538 5.44831 222 246 255
-1.95888 0.015533 5.39673 50 70 107
-1.92025 0.333167 5.31573 202 234 255
-1.89716 0.385445 5.3253 201 233 254
-2.04205 0.13486 5.62153 207 238 255
-1.96241 -0.904624 5.49421 232 253 254
-2.07577 -1.30259 5.85614 238 255 255
-1.8677 -0.274469 5.42766 221 245 255
-1.85718 0.137807 5.40085 206 237 255
-2.074 -1.36487 5.88073 241 255 255
-2.07696 -1.36144 5.88771 240 255 255
-1.85873 -0.117246 5.41309 215 243 255
-2.0702 -1.37241 5.87793 243 254 255
-1.85714 -0.319875 5.46025 220 247 255
-2.05566 -1.37997 5.90941 243 254 255
-2.00835 -1.18645 5.82229 124 135 127
-1.82605 -0.402203 5.47498 225 248 255
-1.82031 -0.425622 5.47638 225 248 255
-1.82158 -0.470705 5.48526 226 249 255
-1.79911 0.00256055 5.43369 235 255 255
-1.80721 -0.247853 5.46475 219 246 255
-1.80114 -0.315462 5.47046 221 248 255
-1.80423 -0.349185 5.48021 224 247 255
-2.2616 -1.32854 6.47201 122 112 110
-2.26022 -1.32075 6.46975 123 116 110
-1.80238 -0.476518 5.5016 226 249 255
-2.24896 -1.32888 6.47312 110 94 105
-1.74275 0.172435 5.42887 208 240 255
-1.76506 -0.475228 5.50921 226 249 255
-1.7514 -0.133803 5.47501 221 245 255
-1.75034 -0.254551 5.48859 223 248 255
-1.84691 -0.980826 5.71657 126 135 144
-1.72542 0.078825 5.45118 209 239 255
-1.72273 -0.00102975 5.47139 78 86 99
-1.73458 -0.464895 5.5287 227 251 255
-1.72205 -0.552 5.52443 230 251 255
-1.68721 0.283789 5.43137 209 238 255
-1.69336 -0.0828753 5.48389 239 253 255
-1.69444 -0.163905 5.49157 135 134 165
-1.69265 -0.175472 5.49091 143 146 153
-1.70005 -0.292833 5.51754 224 247 253
-1.70017 -0.420118 5.52294 227 252 255
-1.69395 -0.313075 5.51001 224 249 254
-1.69484 -0.302344 5.51255 225 248 255
-1.68648 -0.0678847 5.4875 236 242 238
-1.69202 -0.335241 5.5103 221 249 253
-1.67832 0.0099946 5.48118 157 154 175
-1.76321 -0.0547565 5.67179 110 125 130
-1.66915 -0.434197 5.53592 86 95 112
-1.67135 -0.553262 5.55185 106 111 140
-1.61889 -0.256309 5.49201 115 119 131
-1.67478 -0.779618 5.63218 234 254 255
-1.8276 0.509296 6.11562 67 85 109
-1.96172 0.0194246 6.4543 88 103 126
-2.0255 -0.996404 6.64366 239 255 255
-2.02615 -1.0449 6.65101 241 255 255
-2.02784 -1.23088 6.66589 241 255 255
-2.023 -1.16024 6.66728 95 102 156
-2.02599 -1.17962 6.67398 241 255 255
-2.0211 -1.1839 6.66449 241 255 255
-2.02556 -1.21892 6.68052 243 255 255
-2.02062 -1.27259 6.68099 151 150 226
-1.83945 -0.455732 6.25472 42 58 84
-1.82258 0.0114834 6.21495 49 70 91
-1.81932 -0.0190572 6.21606 46 62 88
-1.83091 -0.392363 6.25591 63 80 110
-1.82258 -0.394385 6.25562 66 77 109
-1.82258 -0.394385 6.25562 66 77 109
-1.80108 0.157685 6.19812 45 62 88
-1.94702 0.242902 6.54181 29 42 61
-1.80148 0.102344 6.20533 70 82 104
-1.80326 0.0396444 6.21351 77 100 118
-1.8086 -0.280658 6.24945 58 73 94
-1.77069 0.409317 6.14746 50 61 83
-1.80397 -0.229356 6.24911 51 56 85
-1.79488 -0.514426 6.26298 44 59 82
-1.78699 -0.661638 6.31991 40 56 81
-1.75735 -0.0525652 6.23748 42 57 80
-1.75735 -0.0525652 6.23748 42 57 80
-1.68977 -0.827848 6.37161 36 51 70
-1.68003 -0.833069 6.36211 41 53 75
-1.63625 0.437053 6.21767 40 52 74
-1.61158 -0.0721318 6.29348 41 56 77
-1.59527 -0.645126 6.39416 134 120 107
-1.54938 0.362248 6.27553 67 84 114
-1.56534 -0.629242 6.35734 105 93 79
-1.76739 -1.30658 6.97014 38 62 74
-1.54875 -0.21106 6.37206 55 63 86
-1.53059 0.2106 6.31374 124 115 110
-1.53968 -0.035309 6.34742 46 57 79
-1.54727 -0.320121 6.37625 104 88 72
-1.54009 -0.0754286 6.35234 47 53 77
-1.76302 -1.33775 6.98156 39 54 73
-1.54089 -0.203455 6.36672 48 64 89
-1.53906 -0.284117 6.37807 118 112 100
-1.54029 -0.436169 6.38807 65 82 110
-1.54029 -0.436169 6.38807 65 82 110
-1.54011 -0.457049 6.39277 49 60 88
-1.52918 -0.18277 6.37464 40 51 73
-1.74819 -1.36974 6.99817 55 64 105
-1.52706 -0.411845 6.37897 36 55 70
-1.74925 -1.41647 7.00918 125 150 172
-1.52471 -0.43593 6.39992 45 60 89
-1.73744 -1.36733 7.01409 84 106 127
-1.49013 -0.479022 6.42439 47 60 79
-1.45591 -0.102914 6.38785 50 52 75
-1.42821 -0.765697 6.49745 42 56 82
-1.56437 -1.27142 7.03935 98 81 97
-1.51503 -1.26576 7.06447 157 141 118
-1.33429 -0.841767 6.52622 99 103 128
-1.32478 -0.280197 6.51318 98 119 136
-1.31821 -0.834976 6.52735 79 80 82
-1.22766 0.355518 6.41341 136 109 82
-1.23385 -0.146279 6.47656 120 110 100
-1.2409 -0.514888 6.52937 129 113 97
-1.19562 -0.0189057 6.49858 148 136 122
-1.22249 -0.28692 6.59434 134 123 105
-1.38775 -1.2954 7.14654 91 87 88
-1.18423 -0.54742 6.55901 149 139 130
-1.16056 -0.326435 6.54246 104 100 91
-1.16584 -0.553835 6.57203 161 154 135
-1.13414 -0.282165 6.52792 111 93 69
-1.13804 -0.410461 6.54474 132 117 96
-1.13002 -0.435884 6.57461 147 143 131
-1.29856 -1.26933 7.1673 156 155 150
-1.28932 -1.27327 7.16686 159 154 151
-1.15358 -0.142032 6.70735 154 152 140
-1.09483 0.190978 6.50371 145 132 116
-1.10434 -0.24224 6.56281 131 125 109
-1.10434 -0.24224 6.56281 131 125 109
-1.10528 -0.462754 6.58806 112 90 93
-1.09844 -0.443763 6.58483 146 143 134
-1.17965 0.0508551 6.87731 128 122 100
-1.06414 0.0225069 6.5317 141 130 110
-1.19776 -1.24279 7.18627 162 164 159
-1.19774 -1.26394 7.21436 164 163 159
-1.17572 -1.26276 7.21877 110 98 98
-0.986796 -0.34386 6.64626 87 103 119
-1.03277 -1.24355 7.26336 156 165 172
-0.910671 -0.908578 6.95324 119 110 105
-0.814239 -0.331503 6.69854 56 77 104
-0.761466 -1.08522 6.60503 54 59 39
-0.777278 -0.40622 6.66624 65 79 88
-0.68107 -0.0634161 6.54226 55 63 65
-0.695816 -0.814862 6.76694 106 97 90
-0.652251 -0.605456 6.59129 75 71 62
-0.620805 -0.474216 6.6323 75 72 55
-0.620805 -0.474216 6.6323 75 72 55
-0.527286 0.407117 6.20665 147 135 121
-0.603852 -0.459033 6.63126 93 79 78
-0.49289 0.501469 6.11206 117 113 101
-0.556005 -0.587948 6.6282 108 107 103
-0.678817 -1.30209 7.30254 162 141 136
-0.670575 -1.28892 7.27404 152 133 126
-0.400604 -0.614175 6.09958 119 112 93
-0.623242 -1.29757 7.32541 120 101 94
-0.660093 -1.76849 7.56088 128 124 115
-0.338952 -0.644717 6.03253 109 104 98
-0.468844 -0.6692 6.70123 110 107 100
-0.466488 -0.718038 6.71411 96 97 83
-0.456661 -0.59634 6.67588 56 54 55
-0.456661 -0.59634 6.67588 56 54 55
-0.413196 0.0926424 6.68617 42 58 74
-0.574901 -1.63234 7.57374 29 38 53
-0.462986 0.0564629 7.20567 92 101 108
-0.198097 -0.794434 5.87602 62 78 93
-0.354169 0.0830503 6.70769 87 107 134
-0.457923 -1.24902 7.34993 145 135 126
-0.340388 0.089349 6.69246 57 64 82
-0.329204 0.0932455 6.71125 93 72 51
-0.342459 -0.760885 6.83711 106 106 96
-0.313542 -0.193882 6.70808 86 82 79
-0.311379 0.0839688 6.72942 83 68 45
-0.307391 0.0706342 6.73126 81 70 74
-0.301289 0.319167 6.70346 124 120 117
-0.408212 -1.2416 7.3651 118 116 104
-0.214686 0.429166 6.39146 58 63 56
-0.207963 0.423755 6.38261 108 106 107
-0.259561 0.276304 6.73338 97 93 92
-0.258117 0.287853 6.72744 91 95 94
-0.258117 0.287853 6.72744 91 95 94
-0.34963 -1.15604 7.30148 68 56 68
-0.348022 -1.16367 7.3084 62 52 53
-0.264231 -0.692024 6.81842 80 84 95
-0.147701 0.483475 6.10811 44 39 33
-0.161926 0.453674 6.30489 100 96 85
-0.160329 0.448208 6.29822 98 96 83
-0.141372 -0.0237577 6.7063 116 117 119
-0.147797 -0.0380435 6.74433 99 101 100
-0.256007 -1.47235 7.55702 74 64 52
-0.249269 -1.45907 7.52405 94 75 68
-0.241542 -1.23116 7.48193 88 87 95
-0.236267 -1.10523 7.47196 91 90 104
-0.233104 -1.28868 7.49499 127 117 108
-0.21945 -1.08739 7.46027 238 235 254
-0.216252 -1.24576 7.47393 89 90 84
-0.220448 -1.30357 7.50022 144 136 123
-0.209833 -1.10556 7.48268 39 44 73
-0.0907456 -0.555776 6.86284 97 101 104
-0.0835605 -0.488686 6.82543 76 61 68
-0.187968 -1.24411 7.6391 93 90 81
-0.0572397 -0.636391 6.82976 32 35 40
-0.0484045 -0.60004 6.81399 28 41 47
-0.0471296 -0.261439 6.83709 89 91 90
0.131861 -0.536152 5.56377 46 71 76
-0.0118556 -0.587302 6.86389 80 80 90
0.0181358 0.361358 6.77228 93 103 112
0.0181358 0.361358 6.77228 93 103 112
-0.0925302 -1.26172 7.69292 69 70 72
-0.0475298 -0.917314 7.34987 89 93 102
-0.0590018 -1.26287 7.69675 64 70 82
-0.0334325 -1.27696 7.73386 46 51 54
0.105818 0.463374 6.54221 75 80 84
0.0911215 -0.610654 6.87768 80 95 102
-0.00321878 -1.24941 7.72534 78 86 88
0.0880334 -0.770349 7.13683 65 72 80
0.140671 -0.845741 7.15838 61 70 77
0.149471 -0.439607 7.11431 70 81 99
0.182011 -0.36711 7.14183 28 41 49
0.373385 -0.619057 5.21613 53 64 70
0.122505 -1.27207 7.80184 62 72 82
0.306283 -1.04977 6.19966 79 85 99
0.215398 -0.792394 7.19552 22 28 42
0.263142 -0.754856 7.22108 59 76 84
0.27999 -0.647599 7.21356 89 103 116
0.288622 -0.412071 7.16503 92 108 123
0.299602 0.381971 7.06806 101 118 138
0.27785 -0.849018 7.4306 137 137 129
0.464356 -0.374813 5.22691 194 193 175
0.279527 -0.915587 7.48296 248 241 215
0.313838 -0.0405343 7.11267 255 255 229
0.323032 -0.18112 7.14582 243 227 211
0.334228 -0.53034 7.20221 247 234 218
0.343499 -0.239363 7.17186 240 228 212
0.348319 -0.291802 7.16323 249 240 225
0.535139 -0.406708 4.72172 250 238 224
0.363345 -0.576169 7.18334 250 240 230
0.365102 -0.342841 7.19798 241 231 219
0.377176 -0.497175 7.22414 245 231 228
0.384797 -0.303703 7.17735 250 242 229
0.573473 -0.398838 4.54554 121 115 149
0.392685 -0.115038 7.15257 249 239 229
0.367349 -1.26432 7.87278 96 107 137
0.419862 -0.15938 7.19487 246 236 227
0.41771 -0.643427 7.26708 100 115 144
0.426989 -0.291665 7.19097 252 244 231
0.455055 -0.367141 7.2086 214 197 213
0.475366 0.177224 7.1668 252 245 237
0.481522 -0.142103 7.19466 254 244 235
0.447181 -1.25975 7.90083 86 102 128
0.504617 0.417443 7.11552 245 238 230
0.484098 -1.2284 7.90472 82 98 121
0.522869 -0.584062 7.24554 165 155 156
0.601268 -1.0493 6.14565 77 95 117
0.527501 -1.35305 8.00028 61 79 99
0.543341 -1.2925 7.95203 81 99 119
0.590367 -0.106485 7.2402 255 253 241
0.622013 -0.880138 7.59 79 95 108
0.648635 -0.684667 7.37408 73 86 94
0.656093 -0.568856 7.30087 86 122 50
0.670175 -0.189493 7.29172 107 122 57
0.654363 -1.12963 7.86586 46 65 69
0.675399 -0.629693 7.37462 29 58 27
0.678512 -0.928875 7.63497 26 54 31
0.696029 -0.33318 7.32263 40 63 35
0.697403 -0.53294 7.35274 30 61 30
0.703444 0.0999962 7.26663 175 198 64
0.69966 -0.862366 7.60365 22 55 28
0.707094 -0.524618 7.36121 34 63 33
0.727578 0.0298434 7.29255 142 161 71
0.729107 -0.446281 7.35559 28 54 25
0.740244 0.152733 7.27783 174 193 75
0.756268 -0.545797 7.3857 34 60 23
0.777943 -0.162647 7.32679 65 75 51
0.777813 -0.39136 7.36838 29 59 31
0.782617 -0.462872 7.3735 30 59 28
0.784008 -0.568893 7.34926 34 58 36
0.798015 -0.179711 7.33601 35 59 33
0.81422 -0.0796808 7.3396 28 63 31
0.815573 0.123439 7.31018 138 156 74
0.836782 -0.631351 7.43073 30 61 27
0.841347 -0.593004 7.36549 46 62 33
0.876039 -0.568561 7.39116 28 58 24
0.891625 -1.08141 6.2564 33 59 34
0.907323 -0.813453 7.45124 22 57 27
0.912796 -1.07925 6.27572 28 54 25
0.915479 -0.960458 6.06228 21 52 20
0.924352 -1.17562 7.94559 24 58 25
0.926947 -1.08323 6.30038 20 57 16
0.942923 -1.21139 7.951 25 55 21
0.945736 0.415271 7.05154 163 186 80
0.955636 -1.03069 7.92983 26 53 20
0.928388 0.210567 2.4434 191 210 85
0.952402 -1.0218 6.22832 20 54 21
0.964362 -0.934669 7.9272 32 58 33
0.96776 -1.29007 7.96997 18 54 26
0.931692 0.207047 2.44627 190 207 69
1.08551 0.223984 21.081 40 65 33
0.964394 -1.11076 6.38409 27 61 26
0.965836 -1.0974 6.36287 23 56 29
0.983447 -1.06994 7.95002 28 57 26
0.989955 -1.0648 7.95081 24 56 19
0.987352 -0.05936 7.38446 20 57 24
1.04668 -1.27939 8.46491 27 60 29
1.02709 -0.991711 6.55864 23 58 25
1.08036 -0.393993 8.8469 13 50 19
1.05429 -0.342453 7.46468 13 50 19
1.07453 -1.29828 8.47553 22 52 26
1.08068 -0.230187 7.46265 37 63 34
1.08456 0.148397 7.40572 24 56 15
1.09496 0.139941 7.41699 23 58 16
1.36146 -0.0591324 18.219 24 58 25
1.09939 -0.0271571 7.42162 27 60 29
1.10421 0.337656 7.39389 25 61 15
1.07817 -0.473134 6.43065 28 57 29
1.10562 0.117875 7.42357 26 60 25
1.12064 -0.0259718 7.4319 25 55 21
1.17407 -0.324996 9.3203 23 53 25
1.11589 -1.11598 6.59826 24 52 27
1.35891 0.345011 14.3097 17 54 13
1.16329 -1.32784 8.05737 21 51 23
1.16308 -1.34988 8.03993 24 53 22
1.1211 -1.11124 6.60368 25 54 23
1.16346 0.383459 7.3982 41 61 33
