ply
format ascii 1.0 
element vertex 1300
property float32 x 
property float32 y 
property float32 z
property uchar red  
property uchar green
property uchar blue
element face 0
property list uchar int vertex_indices
end_header
1.68473 0.487567 6.92164 0 0 0
1.68481 0.486463 6.91505 0 0 0
1.68481 0.486463 6.91505 0 0 0
1.72069 -1.22853 7.5384 0 0 0
1.69851 -0.00263938 7.00595 0 0 0
1.70212 -0.287106 7.04321 0 0 0
1.71072 -0.763583 7.15798 0 0 0
1.70456 0.0823405 6.99953 0 0 0
1.71646 -0.590227 7.09745 0 0 0
1.71167 -0.111967 7.02299 0 0 0
1.7128 -0.0977957 7.0228 0 0 0
1.7154 -0.199735 7.05039 0 0 0
1.7154 -0.199735 7.05039 0 0 0
1.7174 -0.360757 7.06018 0 0 0
1.71408 0.0948159 6.98827 0 0 0
1.71945 -0.30643 7.04769 0 0 0
1.71077 0.339884 6.96992 0 0 0
1.72966 -0.713121 7.12955 0 0 0
1.71675 0.493637 6.93465 0 0 0
1.73731 -0.713025 7.13989 0 0 0
1.73155 -0.0639957 7.02616 0 0 0
1.73859 -0.5913 7.1265 0 0 0
1.72821 0.487358 6.94752 0 0 0
1.73834 -0.0917535 7.02884 0 0 0
1.73253 0.519923 6.93968 0 0 0
1.73253 0.519923 6.93968 0 0 0
1.74351 -0.484733 7.08053 0 0 0
1.73388 0.437652 6.9449 0 0 0
1.73388 0.437652 6.9449 0 0 0
1.74354 -0.397427 7.06162 0 0 0
1.733 0.654523 6.93338 0 0 0
1.73986 -0.0150188 7.01812 0 0 0
1.73814 0.509327 6.95068 0 0 0
1.75501 -0.790824 7.11718 0 0 0
1.74306 0.378123 6.95748 0 0 0
1.75755 -0.78511 7.12716 0 0 0
1.74209 0.57052 6.92507 0 0 0
1.7511 -0.131425 7.03069 0 0 0
1.74192 0.694284 6.91217 0 0 0
1.74629 0.374996 6.97161 0 0 0
1.75645 0.168686 6.98742 0 0 0
1.76184 -0.0999053 7.04108 0 0 0
1.75788 0.536382 6.9423 0 0 0
1.75785 0.538451 6.95133 0 0 0
1.75973 0.482688 6.94191 0 0 0
1.76212 0.640451 6.92552 0 0 0
1.77151 0.0599384 7.00906 0 0 0
1.78478 -0.782736 7.13611 0 0 0
1.78129 -0.183443 7.04887 0 0 0
1.78499 0.152428 7.00048 0 0 0
1.78995 0.154765 6.97665 0 0 0
1.78874 0.571262 6.96978 0 0 0
1.80995 -0.675076 7.18934 0 0 0
1.79017 0.682163 6.91745 0 0 0
1.81272 -0.781798 7.14778 0 0 0
1.83916 -1.05493 7.4801 0 0 0
1.80241 0.810015 6.91984 0 0 0
1.82614 -0.819099 7.19998 0 0 0
1.82723 -0.822789 7.16384 0 0 0
1.82723 -0.822789 7.16384 0 0 0
1.81183 0.541267 6.96627 0 0 0
1.83412 -0.845675 7.1904 0 0 0
1.83697 -0.802559 7.17246 0 0 0
1.85692 -1.00599 7.47524 0 0 0
1.839 -0.243192 7.12905 0 0 0
1.83975 -0.508689 7.09719 0 0 0
1.87128 -0.984585 7.44763 0 0 0
1.84333 0.400899 7.03703 0 0 0
1.84584 0.473664 7.0058 0 0 0
1.87964 -0.955233 7.4376 0 0 0
1.8735 -0.805342 7.18631 0 0 0
1.8712 -0.143628 7.13181 0 0 0
1.88254 -0.731603 7.22488 0 0 0
1.89733 -0.27304 7.16822 0 0 0
1.89746 -0.178892 7.14907 0 0 0
1.91139 -0.779923 7.20039 0 0 0
1.90891 -0.505564 7.12228 0 0 0
1.91556 -0.712689 7.1894 0 0 0
1.94776 -0.882471 7.425 0 0 0
1.93783 -0.779519 7.19863 0 0 0
1.93888 -0.702722 7.21555 0 0 0
1.92311 0.356213 7.05107 0 0 0
1.92311 0.356213 7.05107 0 0 0
1.93411 -0.308068 7.16623 0 0 0
1.92748 0.402359 7.08258 0 0 0
1.95167 -0.749756 7.22435 0 0 0
1.92405 0.781587 6.95073 0 0 0
1.53185 -0.0105766 1.12656 0 0 0
1.94343 0.281696 7.09745 0 0 0
1.95651 0.0302109 7.09882 0 0 0
1.94782 0.826482 6.98806 0 0 0
1.94782 0.826482 6.98806 0 0 0
1.96425 -0.0400478 7.1046 0 0 0
1.98227 -0.304297 7.17567 0 0 0
1.99299 -0.458785 7.21089 0 0 0
2.00264 -0.578571 7.22555 0 0 0
2.00331 -0.0260485 7.11698 0 0 0
2.00331 -0.0260485 7.11698 0 0 0
2.0018 0.160234 7.07937 0 0 0
2.01078 -0.218186 7.17854 0 0 0
2.0094 0.0116367 7.1211 0 0 0
2.00512 0.577225 7.06675 0 0 0
2.0179 -0.00928382 7.16436 0 0 0
2.02126 -0.0289552 7.1372 0 0 0
2.022 0.104388 7.11021 0 0 0
2.03413 -0.46473 7.20697 0 0 0
2.02952 -0.128324 7.18168 0 0 0
2.03787 -0.00903168 7.13861 0 0 0
2.0406 -0.0877649 7.14873 0 0 0
2.03798 0.286608 7.08454 0 0 0
2.03798 0.286608 7.08454 0 0 0
2.05061 -0.163435 7.17273 0 0 0
2.05656 -0.414644 7.23403 0 0 0
2.04125 0.490346 7.0884 0 0 0
2.04231 0.444723 7.07093 0 0 0
2.05333 -0.124292 7.19467 0 0 0
2.04618 0.304643 7.11692 0 0 0
2.05378 -0.0823756 7.16136 0 0 0
2.05532 -0.068674 7.18632 0 0 0
2.04508 0.576336 7.08041 0 0 0
2.05816 -0.171931 7.16758 0 0 0
2.05816 -0.171931 7.16758 0 0 0
2.04747 0.628143 7.07279 0 0 0
2.05497 0.264348 7.13519 0 0 0
1.88818 0.697634 5.14918 0 0 0
1.88818 0.697634 5.14918 0 0 0
2.05604 0.324743 7.09478 0 0 0
2.05751 0.3675 7.12297 0 0 0
2.05749 0.366534 7.11583 0 0 0
2.05704 0.45356 7.12038 0 0 0
2.05911 0.375057 7.13686 0 0 0
2.06684 0.0890602 7.16643 0 0 0
2.06658 0.191935 7.12612 0 0 0
2.06362 0.570853 7.07393 0 0 0
2.07918 -0.243158 7.21734 0 0 0
2.07918 -0.243158 7.21734 0 0 0
2.06641 0.418164 7.08525 0 0 0
2.08149 -0.284726 7.22857 0 0 0
2.07203 0.269037 7.12772 0 0 0
2.07184 0.664701 7.07767 0 0 0
2.0878 0.154157 7.16421 0 0 0
2.0779 0.749216 7.049 0 0 0
2.10069 -0.263375 7.20815 0 0 0
2.11436 -0.326091 7.26393 0 0 0
2.10549 0.338431 7.11566 0 0 0
2.11108 0.0752627 7.13962 0 0 0
2.10897 0.487264 7.09964 0 0 0
2.12508 -0.0948878 7.19 0 0 0
2.13367 -0.391667 7.22977 0 0 0
2.13044 0.000622365 7.18465 0 0 0
2.13328 -0.13332 7.19191 0 0 0
2.13003 0.201617 7.15005 0 0 0
2.14017 -0.140639 7.20361 0 0 0
2.14017 -0.140639 7.20361 0 0 0
2.14302 -0.127629 7.23287 0 0 0
2.14207 -0.0738332 7.19418 0 0 0
2.14497 -0.0602638 7.22429 0 0 0
2.14469 -0.0199311 7.19176 0 0 0
2.14598 -0.0341084 7.18917 0 0 0
2.15305 -0.216119 7.21574 0 0 0
2.16358 -0.570655 7.28047 0 0 0
2.14118 0.589697 7.09935 0 0 0
2.15617 -0.142928 7.21406 0 0 0
2.1497 0.329245 7.16423 0 0 0
2.15797 -0.120576 7.20314 0 0 0
2.16971 -0.195633 7.24603 0 0 0
2.17458 0.192783 7.16441 0 0 0
2.16688 0.661516 7.1075 0 0 0
2.19104 -0.494673 7.2748 0 0 0
2.20107 -0.574633 7.33131 0 0 0
2.17947 0.356102 7.14426 0 0 0
2.18026 0.398835 7.16772 0 0 0
2.19033 0.672287 7.10607 0 0 0
2.19293 0.645918 7.10847 0 0 0
2.24811 -0.493636 7.26401 0 0 0
2.24264 0.0898752 7.20606 0 0 0
2.24264 0.0898752 7.20606 0 0 0
2.2461 0.196909 7.19999 0 0 0
2.25802 -0.494058 7.27037 0 0 0
2.25124 0.0591732 7.2114 0 0 0
2.26453 -0.516544 7.29822 0 0 0
2.25903 0.0556493 7.20996 0 0 0
2.25989 0.165752 7.19416 0 0 0
2.26202 0.167011 7.22554 0 0 0
2.26481 0.0627133 7.20358 0 0 0
2.25432 0.713018 7.13491 0 0 0
2.26752 0.173445 7.19382 0 0 0
2.11549 0.787819 5.85846 0 0 0
2.27404 0.0683676 7.23377 0 0 0
2.34064 0.825183 6.14488 0 0 0
2.54153 -0.158745 7.23122 0 0 0
2.55352 -0.169276 7.22149 0 0 0
2.57129 -0.25749 7.23521 0 0 0
2.57692 -0.0721524 7.26302 0 0 0
2.57097 -0.0832858 7.20875 0 0 0
2.57433 0.0161599 7.18745 0 0 0
2.57947 -0.066647 7.2182 0 0 0
2.57637 -0.143599 7.18842 0 0 0
2.58478 -0.124973 7.19245 0 0 0
2.57769 0.816902 6.21936 0 0 0
-2.96944 0.777125 5.5154 194 240 255
-2.36242 -0.0620679 5.38067 226 254 255
-2.3585 -0.052461 5.37672 225 255 255
-2.35965 -0.0672029 5.38466 225 255 255
-2.35527 -0.057286 5.38209 226 254 255
-2.35527 -0.057286 5.38209 226 254 255
-2.35551 -0.0342068 5.38949 225 253 255
-2.36714 -0.633027 5.42139 237 255 255
-2.37884 -0.644751 5.43417 239 255 255
-2.34842 0.108673 5.37838 218 253 255
-2.34918 0.0966775 5.38073 219 253 254
-2.35524 -0.0720867 5.39542 225 253 254
-2.38828 -0.607004 5.47907 237 255 255
-2.36123 -0.576873 5.46054 237 255 255
-2.36123 -0.576873 5.46054 237 255 255
-2.34174 -0.459098 5.43951 235 255 254
-2.35482 -0.520363 5.4603 236 254 254
-2.35482 -0.520363 5.4603 236 254 254
-2.26624 0.506764 5.32993 211 248 254
-2.35215 -0.512607 5.46338 237 255 255
-2.34023 -0.511032 5.45072 237 255 255
-2.35203 -0.383172 5.46047 232 253 254
-2.27627 0.339461 5.36302 216 251 255
-2.25492 0.516862 5.33663 212 249 255
-2.36488 -0.676593 5.50876 241 255 255
-2.2735 0.313019 5.37587 217 252 255
-2.33007 -0.556226 5.46966 239 255 255
-2.25283 0.482783 5.35344 215 250 255
-2.339 -0.678499 5.48738 241 255 255
-2.24808 0.532326 5.34707 212 249 255
-2.25444 0.470461 5.35859 216 249 255
-2.25222 0.376272 5.36999 214 252 255
-2.25232 0.349772 5.3739 217 252 255
-2.21786 0.542714 5.33365 214 249 255
-2.2946 -0.611636 5.45584 239 255 255
-2.26583 0.111015 5.40323 222 253 255
-2.25959 0.106249 5.41455 223 254 255
-2.26657 -0.34809 5.47007 235 255 254
-2.28168 -0.554315 5.49734 239 255 255
-2.2038 0.316501 5.38161 218 251 255
-2.20908 0.173733 5.40338 219 253 255
-2.3128 -0.774285 5.56114 243 255 255
-2.23654 -0.394031 5.47297 236 254 254
-2.30215 -0.773293 5.56203 243 255 255
-2.16232 0.54925 5.37927 216 249 255
-2.15219 0.362862 5.41046 221 250 255
-2.14514 0.204088 5.43476 220 254 255
-2.16993 -0.183709 5.48216 233 254 255
-2.16576 -0.287789 5.48283 235 255 254
-2.13883 -0.135934 5.44583 231 255 255
-2.118 0.456507 5.40629 215 253 255
-2.11958 0.413629 5.40954 218 252 254
-2.18795 -0.376683 5.51888 237 255 255
-2.16577 -0.289396 5.49289 235 255 254
-2.13513 -0.274462 5.46107 235 255 255
-2.17654 -0.316792 5.51077 235 255 254
-2.10766 0.289637 5.4149 222 253 255
-2.10281 0.198857 5.4161 222 253 255
-2.12521 0.103845 5.45517 225 255 255
-2.13601 -0.128881 5.49347 229 255 254
-2.24595 -0.904723 5.67082 249 255 255
-2.13201 -0.329305 5.52095 237 255 255
-2.12844 -0.4102 5.52533 241 255 255
-2.13155 -0.356764 5.5285 239 255 255
-2.06882 0.0488683 5.44549 227 255 255
-2.07866 -0.27116 5.5059 236 254 254
-2.07366 -0.350011 5.50796 239 255 255
-2.08174 -0.656528 5.52851 246 254 255
-2.1222 -0.695163 5.5844 247 255 255
-2.02619 -0.0775676 5.46916 231 255 255
-2.09843 -0.761349 5.61055 249 255 255
-2.07691 -0.506792 5.57832 245 255 255
-2.03301 0.250388 5.50904 225 255 255
-2.03301 0.250388 5.50904 225 255 255
-1.99559 0.536984 5.4707 218 252 254
-1.99262 0.0789626 5.48819 229 255 254
-1.99262 0.0789626 5.48819 229 255 254
-2.06187 -0.876382 5.60779 251 255 255
-2.06785 -0.756077 5.61159 249 255 255
-2.00047 0.171544 5.51934 227 255 255
-1.99487 0.231188 5.51534 228 254 255
-2.04878 -0.857155 5.61768 251 255 255
-1.98623 0.251152 5.51226 226 254 255
-1.98332 -0.612128 5.57846 249 255 255
-1.92949 -0.0471544 5.50003 234 254 255
-1.88266 0.545361 5.42658 221 252 255
-1.93241 0.441769 5.49362 215 253 255
-1.94006 0.142364 5.52024 229 255 254
-1.93644 0.294108 5.51517 226 254 255
-1.90496 0.55012 5.47014 222 253 255
-1.90916 0.541281 5.48198 222 253 255
-2.00458 -0.903812 5.70637 253 254 255
-1.88707 -0.517621 5.59949 247 255 255
-1.89655 -0.500623 5.61549 246 254 255
-1.80581 0.535565 5.47171 221 252 254
-1.82833 0.464973 5.50607 223 254 255
-1.82833 0.464973 5.50607 223 254 255
-1.91335 -0.883783 5.67531 253 254 255
-1.82408 0.371327 5.52214 55 56 123
-1.82192 0.137258 5.53724 234 254 255
-1.84893 -0.150015 5.58287 240 255 255
-1.85439 -0.627294 5.61516 249 255 255
-1.82465 0.114233 5.55505 231 255 255
-1.80222 0.270536 5.5408 229 255 254
-1.87894 -0.762347 5.68308 253 254 255
-1.82918 -0.0922455 5.60036 239 255 255
-1.82216 -0.118607 5.59375 239 255 255
-1.81019 -0.34734 5.6194 245 255 255
-1.80081 -0.338775 5.62516 246 254 255
-1.73566 0.386735 5.52505 220 255 255
-2.10739 -1.54961 6.081 255 255 255
-1.77394 0.0077227 5.59276 237 255 255
-1.77394 0.0077227 5.59276 237 255 255
-1.75198 0.222471 5.56626 233 254 255
-1.75198 0.222471 5.56626 233 254 255
-2.03938 -1.26023 5.99415 255 255 255
-1.79579 -0.469391 5.65451 249 255 255
-2.1018 -1.57287 6.09779 255 255 255
-1.76387 -0.0902735 5.60346 241 255 255
-2.09607 -1.59599 6.09204 255 255 255
-2.09473 -1.54445 6.09382 255 255 255
-2.09804 -1.54356 6.09753 255 255 255
-2.09804 -1.54356 6.09753 255 255 255
-2.09536 -1.59106 6.10203 255 255 255
-2.09536 -1.59106 6.10203 255 255 255
-1.79725 -0.578209 5.67418 251 255 255
-2.08705 -1.44588 6.099 252 252 254
-2.08864 -1.44469 6.10064 252 252 254
-1.75198 -0.176847 5.61554 243 255 255
-2.08725 -1.52875 6.10554 255 255 255
-2.09148 -1.43897 6.11272 169 196 189
-1.73061 0.208735 5.58153 233 254 255
-1.74362 -0.219211 5.61226 243 255 255
-1.70736 0.377244 5.55647 91 108 134
-1.73455 -0.0929408 5.61828 241 255 255
-1.98048 -1.22029 5.99173 162 166 178
-3.24536 0.735404 7.63482 224 254 255
-1.66214 0.503353 5.51742 224 254 255
-1.95184 -1.17097 5.95735 133 133 143
-1.76221 -0.56159 5.68559 253 254 255
-1.68247 0.481255 5.54811 194 223 253
-1.75813 -0.577268 5.68604 251 255 255
-1.71713 -0.128023 5.62291 243 254 255
-1.67763 0.480352 5.55234 196 226 250
-1.73234 -0.276141 5.65195 246 254 255
-1.66843 0.548636 5.54038 224 255 255
-1.89783 -1.04734 5.8998 255 255 255
-1.74931 -0.626128 5.6909 251 255 255
-1.72365 -0.234418 5.64604 245 255 255
-1.6985 0.0519987 5.60956 236 254 254
-1.66449 0.450956 5.5622 77 91 138
-1.70303 -0.149228 5.64156 243 255 255
-1.70897 -0.378235 5.66129 249 255 255
-1.87158 -1.0339 5.90278 255 255 255
-1.69255 -0.283608 5.64637 246 254 255
-1.67584 0.0940927 5.61242 185 194 209
-1.68504 -0.155544 5.64604 243 255 255
-1.68525 -0.183052 5.65159 243 255 255
-2.37801 -1.4737 6.64393 135 153 193
-1.6909 -0.377785 5.67342 249 255 255
-1.70002 -0.571217 5.69199 248 252 251
-1.69152 -0.439413 5.67889 249 255 255
-2.3718 -1.45075 6.64804 126 151 181
-1.6754 -0.215867 5.65557 245 255 255
-2.3705 -1.42807 6.65299 80 101 148
-1.79405 -0.915689 5.84779 255 255 255
-1.68158 -0.448463 5.68088 249 255 255
-1.68399 -0.555892 5.70164 164 200 222
-1.67152 -0.383415 5.68441 248 253 255
-1.7752 -0.90515 5.84713 244 255 255
-1.58064 0.580495 5.5402 225 253 255
-2.31806 -1.39995 6.64318 71 98 141
-1.63143 -0.137992 5.66502 138 179 201
-2.32222 -1.40343 6.67497 72 95 137
-2.28129 -1.36437 6.65095 76 99 141
-2.28138 -1.29793 6.64907 91 106 139
-1.57767 -0.029928 5.63553 83 88 118
-2.2802 -1.38432 6.67795 71 93 140
-2.28082 -1.3699 6.6855 72 95 136
-2.27969 -1.36845 6.68247 72 95 136
-2.26852 -1.28677 6.66691 88 96 132
-1.65231 0.203751 5.7945 49 64 97
-1.68117 -0.701733 5.88374 253 255 254
-2.25774 -1.39282 6.73168 74 95 138
-2.24742 -1.37212 6.74829 67 90 134
-2.24688 -1.42088 6.75148 136 166 200
-1.74168 -0.721897 6.01748 255 255 255
-1.73689 -0.775689 6.01904 255 255 255
-2.23671 -1.4172 6.76037 125 155 189
-2.48101 -1.25602 7.12248 242 230 255
-2.48065 -1.25762 7.12296 242 230 255
-2.48319 -1.39206 7.15132 85 99 144
-1.70866 -0.821398 6.03655 113 108 162
-1.84548 -0.0620512 6.32144 62 85 119
-1.84793 0.0330234 6.33322 60 80 115
-1.83298 -0.444026 6.40699 51 70 110
-1.80211 -0.0209129 6.3516 57 72 111
-1.78002 -0.490402 6.39144 46 68 105
-2.06067 -1.2245 6.84095 87 110 141
-2.06521 -1.41476 6.85403 59 79 116
-2.03699 -0.984432 6.80698 90 111 138
-2.03724 -1.20013 6.84373 89 102 136
-2.03514 -1.21718 6.84577 89 104 147
-1.74333 -0.0170029 6.3807 45 64 104
-2.04246 -1.36183 6.8836 122 152 186
-2.01494 -1.34191 6.87077 134 173 206
-1.74825 -0.605068 6.48018 38 63 93
-2.06768 -1.01187 7.01098 83 103 128
-2.12522 -1.16266 7.20872 102 113 158
-1.67463 -0.794346 6.51836 44 64 97
-1.60986 0.0199012 6.42161 51 69 105
-1.60986 0.0199012 6.42161 51 69 105
-1.61502 -0.702698 6.52688 47 67 104
-1.59821 -0.728333 6.53239 54 71 101
-1.59103 -0.754732 6.53854 144 144 132
-1.58788 -0.600255 6.53484 68 88 115
-1.80055 -1.09407 6.9058 63 79 113
-1.56703 -0.554874 6.51808 149 157 160
-1.53368 0.0278267 6.44974 58 72 109
-1.56348 -0.748185 6.55749 120 115 109
-1.51396 -0.395776 6.51457 139 140 135
-1.50846 -0.38703 6.51443 133 135 132
-1.47715 0.134056 6.47267 101 139 188
-1.48124 -0.0113434 6.48993 143 140 147
-1.48411 -0.186795 6.51701 134 134 134
-1.49574 -0.618047 6.59652 50 69 101
-1.4532 -0.535906 6.52482 143 147 148
-1.45832 -0.357553 6.53359 32 53 72
-1.4379 -0.13425 6.51143 82 114 155
-1.4379 -0.13425 6.51143 82 114 155
-1.43685 -0.176097 6.519 152 157 160
-1.77077 -1.34686 7.15594 167 162 158
-1.73488 -1.31361 7.12965 165 164 170
-1.73488 -1.31361 7.12965 165 164 170
-1.75859 -1.43275 7.1881 84 72 82
-1.76351 -1.52524 7.20114 92 86 98
-1.42129 -0.546121 6.59055 153 156 163
-1.74851 -1.4649 7.18157 114 103 109
-1.74103 -1.3789 7.16883 160 162 159
-1.55195 -0.915741 6.82953 110 126 152
-1.42423 -0.573896 6.60614 127 130 139
-1.42108 -0.614367 6.61155 57 72 111
-1.75009 -1.48322 7.2068 100 95 99
-1.76169 -1.48543 7.22145 100 95 99
-1.42226 -0.723423 6.62123 68 88 123
-1.75151 -1.54556 7.21871 72 70 75
-1.75151 -1.54556 7.21871 72 70 75
-1.52747 -0.919725 6.82072 118 131 147
-1.52747 -0.919725 6.82072 118 131 147
-1.7337 -1.44033 7.19626 92 92 100
-1.73012 -1.46838 7.19612 106 101 105
-1.73012 -1.46838 7.19612 106 101 105
-1.73159 -1.40851 7.20075 115 112 121
-1.67249 -1.30278 7.15785 145 159 170
-1.37049 -0.744918 6.63109 73 90 120
-1.67772 -1.34782 7.19018 153 161 163
-1.33747 -0.773212 6.63793 142 138 126
-1.60481 -1.32141 7.20183 89 100 106
-1.30384 -0.771713 6.67439 130 122 103
-1.2632 -0.741216 6.6627 122 123 127
-1.51886 -1.27717 7.17606 147 144 153
-1.51886 -1.27717 7.17606 147 144 153
-1.20809 0.0716402 6.56954 64 57 64
-1.2356 -0.745842 6.66766 123 133 135
-1.1539 0.196512 6.53724 123 131 134
-1.47298 -1.34405 7.24524 153 160 170
-1.15223 0.13176 6.60927 153 155 152
-1.4707 -1.32006 7.26682 135 150 153
-1.18228 -0.553914 6.70542 128 126 127
-1.15506 -0.546063 6.68602 132 134 129
-1.12595 0.225007 6.61248 147 152 156
-1.11039 -0.178452 6.66567 143 144 148
-1.11039 -0.178452 6.66567 143 144 148
-1.21655 -0.844147 6.93355 84 91 101
-1.09534 -0.340844 6.69747 122 116 116
-1.07243 0.221832 6.63631 157 159 156
-1.09687 -0.421473 6.71071 86 99 116
-1.06859 -0.18267 6.67342 98 104 116
-1.05613 0.0204666 6.64393 117 122 125
-1.81787 -0.432807 8.11786 132 135 140
-1.06517 -0.368713 6.67716 132 135 140
-1.05786 -0.0838873 6.65611 70 92 116
-1.20083 -0.886058 6.95855 67 90 124
-1.06915 -0.392242 6.6907 134 135 140
-1.02412 -0.383578 6.67592 147 148 152
-1.14539 -0.858995 6.93787 82 109 139
-1.15696 -0.910917 6.97924 65 81 107
-1.1273 -0.851461 6.96228 89 105 130
-0.992229 -0.716907 6.75955 113 117 103
-1.00235 -0.746232 6.78269 131 130 125
-0.974518 -0.538857 6.76216 104 127 161
-0.927509 -0.74249 6.79104 131 130 138
-0.918407 -0.797254 6.79434 62 82 117
-0.924363 -0.741824 6.80864 133 132 137
-0.907902 -0.16503 6.76096 95 116 143
-1.13747 -1.31059 7.37245 135 143 145
-0.847378 -0.68816 6.82466 83 80 89
-0.846719 -0.676507 6.84536 80 78 91
-0.846719 -0.676507 6.84536 80 78 91
-1.08853 -1.30287 7.38975 85 94 103
-1.06179 -1.30197 7.39547 113 106 98
-0.77278 -0.371189 6.77052 136 139 148
-0.658345 -0.505611 6.63969 61 76 107
-0.959017 -1.38731 7.32889 157 159 154
-0.693323 -0.567075 6.73473 88 98 108
-0.61881 0.00782899 6.60802 103 112 121
-0.615102 -0.499674 6.65755 110 106 107
-0.653964 -0.586807 6.7517 117 112 109
-0.651344 -0.608277 6.75698 108 107 103
-0.873861 -1.19663 7.33651 108 105 114
-0.864447 -1.15879 7.32015 105 111 109
-0.607258 -0.565137 6.73029 107 115 128
-0.607258 -0.565137 6.73029 107 115 128
-0.747418 -0.865875 7.05879 117 118 122
-0.858635 -1.40386 7.34909 129 115 132
-0.856281 -1.35004 7.34328 155 156 151
-0.855083 -1.28554 7.34731 137 133 134
-0.861218 -1.40366 7.38031 167 155 167
-0.828321 -1.28491 7.30875 105 97 110
-0.842676 -1.48905 7.3519 106 90 93
-0.83612 -1.49866 7.33857 127 111 114
-0.831397 -1.20331 7.322 85 81 78
-0.835157 -1.41734 7.35378 148 141 135
-0.83033 -1.19422 7.34545 106 90 90
-0.544162 -0.483892 6.68677 122 125 130
-0.547527 -0.479123 6.72077 104 110 122
-0.542435 -0.479865 6.71054 104 110 122
-0.525705 -0.53468 6.70073 124 130 130
-0.559698 -0.634404 6.85067 80 69 83
-0.502745 -0.562607 6.78138 117 121 122
-0.467029 -0.369224 6.74047 113 119 131
-0.547065 -0.798955 6.95105 116 128 128
-0.66767 -1.18322 7.26723 110 107 114
-0.466022 -0.551786 6.7962 110 114 123
-0.671545 -1.30084 7.39897 111 118 126
-0.447637 -0.567905 6.83804 109 113 124
-0.626679 -1.28596 7.39633 132 131 139
-0.658455 -1.47275 7.48496 112 109 104
-0.632281 -1.33559 7.43853 138 142 143
-0.609204 -1.30538 7.40131 126 137 139
-0.395197 -0.682586 6.85977 79 77 82
-0.63114 -1.45937 7.49352 72 60 64
-0.381101 -0.867822 6.8824 74 94 121
-0.603393 -1.31835 7.45445 132 140 151
-0.370273 -0.751958 6.88026 110 117 123
-0.582366 -1.30945 7.42995 128 141 149
-0.654885 -1.51363 7.63379 145 144 124
-0.336571 -0.833163 6.86564 8 36 47
-0.627609 -1.65286 7.63898 159 156 147
-0.618581 -1.76281 7.66034 33 40 58
-0.592123 -1.67657 7.63782 149 141 138
-0.314844 -0.959505 6.91366 104 107 112
-0.577345 -1.50814 7.61142 146 149 138
-0.29843 -0.915317 6.89981 82 105 123
-0.286639 -0.863963 6.88676 76 79 110
-0.294124 -0.941691 6.92105 101 111 120
-0.302391 -0.902767 6.94104 49 59 69
-0.455137 -1.15693 7.34768 88 94 94
-0.480903 -1.32408 7.50402 111 119 130
-0.24688 -0.884571 6.92731 46 46 58
-0.474076 -1.3559 7.54899 150 153 160
-0.398898 -1.32731 7.52505 121 130 147
-0.362298 -1.29017 7.50114 98 104 116
-0.373183 -1.29908 7.5518 106 114 127
-0.336652 -1.29865 7.52975 118 115 126
-0.313868 -1.29177 7.541 103 112 119
-0.345389 -1.40432 7.69511 142 147 151
-0.182285 -1.10561 7.57754 82 98 123
-0.176502 -1.17679 7.58982 54 62 81
-0.170004 -1.25195 7.62322 49 63 64
-0.171567 -1.38261 7.63387 93 97 100
-0.164339 -1.26221 7.61182 56 65 72
-0.179781 -1.52545 7.70243 115 121 121
-0.152488 -1.25824 7.63906 80 92 106
-0.0470577 -0.838097 7.40804 73 90 116
-0.130668 -1.31662 7.8045 82 103 120
-0.0207989 -1.28027 7.84534 36 43 61
-0.0127592 -1.28527 7.84336 38 53 60
0.0411469 -1.29378 7.89977 237 228 223
0.0457613 -1.27797 7.88497 241 232 227
0.116741 -1.28912 7.9011 215 214 219
0.117886 -1.26832 7.89666 236 233 228
0.172979 -1.27202 7.92888 246 240 240
0.198998 -1.26751 7.9372 244 240 237
0.22668 -1.26822 7.92611 244 239 235
-2.98973 0.775914 5.49037 189 229 255
-3.0015 0.820137 5.51361 187 229 254
-2.95991 0.736528 5.48505 189 229 255
-3.00766 0.834726 5.52333 187 228 255
-2.99993 0.8418 5.53578 187 229 254
-2.93669 0.779541 5.48778 187 229 254
-3.00412 0.832334 5.54488 188 228 254
-2.87006 0.741241 5.53321 191 231 255
-2.85203 0.741181 5.54158 193 229 255
-2.85866 0.726686 5.56996 188 230 254
-2.86308 0.716827 5.5759 194 231 255
-2.84307 0.756127 5.56017 189 231 255
-2.85049 0.744544 5.56854 194 228 255
-2.85049 0.744544 5.56854 194 228 255
-2.86811 0.705749 5.59636 196 230 255
-2.29226 0.482197 5.28652 201 236 255
-2.28821 0.565236 5.2831 195 236 255
-2.27521 0.601205 5.27592 197 233 255
-2.34926 -0.624612 5.41612 225 253 255
-2.34926 -0.624612 5.41612 225 253 255
-2.32076 -0.0989969 5.37719 214 249 255
-2.24885 0.482313 5.30125 200 235 255
-2.35727 -0.616605 5.43007 225 253 255
-2.31395 -0.106626 5.38914 216 249 255
-2.31411 -0.146404 5.39597 219 248 255
-2.33572 -0.646048 5.43203 225 253 255
-2.22751 0.441889 5.31095 204 237 255
-2.34282 -0.612945 5.4463 225 253 255
-2.32492 -0.504376 5.43296 223 253 255
-2.32492 -0.504376 5.43296 223 253 255
-2.23519 0.0338773 5.38201 212 246 255
-2.37373 0.0896367 5.51313 212 246 255
-2.24668 0.0879889 5.39915 212 246 255
-2.28259 -0.672521 5.45702 226 254 255
-2.23544 -0.125094 5.39912 216 249 254
-2.20538 -0.198573 5.38436 221 250 255
-2.28013 -0.667149 5.47158 228 254 255
-2.22932 -0.138268 5.42019 216 249 254
-2.21641 -0.11273 5.41759 216 249 254
-2.16409 0.367982 5.36411 208 240 255
-2.22072 -0.236354 5.43497 222 250 254
-2.22571 -0.316638 5.44591 222 251 255
-2.22655 -0.318525 5.4493 222 251 255
-2.24042 -0.528738 5.47699 225 253 255
-2.14892 0.311729 5.37427 208 241 255
-2.16301 0.173767 5.4058 212 244 255
-2.17548 -0.0285105 5.42369 216 249 255
-2.11045 0.260726 5.36888 209 243 255
-2.27559 -0.764609 5.55598 230 254 254
-2.08764 0.526275 5.36429 205 236 255
-2.17692 -0.355012 5.47277 223 251 254
-2.14593 -0.0276181 5.44203 216 249 255
-2.09414 0.207463 5.41487 212 244 255
-2.11594 -0.0227218 5.4425 219 248 255
-2.13174 -0.196227 5.46645 222 251 255
-2.06244 0.0248448 5.39512 216 249 255
-2.06619 0.0867154 5.40459 214 247 254
-2.08403 0.155429 5.42361 210 247 255
-2.01854 0.55795 5.35223 201 236 255
-2.0688 -0.00992221 5.42292 218 248 255
-2.37514 -0.696454 5.73486 230 254 254
-2.17222 -0.672235 5.55023 230 254 254
-2.10219 -0.15485 5.46901 221 250 254
-2.07162 -0.217582 5.45028 221 250 254
-2.10541 -0.273918 5.49138 223 251 255
-2.09988 -0.22175 5.48883 221 250 254
-2.10728 -0.429811 5.51569 226 254 255
-2.08346 -0.630785 5.51498 230 254 254
-2.03603 -0.419729 5.49083 225 253 255
-1.98186 0.514053 5.41716 204 240 255
-2.00293 0.288121 5.46521 212 244 255
-1.94514 0.34864 5.4528 211 243 255
-2.21136 -1.03481 5.76639 241 255 255
-1.88502 0.702329 5.41583 200 237 255
-1.88502 0.702329 5.41583 200 237 255
-1.97617 -0.605915 5.55741 232 253 254
-1.84148 0.552708 5.4176 208 240 255
-2.05397 -0.726636 5.67135 234 255 255
-1.85811 0.536986 5.45585 208 240 255
-1.8615 0.71253 5.45963 202 237 255
-1.87038 0.157927 5.4958 219 248 254
-1.82007 0.457621 5.46119 210 242 253
-1.84228 0.0545947 5.51018 222 249 255
-1.82414 0.419278 5.48424 211 243 254
-2.16755 -1.18811 5.89049 245 255 255
-1.80751 0.407493 5.49785 212 244 255
-1.92199 -0.87309 5.65851 239 255 255
-1.81557 0.218172 5.52182 219 246 253
-1.80929 0.274005 5.51592 215 248 255
-1.76519 0.41355 5.48632 211 243 254
-1.83319 -0.229643 5.57886 228 253 255
-1.78412 0.098571 5.52528 222 249 255
-1.83433 -0.305947 5.58999 229 255 255
-1.76748 0.184386 5.51647 218 249 254
-1.84001 -0.385708 5.60673 230 254 254
-1.76746 0.356781 5.52007 213 246 255
-1.82723 -0.290273 5.60448 229 255 255
-1.82621 -0.316527 5.60907 228 254 255
-1.82933 -0.366735 5.61531 230 254 254
-1.82201 -0.425212 5.61333 230 254 254
-1.74907 0.355614 5.51449 213 246 255
-1.82782 -0.451406 5.62888 233 254 255
-1.8268 -0.556693 5.63666 235 255 255
-1.80769 -0.426913 5.62969 232 253 254
-1.75635 0.0482208 5.56981 222 250 254
-1.72733 0.146729 5.55104 221 248 255
-1.71112 0.406527 5.53172 212 246 255
-1.75226 0.000441209 5.59506 226 251 255
-2.11955 -1.36486 6.03908 249 255 255
-1.72219 0.0498216 5.58338 223 251 255
-1.75107 -0.341389 5.63682 232 253 254
-2.11704 -1.40625 6.0598 249 255 255
-2.11704 -1.40625 6.0598 249 255 255
-1.66686 0.530624 5.52593 212 244 255
-1.72678 -0.152093 5.61218 229 253 255
-1.66328 0.341182 5.53295 217 247 255
-2.05616 -1.26271 5.99775 246 255 254
-2.04607 -1.26622 5.99165 246 255 254
-1.72351 -0.169386 5.61811 228 254 255
-2.06997 -1.33077 6.02273 249 255 255
-1.72317 -0.270879 5.63106 232 253 254
-1.71943 -0.170959 5.62754 229 255 255
-2.04439 -1.27416 6.00722 247 255 255
-2.10979 -1.5021 6.08758 251 255 255
-1.64661 0.305497 5.54826 218 248 255
-1.67005 0.175781 5.576 224 249 254
-1.6835 -0.00415378 5.59993 224 252 255
-1.70239 -0.184225 5.62563 230 254 255
-2.10262 -1.51616 6.09637 251 255 255
-2.10225 -1.543 6.1013 251 255 255
-2.09958 -1.56826 6.10326 251 255 255
-2.06226 -1.36204 6.06054 249 255 255
-2.09522 -1.40214 6.10313 249 255 255
-1.6596 0.183257 5.59532 33 51 75
-1.67079 -0.127895 5.62614 229 253 255
-1.65676 0.0361691 5.61174 226 251 255
-1.95686 -1.18422 5.97548 246 254 255
-1.69809 -0.536285 5.6912 239 255 255
-1.67492 -0.369053 5.66295 236 254 255
-1.67492 -0.369053 5.66295 236 254 255
-1.60563 0.164161 5.58195 223 251 255
-1.65621 -0.458288 5.67954 236 254 254
-1.59774 -0.0567089 5.60751 225 253 254
-1.80854 -0.939426 5.87356 245 255 255
-1.80854 -0.939426 5.87356 245 255 255
-1.55396 0.646249 5.55632 212 244 255
-1.57742 -0.0858246 5.60431 229 253 255
-1.6172 -0.0609017 5.65397 231 252 255
-1.63139 -0.413721 5.68528 236 254 254
-1.7661 -0.9014 5.85028 245 255 255
-1.61997 0.293957 5.69098 42 48 108
-1.6175 -0.055357 5.71378 229 255 255
-1.62471 -0.109415 5.72547 230 254 255
-1.62119 0.600135 5.69922 213 246 255
-2.35759 -1.41249 6.61168 250 254 255
-1.61098 -0.0496491 5.73731 230 254 255
-1.61029 -0.0315931 5.74392 229 253 255
-1.57139 -0.595073 5.71953 243 255 255
-1.6431 -0.244148 5.7957 234 254 255
-1.56072 -0.64444 5.71745 243 255 255
-2.33238 -1.4062 6.61126 251 255 255
-1.81867 -0.853629 6.01919 246 254 255
-1.64349 0.677469 5.77704 213 246 255
-1.64349 0.677469 5.77704 213 246 255
-1.63881 -0.444166 5.81686 239 255 255
-1.53966 -0.630864 5.71581 243 255 255
-1.78493 -0.816586 6.01133 246 254 255
-1.6774 -0.0618415 5.87582 113 120 138
-1.71835 -0.714421 5.97586 98 96 171
-1.68972 0.695655 5.90861 216 244 255
-1.68972 0.695655 5.90861 216 244 255
-1.74407 -0.721159 6.01973 196 206 255
-1.71539 -0.102288 5.97357 232 253 254
-2.31127 -1.41453 6.6913 254 254 255
-1.72759 0.222028 5.97683 75 90 109
-1.72286 -0.0721328 5.99708 86 107 136
-2.27739 -1.34944 6.67394 253 254 255
-2.2818 -1.36864 6.68396 253 254 255
-1.72917 0.638407 5.99269 216 246 254
-0.961749 0.529214 5.12291 216 246 254
-1.73557 -0.685788 6.04368 245 255 255
-1.74299 0.244735 6.02246 52 64 90
-1.74672 0.161789 6.02907 192 224 247
-1.73563 -0.35323 6.05953 239 255 255
-1.75268 -0.0472432 6.06849 127 132 151
-2.25929 -1.12724 6.70172 250 255 255
-2.25641 -1.31631 6.70804 253 254 255
-1.72344 -0.751426 6.07909 244 253 252
-2.24995 -1.18314 6.69741 102 135 152
-2.22828 -1.1997 6.67861 89 116 133
-2.25595 -1.30786 6.72876 253 254 255
-2.30743 -1.21821 6.80641 115 112 139
-1.78115 -0.014721 6.16815 127 137 149
-2.21254 -1.43691 6.72278 156 157 188
-1.71006 -0.852915 6.12234 251 255 255
-2.24583 -1.43622 6.76379 194 184 244
-1.83037 0.65443 6.22183 216 246 254
-1.80851 0.867003 6.19947 214 244 255
-1.83383 0.329469 6.24798 81 85 97
-1.77131 -0.793583 6.22609 250 254 255
-1.8078 0.154328 6.24302 92 100 119
-1.81982 -0.053179 6.26421 97 95 119
-1.81673 0.0218377 6.26409 176 179 212
-1.81019 0.65143 6.24704 208 246 255
-1.80964 0.485533 6.26588 201 237 251
-2.50449 -1.36514 7.14601 253 254 255
-2.44203 -1.175 7.06805 143 142 160
-1.81392 0.607501 6.27057 50 76 91
-1.84212 -0.183916 6.33223 233 255 255
-1.84971 -0.166009 6.34092 233 255 255
-1.84281 0.0342327 6.32684 173 216 223
-2.49008 -1.25825 7.13329 70 81 101
-2.50512 -1.29962 7.15351 241 255 255
-1.84603 0.0906015 6.33115 100 137 163
-2.50253 -1.36721 7.15708 253 254 255
-2.4981 -1.28745 7.15149 101 125 137
-1.81595 0.246568 6.29903 78 93 124
-1.83796 0.0166241 6.33321 73 81 100
-1.78621 0.641516 6.2617 63 69 91
-1.83124 0.107724 6.33348 128 150 187
-1.82485 0.209749 6.32611 91 110 140
-2.48957 -1.40308 7.17216 253 255 254
-1.84249 -0.469551 6.37868 95 106 134
-2.48171 -1.28454 7.1609 121 139 151
-1.81652 0.144688 6.32845 58 77 107
-2.48569 -1.19101 7.1709 108 110 135
-2.47156 -1.13968 7.15231 127 127 137
-1.81085 0.297764 6.32172 76 92 125
-2.48516 -1.34892 7.18175 253 255 254
-1.84149 -0.457903 6.38956 72 89 119
-1.83501 -0.456769 6.38224 72 89 119
-1.81707 -0.0345335 6.35087 125 138 154
-1.82793 -0.230134 6.37325 97 104 132
-1.80107 0.246997 6.32574 80 95 124
-1.80886 0.245767 6.33395 80 95 124
-1.8208 -0.115015 6.36471 103 106 121
-1.78184 0.368235 6.30526 79 93 122
-1.81909 -0.190518 6.37311 143 148 170
-1.8004 0.00127798 6.35326 43 58 79
-1.79803 0.137874 6.34696 61 76 107
-1.81372 -0.128556 6.37787 105 116 148
-1.81063 -0.412751 6.39348 69 87 127
-1.80497 -0.398046 6.40096 76 92 128
-1.77172 -0.484349 6.39973 65 91 126
-1.77172 -0.484349 6.39973 65 91 126
-1.76324 -0.0713909 6.37999 122 134 150
-2.06792 -1.11228 6.8408 91 93 118
-2.06072 -1.45395 6.85239 104 99 131
-2.07528 -1.3714 6.87845 138 148 158
-1.74195 -0.0325996 6.42654 119 131 147
-2.08074 -1.4191 6.89429 253 254 255
-2.07257 -1.37865 6.88337 185 197 193
-2.07224 -1.42654 6.88916 134 145 201
-2.02893 -1.05836 6.84699 247 250 255
-2.04411 -1.28843 6.88212 253 255 254
-2.04411 -1.28843 6.88212 253 255 254
-1.69887 -0.314434 6.43088 77 96 126
-2.02491 -1.38174 6.91449 155 167 183
-2.03317 -1.10757 6.92011 91 95 120
-2.12422 -1.14623 7.17985 111 119 140
-1.62276 -0.765412 6.53342 51 70 102
-1.62276 -0.765412 6.53342 51 70 102
-2.14396 -1.21287 7.22792 64 72 95
-1.61048 -0.7418 6.53956 53 67 102
-2.14739 -1.31144 7.2554 253 255 254
-2.14297 -1.35799 7.25278 255 255 255
-1.56932 -0.072642 6.48278 47 62 95
-2.1456 -1.37595 7.27186 191 177 238
-1.53078 0.21337 6.43544 85 86 91
-1.54913 -0.387296 6.48089 49 66 96
-1.56293 -0.30048 6.49798 57 75 111
-1.52308 0.255719 6.44171 60 76 109
-1.51034 0.1537 6.46329 67 72 94
-1.3693 0.74387 6.26413 37 54 80
-1.48166 0.240245 6.46654 126 118 116
-1.49007 -0.103266 6.51343 54 65 93
-1.48146 -0.352035 6.53371 51 65 100
-1.43667 0.216901 6.46359 95 95 95
-1.47133 -0.251534 6.53612 51 68 94
-1.4365 -0.0931873 6.51077 37 48 70
-1.43511 -0.0690201 6.51188 45 57 83
-1.43511 -0.0690201 6.51188 45 57 83
-1.44866 -0.145783 6.53686 68 88 115
-1.43967 -0.535237 6.5439 46 62 98
-1.41098 0.0712458 6.50262 47 54 80
-1.41098 0.0712458 6.50262 47 54 80
-1.58399 -0.91812 6.81364 48 64 98
-1.57673 -0.920092 6.83224 53 64 94
-1.40527 -0.548362 6.60714 54 70 103
-1.55305 -0.902678 6.85005 57 73 107
-1.77391 -1.3615 7.16848 65 78 112
-1.78107 -1.39149 7.17939 56 71 104
-1.78072 -1.41812 7.20112 48 65 91
-1.77058 -1.55286 7.23044 92 104 120
-1.76174 -1.53964 7.2301 106 117 137
-1.73982 -1.43371 7.21312 79 92 101
-1.76088 -1.56703 7.24664 59 73 100
-1.31787 0.0244237 6.59086 50 67 95
-1.7415 -1.39824 7.24168 47 58 86
-1.33077 -0.749778 6.65521 123 120 105
-1.29264 0.306421 6.56744 112 111 116
-1.27383 -0.523322 6.59287 59 72 104
-1.31323 -0.800924 6.67364 93 91 102
-1.30852 -0.175578 6.64706 51 67 93
-1.64339 -1.32194 7.19279 39 54 83
-1.64714 -1.35025 7.21222 47 55 74
-1.02754 0.746346 6.31216 59 87 134
-1.13645 0.742713 6.47344 64 92 132
-1.16721 0.22971 6.55533 67 89 138
-1.16721 0.22971 6.55533 67 89 138
-1.22801 -0.538036 6.68699 55 74 104
-1.18261 -0.0179845 6.63538 32 55 96
-1.12919 0.486772 6.54919 41 55 81
-1.14863 0.242273 6.60252 60 91 138
-1.20246 -0.740473 6.71623 78 107 141
-1.19471 -0.570415 6.70157 90 104 133
-1.14552 0.217693 6.60372 94 122 169
-1.13109 0.19428 6.58681 59 91 138
-1.13109 0.19428 6.58681 59 91 138
-1.15113 -0.00248449 6.62457 68 85 115
-1.10945 0.682343 6.54011 44 60 86
-1.14863 -0.138043 6.6319 98 121 163
-1.55606 -1.35254 7.26794 56 68 106
-1.15869 -0.0176911 6.65066 35 61 98
-1.15869 -0.0176911 6.65066 35 61 98
-1.15424 -0.31942 6.66894 68 97 139
-1.07424 0.682571 6.55368 67 83 117
-1.12667 -0.285198 6.6672 66 99 140
-1.136 -0.342499 6.68388 68 99 143
-1.11197 0.145938 6.63175 75 89 100
-1.10583 -0.470566 6.67399 97 108 136
-1.08567 0.179209 6.62425 132 125 107
-1.12245 -0.411102 6.70393 92 102 127
-1.11821 -0.386214 6.69846 87 107 132
-1.07715 0.62446 6.60206 121 121 109
-1.07715 0.62446 6.60206 121 121 109
-1.0547 0.297857 6.60754 121 113 110
-1.07158 -0.122639 6.66935 101 92 85
-1.05559 0.23456 6.64629 122 112 100
-1.0812 -0.294628 6.71789 109 108 106
-1.04252 0.0324513 6.65985 117 111 97
-1.06085 -0.210498 6.71933 97 89 86
-1.03181 -0.525097 6.71082 117 105 89
-1.21196 -0.870712 7.00598 119 106 98
-1.19983 -0.894883 7.00135 108 98 96
-1.36198 -1.28204 7.29029 120 110 108
-1.03294 -0.563367 6.76893 120 121 113
-1.17438 -0.852847 6.99406 127 126 132
-0.947381 0.81579 6.58951 105 97 86
-1.01233 0.0415312 6.7257 125 126 121
-1.38216 -1.33774 7.34258 65 70 63
-1.38219 -1.34888 7.34493 114 103 117
-1.30961 -1.27224 7.30598 130 131 123
-0.964603 -0.00418068 6.74517 97 93 92
-0.977254 -0.736301 6.79599 111 112 114
-0.972892 -0.240342 6.80541 92 85 79
-0.940695 -0.740377 6.83341 110 110 110
-1.25437 -1.5291 7.38115 114 106 95
-0.849075 -0.268065 6.7739 66 77 73
-1.19824 -1.33369 7.40392 78 80 75
-0.753515 -0.589318 6.79644 117 115 116
-1.12468 -1.31859 7.43788 88 73 76
-1.07624 -1.26907 7.37556 107 106 104
-0.656157 0.14642 6.63797 66 81 112
-0.67324 -0.42469 6.70482 129 126 119
-1.10107 -1.32775 7.45844 65 66 68
-0.626655 -0.481023 6.69211 96 84 98
-1.07096 -1.31869 7.45633 75 73 84
-1.07096 -1.31869 7.45633 75 73 84
-0.678191 -0.609098 6.78264 131 133 130
-1.05577 -1.30453 7.45979 108 108 110
-0.612803 -0.49407 6.70065 79 79 81
-1.04374 -1.31568 7.45665 67 62 69
-0.569621 0.204007 6.63383 74 98 136
-0.43581 0.699024 6.41853 56 73 101
-0.428252 0.701673 6.41938 70 86 111
-0.572266 -0.485159 6.71752 89 79 87
-0.510588 0.0757198 6.60002 116 117 111
-0.532549 0.0774468 6.63338 116 117 111
-0.586521 -0.578566 6.78238 120 115 119
-0.90333 -1.11877 7.34994 85 103 117
-0.907283 -1.39997 7.38069 67 76 81
-0.909584 -1.43722 7.39358 112 116 115
-0.540141 -0.485284 6.72863 75 65 76
-0.898916 -1.42559 7.38338 84 88 99
-0.744619 -0.519287 7.09114 68 67 72
-0.528663 -0.491913 6.72677 67 66 71
-0.882538 -1.28675 7.37784 106 98 111
-0.881951 -1.33697 7.38368 54 49 72
-0.874505 -1.13973 7.36604 33 39 65
-0.493105 -0.129481 6.67383 133 133 143
-0.869968 -1.35892 7.38639 103 111 114
-0.86341 -1.35661 7.37693 103 111 114
-0.871437 -1.40739 7.39414 43 55 69
-0.691223 -0.910631 7.07171 76 69 77
-0.862681 -1.35698 7.39375 88 89 107
-0.854707 -1.39882 7.39862 50 57 73
-0.836811 -1.14774 7.36502 35 42 60
-0.385173 0.668232 6.52077 105 105 97
-0.385173 0.668232 6.52077 105 105 97
-0.855146 -1.45145 7.42753 83 83 95
-0.486505 -0.397654 6.81306 60 73 92
-0.682855 -1.05752 7.18911 33 41 54
-0.950432 -1.38756 7.67586 115 106 123
-0.86947 -1.31705 7.54812 98 95 106
-0.840914 -1.27061 7.51171 106 106 108
-0.458984 -0.588969 6.83379 115 118 127
-0.463809 -0.554446 6.85451 119 126 132
-0.451478 -0.626229 6.85155 49 62 78
-0.661208 -1.13087 7.27104 93 92 98
-0.413849 -0.283399 6.79787 99 101 116
-0.409017 -0.283959 6.79426 99 101 116
-0.431106 -0.615928 6.84837 90 99 106
-0.685939 -1.20412 7.32967 79 88 93
-0.425316 -0.569407 6.84231 87 96 111
-0.428587 -0.654048 6.8547 104 112 123
-0.424514 -0.628835 6.85506 115 121 133
-0.762366 -1.32479 7.50036 76 77 71
-0.38691 0.594954 6.77432 109 102 84
-0.377024 0.661356 6.76457 85 77 66
-0.700358 -1.32239 7.44318 54 64 55
-0.377854 0.650933 6.77155 85 71 60
-0.395404 -0.82571 6.87346 110 107 102
-0.34098 0.649613 6.72569 85 79 63
-0.34098 0.649613 6.72569 85 79 63
-0.366635 0.63764 6.77348 90 83 64
-0.366635 0.63764 6.77348 90 83 64
-0.358191 0.341349 6.77488 123 116 108
-0.345039 0.0609877 6.77373 120 119 115
-0.357539 0.340229 6.77807 119 114 108
-0.359063 0.629178 6.7783 94 85 68
-0.359063 0.629178 6.7783 94 85 68
-0.328135 0.643709 6.73906 89 83 69
-0.323571 0.575174 6.73905 122 123 118
-0.676126 -1.34383 7.47597 74 83 90
-0.338587 0.587932 6.78148 117 120 125
-0.659339 -1.31652 7.45558 62 66 69
-0.342636 -0.495071 6.84529 76 75 80
-0.364227 -0.845299 6.90898 76 74 79
-0.643326 -1.31594 7.46176 48 54 52
-0.303618 0.363568 6.77568 110 113 106
-0.184488 0.753106 6.54485 111 103 92
-0.636102 -1.3295 7.46871 95 96 101
-0.612732 -1.28806 7.43975 75 80 74
-0.2941 0.641463 6.7688 80 71 72
-0.272487 0.261248 6.76085 118 124 124
-0.610678 -1.30537 7.45577 81 85 84
-0.606891 -1.29773 7.45978 83 85 82
-0.6469 -1.47489 7.54413 67 66 74
-0.586344 -1.27006 7.4292 80 74 76
-0.641689 -1.4516 7.54027 93 97 100
-0.294533 -0.378884 6.84966 103 103 103
-0.157179 0.752966 6.54869 90 91 95
-0.322179 -0.967318 6.94554 102 92 90
-0.322179 -0.967318 6.94554 102 92 90
-0.303211 -0.866991 6.91655 81 77 76
-0.303211 -0.866991 6.91655 81 77 76
-0.662922 -1.33846 7.61134 57 58 60
-0.583815 -1.31278 7.46676 57 58 60
-0.312239 -0.989987 6.94765 105 101 100
-0.312239 -0.989987 6.94765 105 101 100
-0.667459 -1.50842 7.65388 97 99 98
-0.511562 -1.14843 7.34901 99 97 100
-0.348931 -0.820565 7.032 110 106 107
-0.2587 0.379913 6.81598 83 82 78
-0.671018 -1.69813 7.69274 140 144 147
-0.296166 -0.872125 6.95088 74 67 75
-0.666784 -1.70797 7.69908 140 144 143
-0.653022 -1.68577 7.67554 138 143 147
-0.65474 -1.68294 7.68899 141 146 150
-0.642414 -1.67477 7.68485 131 131 139
-0.642904 -1.70807 7.69158 127 125 128
-0.631026 -1.69334 7.67725 110 103 110
-0.240311 -0.0668082 6.87358 113 116 123
-0.236837 -0.247685 6.88538 100 100 102
-0.246905 -0.847997 6.94095 79 71 84
-0.543545 -1.33795 7.5226 142 141 146
-0.236658 -0.693771 6.95125 108 106 117
-0.580962 -1.68823 7.67496 139 143 144
-0.219712 -0.571713 6.93365 98 102 111
-0.518805 -1.37006 7.54367 97 102 108
-0.520494 -1.35995 7.55339 47 56 63
-0.600327 -1.48117 7.72678 96 101 97
-0.600327 -1.48117 7.72678 96 101 97
-0.182129 0.277415 6.83639 68 80 104
-0.175512 -0.255136 6.87982 97 102 106
-0.166834 -0.525104 6.89051 80 72 83
-0.541833 -1.49709 7.66179 105 100 104
-0.159643 -0.506418 6.88282 80 74 84
-0.162663 -0.51699 6.89017 76 69 77
-0.480326 -1.33707 7.55255 121 122 124
-0.188149 -0.597186 6.96115 109 113 114
-0.555907 -1.69069 7.72929 140 142 141
-0.151177 -0.27409 6.9035 83 104 125
-0.536489 -1.67089 7.72756 138 136 141
-0.156494 -0.491869 6.92496 76 71 78
-0.156494 -0.491869 6.92496 76 71 78
-0.436307 -1.31922 7.55382 65 63 68
-0.143412 -0.539097 6.94664 69 61 74
-0.162065 -0.606785 6.99394 111 109 110
-0.151285 -0.630759 6.97937 29 42 58
-0.113668 -0.474317 6.90072 105 106 111
-0.136081 -0.563339 6.96142 98 93 97
-0.124408 -0.582293 6.96796 107 110 117
-0.40745 -1.30975 7.55934 59 60 62
-0.352721 -1.2538 7.52365 101 104 109
-0.0423403 0.199422 6.88047 85 88 105
-0.072296 -0.532066 6.98083 65 68 75
-0.0783146 -0.572791 7.00695 105 105 107
-0.0268132 0.244752 6.86933 90 90 98
-0.0782365 -0.585362 7.02587 103 107 108
-0.0756845 -0.583719 7.024 103 107 108
-0.0561642 -0.545011 6.99803 68 66 67
0.00156719 -0.471413 6.93992 72 71 79
0.0538658 0.0834692 6.84046 97 99 98
0.0130788 -0.0557798 6.94004 104 107 112
-0.0595916 -0.75914 7.19026 234 247 240
0.0193978 -0.619111 7.1008 84 93 98
-0.222138 -1.31513 7.66039 64 53 67
0.0452363 -0.278764 7.04995 54 73 87
-0.204389 -1.31316 7.6624 59 58 72
0.069777 -0.536532 7.04406 64 63 71
0.0717896 -0.344557 7.04326 59 73 102
0.0925342 -0.38258 7.01318 42 60 72
-0.213043 -1.53922 7.73578 77 77 77
0.109456 0.0749536 6.96434 104 108 109
-0.1718 -1.47857 7.67649 67 78 74
-0.0761638 -0.832527 7.44632 80 90 92
0.154216 0.129278 6.92294 42 49 67
-0.151354 -1.09793 7.65156 37 39 51
0.0747975 -0.141114 7.14817 99 111 125
0.109673 0.342188 7.04815 87 88 108
0.0810897 -0.220005 7.14147 76 78 90
0.156389 -0.509942 7.02287 68 67 73
-0.0228385 -0.888332 7.44807 49 48 56
0.0908621 0.0449453 7.17553 83 83 91
0.105055 -0.101452 7.15815 95 100 103
0.0996967 -0.396062 7.2041 48 65 81
0.120753 -0.347723 7.16988 55 72 102
0.00163778 -0.836462 7.48659 83 92 99
-0.15727 -1.34197 7.86644 55 63 74
-0.139496 -1.25718 7.8262 81 89 108
0.0131619 -0.827893 7.47228 74 84 93
0.0131619 -0.827893 7.47228 74 84 93
0.137743 -0.179745 7.18278 34 47 55
0.113217 -0.515833 7.2711 70 78 89
0.121678 -0.710699 7.26855 51 69 93
0.128908 -0.530894 7.24948 73 83 95
-0.0818964 -1.28988 7.8733 85 97 111
0.202808 -0.708099 7.28303 55 63 84
0.0265009 0.615296 7.65736 64 80 103
0.237207 -0.32299 7.22289 61 69 82
0.267062 -0.432383 7.24716 76 93 113
0.0189225 -1.28198 7.88951 68 80 102
0.24234 -0.7093 7.33385 66 68 93
0.287208 -0.445919 7.23805 70 89 106
0.255078 -0.574706 7.32945 45 56 78
0.256745 -0.647413 7.33495 68 83 106
0.0291098 -1.29138 7.91912 66 80 107
0.0286375 -1.31893 7.92881 62 75 91
0.0450061 -1.27101 7.89907 69 84 103
0.270249 -0.658665 7.33766 20 32 56
0.306401 -0.430088 7.24834 68 87 104
0.256746 0.514304 7.31604 72 87 110
0.0495509 -1.27233 7.9187 67 79 103
0.266554 0.624899 7.30613 78 83 113
0.297303 -0.440476 7.29576 71 82 102
0.0633016 -1.33195 7.94457 61 76 97
0.0655133 -1.30002 7.94506 70 78 101
0.321785 -0.243226 7.27815 55 68 85
0.319669 -0.630438 7.34883 66 73 99
0.323223 -0.52579 7.33461 55 64 73
0.340689 -0.497597 7.30896 55 66 84
0.339046 -0.446609 7.31442 68 69 97
0.347002 -0.481399 7.30966 60 71 91
0.365767 0.276161 7.24928 43 57 70
0.367056 0.275906 7.27742 59 66 85
0.408175 0.314183 7.22322 83 83 107
0.408175 0.314183 7.22322 83 83 107
0.413381 0.136121 7.22423 65 71 97
0.413381 0.136121 7.22423 65 71 97
0.375794 -0.123504 7.3293 48 62 75
0.375794 -0.123504 7.3293 48 62 75
0.408118 0.222417 7.25115 41 52 74
0.400465 -0.274591 7.29861 57 62 84
0.401299 -0.153094 7.28983 69 75 99
0.405536 -0.42859 7.30264 31 44 60
0.280059 -0.832247 7.63734 41 55 66
0.403588 -0.490675 7.33138 45 51 63
0.409949 -0.345654 7.32989 54 69 88
0.322501 -0.802834 7.6007 59 74 93
0.415765 -0.337272 7.34588 67 82 105
0.321969 -0.877262 7.62236 67 76 91
0.202563 -1.24292 7.94197 78 96 120
0.423548 -0.341782 7.34002 76 80 115
0.328881 -0.804018 7.60552 88 94 120
0.427922 -0.336364 7.33766 70 79 112
0.456227 0.352095 7.23725 43 59 82
0.450956 0.223218 7.25808 61 69 88
0.215208 -1.24341 7.94028 88 99 119
0.333459 -0.821993 7.61847 42 65 83
0.227764 -1.21938 7.92752 150 155 149
0.211691 -1.28274 7.97328 215 220 200
0.211691 -1.28274 7.97328 215 220 200
0.212696 -1.31573 8.00291 223 214 205
0.358253 -0.798733 7.60513 87 98 128
0.468378 0.0788127 7.28656 82 100 124
0.426851 0.247662 7.40392 82 97 128
0.481096 0.241028 7.26915 80 93 125
0.505966 0.640612 7.21754 75 95 119
0.505966 0.640612 7.21754 75 95 119
0.504763 0.559528 7.23091 83 95 121
0.512642 0.138176 7.26726 93 109 135
0.502678 0.0877797 7.30141 92 104 130
0.254652 -1.31298 8.03609 217 206 200
0.456269 -0.748875 7.49396 231 218 212
0.632756 0.968923 6.93857 82 100 122
0.28517 -1.28057 8.00965 234 223 221
0.308045 -1.27291 8.00689 240 231 224
0.539883 -0.429173 7.36536 233 220 214
0.528408 -0.428867 7.38816 233 220 214
0.541572 -0.323209 7.37452 233 222 218
0.538481 -0.653231 7.45991 212 199 193
0.563303 -0.426585 7.40254 231 220 216
0.346459 -1.29528 8.05314 231 220 218
0.593229 0.139102 7.33425 237 226 220
0.593016 -0.427286 7.38508 235 224 218
0.621802 0.860494 7.24689 240 226 226
0.610195 -0.424212 7.38652 233 222 216
0.598998 -0.763304 7.46252 229 218 214
0.565263 -0.723463 7.54899 234 223 219
0.588041 -0.605858 7.48531 236 227 222
0.588041 -0.605858 7.48531 236 227 222
0.608307 -0.752598 7.46494 214 203 199
0.610758 -0.757152 7.46104 226 215 211
0.609593 -0.74454 7.46899 237 226 222
0.657564 0.141259 7.33328 232 218 217
0.418635 -1.06449 8.0751 234 224 223
0.632596 -0.633706 7.48967 235 224 222
0.62908 -0.63206 7.49434 235 224 222
0.65512 -0.693862 7.47365 235 225 216
0.692339 0.862565 7.27643 251 237 236
0.673016 0.32512 7.36404 248 237 233
0.681256 0.142712 7.39151 239 229 227
0.699708 0.259129 7.37367 240 230 228
0.693121 -0.227771 7.43369 244 235 230
0.693121 -0.227771 7.43369 244 235 230
0.692967 -0.230264 7.44355 246 237 232
0.740814 0.827088 7.26627 236 226 225
0.740814 0.827088 7.26627 236 226 225
0.701735 -0.575783 7.50979 231 219 219
0.741411 0.760575 7.3131 237 223 222
0.712357 -0.712391 7.50458 235 225 224
0.721252 -0.506232 7.50178 243 233 231
0.777192 0.760689 7.32349 175 194 113
0.562365 -1.22424 8.07762 234 225 226
0.733361 -0.501253 7.53039 238 229 224
0.665906 -0.817662 7.77481 235 227 224
0.760678 -0.243794 7.46505 231 220 218
0.5631 -1.32817 8.11948 234 226 223
0.773666 -0.00526267 7.42564 235 224 218
0.77214 -0.116027 7.44681 238 224 221
0.761928 -0.347461 7.50006 235 225 224
0.761928 -0.347461 7.50006 235 225 224
0.767383 -0.270519 7.47687 239 229 227
0.792793 0.567015 7.35092 184 207 125
0.77395 0.380771 7.42053 166 185 96
0.789411 0.37937 7.37963 166 185 96
0.681025 -0.878133 7.7815 236 228 226
0.774347 -0.320529 7.47708 231 221 219
0.594164 -1.22409 8.08949 232 223 224
0.79238 0.145527 7.4254 240 229 223
0.793078 0.0879335 7.43593 240 231 226
0.694629 -0.879017 7.79063 230 222 220
0.798034 0.249373 7.4192 234 221 215
0.798034 0.249373 7.4192 234 221 215
0.702633 -0.867969 7.77932 232 224 222
0.816726 0.744163 7.34289 151 167 92
0.711222 -0.841148 7.79877 238 228 227
0.724811 -0.862503 7.77769 239 229 228
0.814336 -0.098613 7.46179 218 209 204
0.824258 0.230756 7.422 239 230 221
0.832645 0.366293 7.38993 171 187 99
0.845894 0.780802 7.3236 157 176 86
0.738938 -0.814325 7.78406 221 211 210
0.735645 -0.864251 7.79976 242 232 230
0.735645 -0.864251 7.79976 242 232 230
0.739666 -0.797025 7.78571 230 220 218
0.835365 -0.342712 7.51492 231 220 218
0.845692 0.0650993 7.46309 243 232 228
0.862172 0.339338 7.42261 196 205 140
0.862488 0.314344 7.42993 160 168 91
0.862488 0.314344 7.42993 160 168 91
0.863624 0.233024 7.43921 215 201 188
0.846067 -0.163792 7.51776 232 221 215
0.852289 -0.374787 7.52507 220 206 203
0.872854 0.40354 7.41188 163 184 93
0.870436 -0.233773 7.53823 234 225 218
0.867758 -0.642809 7.60694 236 225 223
0.888671 -0.323333 7.52134 251 240 236
0.880207 -0.683081 7.58844 236 225 221
0.896937 -0.694244 7.55862 241 232 227
0.89073 -0.539407 7.5781 252 239 233
0.900594 -0.699307 7.58021 246 232 231
0.78125 -1.03126 8.00222 228 218 217
0.927624 -0.197347 7.57793 240 230 228
0.946887 -0.687001 7.62735 233 221 221
0.888242 -0.875855 7.9184 225 211 210
0.892462 -0.914156 7.94896 235 223 223
1.01217 0.210143 7.50994 198 210 126
0.993559 -0.700192 7.65029 238 229 224
1.02788 0.341654 7.48596 159 186 83
1.03206 -0.244053 7.58586 247 238 233
1.02842 -0.193232 7.59915 227 217 208
1.05207 -0.410647 7.57901 223 212 208
