ply
format ascii 1.0 
element vertex 1301
property float32 x 
property float32 y 
property float32 z
property uchar red  
property uchar green
property uchar blue
element face 0
property list uchar int vertex_indices
end_header
-2.03184 0.304764 5.4902 218 252 254
-2.09619 -0.449943 5.58932 237 255 255
-2.07378 -0.366326 5.56327 235 255 254
-2.04669 -0.351777 5.53443 235 255 255
-2.0851 -0.392844 5.58198 235 255 254
-2.01879 0.186325 5.49301 222 253 255
-2.00594 0.100178 5.48531 222 253 255
-2.03584 0.00857542 5.53172 225 255 255
-2.0453 -0.213723 5.56691 229 255 254
-2.1486 -0.953368 5.73283 249 255 255
-2.04026 -0.404876 5.5916 237 255 255
-2.03535 -0.481642 5.59359 241 255 255
-2.03953 -0.431105 5.5987 239 255 255
-1.97848 -0.0435959 5.51976 227 255 255
-1.98727 -0.349292 5.5769 236 254 254
-1.98101 -0.424111 5.5766 239 255 255
-1.98776 -0.715582 5.59269 246 254 255
-2.02821 -0.753525 5.64976 247 255 255
-1.93696 -0.164408 5.54341 231 255 255
-2.00364 -0.816698 5.67461 249 255 255
-1.9834 -0.574442 5.64586 245 255 255
-1.94259 0.14732 5.58678 225 255 255
-1.94259 0.14732 5.58678 225 255 255
-1.90657 0.421348 5.55217 218 252 254
-1.90219 -0.0156587 5.56325 229 255 254
-1.90219 -0.0156587 5.56325 229 255 254
-1.96564 -0.92528 5.66841 251 255 255
-1.97178 -0.81124 5.67393 249 255 255
-1.90954 0.0720065 5.59566 227 255 255
-1.90418 0.128914 5.59248 228 254 255
-1.95236 -0.907166 5.6784 251 255 255
-1.89564 0.147996 5.58962 226 254 255
-1.8895 -0.674422 5.6437 249 255 255
-1.83736 -0.135854 5.5715 234 254 255
-1.79426 0.43013 5.50719 221 252 255
-1.8425 0.330072 5.57318 215 253 255
-1.84893 0.0442018 5.59563 229 255 254
-1.84575 0.18889 5.59268 226 254 255
-1.81566 0.433864 5.55094 222 253 255
-1.8196 0.425211 5.56268 222 253 255
-1.90611 -0.952559 5.76558 253 254 255
-1.79297 -0.584873 5.66516 247 255 255
-1.80216 -0.568974 5.68144 246 254 255
-1.70989 0.421146 5.54444 221 252 254
-1.73798 0.351965 5.58509 223 254 255
-1.73798 0.351965 5.58509 223 254 255
-1.8169 -0.933526 5.73573 253 254 255
-1.73319 0.262378 5.5998 55 56 123
-1.72919 0.0390607 5.61025 234 254 255
-1.75584 -0.235139 5.65336 240 255 255
-1.75838 -0.688818 5.67721 249 255 255
-1.73263 0.0168384 5.62911 231 255 255
-1.71075 0.165982 5.61688 229 255 254
-1.78249 -0.818388 5.74478 253 254 255
-1.7358 -0.180455 5.67143 239 255 255
-1.72893 -0.205425 5.66449 239 255 255
-1.716 -0.423319 5.68674 245 255 255
-1.70519 -0.415026 5.69083 246 254 255
-1.63558 0.277119 5.59244 220 255 255
-1.99996 -1.56905 6.13032 255 255 255
-1.68088 -0.0851824 5.66482 237 255 255
-1.68088 -0.0851824 5.66482 237 255 255
-1.65979 0.119747 5.64116 233 254 255
-1.65979 0.119747 5.64116 233 254 255
-1.93474 -1.29434 6.04789 255 255 255
-1.70057 -0.539798 5.7198 249 255 255
-1.99337 -1.59061 6.14569 255 255 255
-1.67041 -0.178602 5.67403 241 255 255
-1.98828 -1.61295 6.14041 255 255 255
-1.98706 -1.5643 6.14298 255 255 255
-1.98971 -1.56294 6.14587 255 255 255
-1.98971 -1.56294 6.14587 255 255 255
-1.98733 -1.60839 6.15033 255 255 255
-1.98733 -1.60839 6.15033 255 255 255
-1.70142 -0.643424 5.73787 251 255 255
-1.97952 -1.4712 6.1495 252 252 254
-1.98053 -1.46959 6.15037 252 252 254
-1.65688 -0.260989 5.68316 243 255 255
-1.97945 -1.5496 6.15483 255 255 255
-1.98374 -1.46487 6.16336 169 196 189
-1.63807 0.1064 5.65604 233 254 255
-1.64973 -0.301361 5.68081 243 255 255
-1.61558 0.267397 5.63319 91 108 134
-1.64075 -0.181368 5.68851 241 255 255
-1.87612 -1.25643 6.04554 162 166 178
-3.17237 0.578995 7.8071 224 254 255
-1.57023 0.388233 5.59422 224 254 255
-1.84841 -1.20929 6.01191 133 133 143
-1.66618 -0.627779 5.74914 253 254 255
-1.59101 0.366702 5.6261 194 223 253
-1.66206 -0.642665 5.74934 251 255 255
-1.62316 -0.214803 5.69246 243 254 255
-1.58607 0.365763 5.63027 196 226 250
-1.63753 -0.3561 5.71947 246 254 255
-1.57716 0.431094 5.61916 224 255 255
-1.79502 -1.09094 5.95477 255 255 255
-1.65163 -0.68869 5.75152 251 255 255
-1.62912 -0.316348 5.7142 245 255 255
-1.6051 -0.0433007 5.68153 236 254 254
-1.57267 0.337555 5.63961 77 91 138
-1.60863 -0.235264 5.71064 243 255 255
-1.61239 -0.452973 5.72527 249 255 255
-1.76986 -1.07873 5.95914 255 255 255
-1.59648 -0.362869 5.71167 246 254 255
-1.58241 -0.00327798 5.68477 185 194 209
-1.59053 -0.241333 5.71485 243 255 255
-1.59058 -0.267575 5.71998 243 255 255
-2.25653 -1.50416 6.69021 135 153 193
-1.59549 -0.452989 5.73906 249 255 255
-1.60389 -0.636955 5.75487 248 252 251
-1.59585 -0.511605 5.74359 249 255 255
-2.25122 -1.48266 6.69573 126 151 181
-1.58062 -0.298831 5.72344 245 255 255
-2.24898 -1.46121 6.69982 80 101 148
-1.69383 -0.965913 5.90553 255 255 255
-1.58593 -0.52023 5.74545 249 255 255
-1.58627 -0.622157 5.76263 164 200 222
-1.57581 -0.458485 5.74968 248 253 255
-1.67506 -0.955895 5.90486 244 255 255
-1.48798 0.461329 5.61703 225 253 255
-2.2038 -1.43595 6.69839 71 98 141
-1.53502 -0.224787 5.73157 138 179 201
-2.20129 -1.43822 6.72249 72 95 137
-2.16679 -1.40232 6.70595 76 99 141
-2.16072 -1.33822 6.69719 91 106 139
-1.48352 -0.121646 5.70522 83 88 118
-2.14765 -1.41843 6.71267 71 93 140
-2.15898 -1.40651 6.73178 72 95 136
-2.14963 -1.40408 6.72028 72 95 136
-2.14739 -1.32784 6.71466 88 96 132
-1.5554 0.0979716 5.86772 49 64 97
-1.58057 -0.763464 5.94311 253 255 254
-2.13488 -1.42863 6.77674 74 95 138
-2.12423 -1.40927 6.79328 67 90 134
-2.12346 -1.45527 6.79559 136 166 200
-1.63735 -0.784261 6.07502 255 255 255
-1.63241 -0.835203 6.07567 255 255 255
-2.11309 -1.45187 6.80423 125 155 189
-2.348 -1.30463 7.16583 242 230 255
-2.35568 -1.3082 7.17695 242 230 255
-2.34892 -1.43311 7.19174 85 99 144
-1.60376 -0.878673 6.09204 113 108 162
-1.73652 -0.163555 6.38862 62 85 119
-1.73897 -0.0735155 6.40189 60 80 115
-1.71949 -0.527593 6.46539 51 70 110
-1.69258 -0.124994 6.41863 57 72 111
-1.66867 -0.570659 6.45036 46 68 105
-1.93643 -1.27076 6.88476 87 110 141
-1.94021 -1.45027 6.89458 59 79 116
-1.91434 -1.04382 6.85518 90 111 138
-1.91311 -1.24777 6.88765 89 102 136
-1.91097 -1.26387 6.8894 89 104 147
-1.63332 -0.121742 6.447 45 64 104
-1.91779 -1.40081 6.92541 122 152 186
-1.88996 -1.3817 6.91166 134 173 206
-1.63471 -0.680447 6.53578 38 63 93
-1.94003 -1.07236 7.05569 83 103 128
-1.99218 -1.21702 7.24788 102 113 158
-1.56026 -0.859915 6.56983 44 64 97
-1.49942 -0.0873609 6.48692 51 69 105
-1.49942 -0.0873609 6.48692 51 69 105
-1.50086 -0.773314 6.5791 47 67 104
-1.48398 -0.797611 6.58399 54 71 101
-1.4766 -0.822635 6.5895 144 144 132
-1.47369 -0.676499 6.58814 68 88 115
-1.67642 -1.14809 6.94782 63 79 113
-1.45349 -0.633327 6.57231 149 157 160
-1.42402 -0.0808224 6.51593 58 72 109
-1.44876 -0.816669 6.60799 120 115 109
-1.40092 -0.482668 6.57085 139 140 135
-1.39546 -0.474382 6.57079 133 135 132
-1.36817 0.0195041 6.5409 101 139 188
-1.37084 -0.11862 6.55455 143 140 147
-1.37288 -0.285317 6.57852 134 134 134
-1.38064 -0.69416 6.64783 50 69 101
-1.34126 -0.615747 6.58001 143 147 148
-1.34513 -0.446729 6.58968 32 53 72
-1.32559 -0.234895 6.57124 82 114 155
-1.32559 -0.234895 6.57124 82 114 155
-1.32432 -0.274661 6.57802 152 157 160
-1.64456 -1.39007 7.19459 167 162 158
-1.60561 -1.35741 7.16296 165 164 170
-1.60561 -1.35741 7.16296 165 164 170
-1.62854 -1.47043 7.21996 84 72 82
-1.63293 -1.55752 7.23117 92 86 98
-1.30679 -0.625948 6.64244 153 156 163
-1.61767 -1.50035 7.21138 114 103 109
-1.61075 -1.41931 7.20038 160 162 159
-1.43344 -0.97909 6.87655 110 126 152
-1.31071 -0.652852 6.65945 127 130 139
-1.30584 -0.690785 6.6617 57 72 111
-1.62265 -1.51882 7.24187 100 95 99
-1.62265 -1.51882 7.24187 100 95 99
-1.30684 -0.793969 6.66975 68 88 123
-1.62061 -1.5768 7.24792 72 70 75
-1.62061 -1.5768 7.24792 72 70 75
-1.40698 -0.982128 6.86403 118 131 147
-1.40698 -0.982128 6.86403 118 131 147
-1.60274 -1.47739 7.22611 92 92 100
-1.59913 -1.50375 7.22543 106 101 105
-1.59913 -1.50375 7.22543 106 101 105
-1.6006 -1.44751 7.23102 115 112 121
-1.54648 -1.34828 7.19541 145 159 170
-1.25508 -0.814349 6.67857 73 90 120
-1.55097 -1.39106 7.22652 153 161 163
-1.22202 -0.841121 6.68446 142 138 126
-1.47561 -1.36551 7.23335 89 100 106
-1.18885 -0.840417 6.72165 130 122 103
-1.14765 -0.811144 6.70858 122 123 127
-1.39015 -1.32323 7.20656 147 144 153
-1.39015 -1.32323 7.20656 147 144 153
-1.09561 -0.0406473 6.62965 64 57 64
-1.12006 -0.815541 6.71307 123 133 135
-1.04241 0.0782992 6.59928 123 131 134
-1.343 -1.38681 7.27256 153 160 170
-1.0399 0.0151199 6.67046 153 155 152
-1.34103 -1.36469 7.29533 135 150 153
-1.06915 -0.634925 6.75677 128 126 127
-1.03982 -0.626995 6.73367 132 134 129
-1.01374 0.10345 6.67492 147 152 156
-1.00058 -0.279619 6.72596 143 144 148
-1.00058 -0.279619 6.72596 143 144 148
-1.09557 -0.911852 6.97263 84 91 101
-0.985542 -0.43381 6.75549 122 116 116
-0.959875 0.10003 6.69773 157 159 156
-0.981991 -0.50992 6.76022 86 99 116
-0.954084 -0.283274 6.72595 98 104 116
-0.942457 -0.0905591 6.70019 117 122 125
-1.72784 -0.547743 8.26523 132 135 140
-0.950385 -0.459217 6.72636 132 135 140
-0.943814 -0.189532 6.71042 70 92 116
-1.0794 -0.951673 6.99629 67 90 124
-0.954372 -0.481596 6.73989 134 135 140
-0.909834 -0.473141 6.72492 147 148 152
-1.02478 -0.925808 6.97583 82 109 139
-1.03546 -0.97533 7.01582 65 81 107
-1.00635 -0.919005 6.99975 89 105 130
-0.876238 -0.78917 6.80128 113 117 103
-0.885806 -0.81717 6.82363 131 130 125
-0.858691 -0.621088 6.80664 104 127 161
-0.811249 -0.813649 6.831 131 130 138
-0.802134 -0.865347 6.83326 62 82 117
-0.808031 -0.813307 6.84874 133 132 137
-0.792726 -0.267717 6.81112 95 116 143
-1.00766 -1.35608 7.3934 135 143 145
-0.731067 -0.762759 6.86416 83 80 89
-0.729735 -0.752009 6.88414 80 78 91
-0.729735 -0.752009 6.88414 80 78 91
-0.95879 -1.34892 7.40976 85 94 103
-0.932204 -1.34809 7.41508 113 106 98
-0.658082 -0.462645 6.81552 136 139 148
-0.546729 -0.58759 6.68325 61 76 107
-0.831972 -1.42726 7.34784 157 159 154
-0.579618 -0.647021 6.77586 88 98 108
-0.50804 -0.101541 6.66028 103 112 121
-0.503433 -0.5822 6.70046 110 106 107
-0.54022 -0.665848 6.79182 117 112 109
-0.537588 -0.686195 6.79675 108 107 103
-0.747576 -1.24813 7.35769 108 105 114
-0.738226 -1.21228 7.34154 105 111 109
-0.494321 -0.645055 6.77083 107 115 128
-0.494321 -0.645055 6.77083 107 115 128
-0.627184 -0.933236 7.08937 117 118 122
-0.731759 -1.44276 7.36523 129 115 132
-0.72956 -1.39216 7.36049 155 156 151
-0.728711 -1.33169 7.36636 137 133 134
-0.736358 -1.44458 7.40099 167 155 167
-0.702614 -1.33057 7.3277 105 97 110
-0.715853 -1.52269 7.36621 106 90 93
-0.709593 -1.53155 7.35289 127 111 114
-0.705423 -1.25407 7.34212 85 81 78
-0.708422 -1.45541 7.36928 148 141 135
-0.704274 -1.24588 7.36591 106 90 90
-0.432369 -0.567644 6.7286 122 125 130
-0.441032 -0.564902 6.77214 104 110 122
-0.429737 -0.56411 6.75099 104 110 122
-0.413803 -0.615785 6.7413 124 130 130
-0.444736 -0.712028 6.88701 80 69 83
-0.389576 -0.643279 6.81986 117 121 122
-0.354793 -0.460077 6.78257 113 119 131
-0.430536 -0.868521 6.98278 116 128 128
-0.544296 -1.23423 7.28694 110 107 114
-0.352819 -0.633235 6.83412 110 114 123
-0.545982 -1.34623 7.41416 111 118 126
-0.332981 -0.648967 6.87298 109 113 124
-0.501082 -1.33203 7.41012 132 131 139
-0.531033 -1.50836 7.4939 112 109 104
-0.506051 -1.37917 7.45089 138 142 143
-0.483887 -1.35034 7.41481 126 137 139
-0.281073 -0.757272 6.89259 79 77 82
-0.503858 -1.49585 7.50212 72 60 64
-0.266741 -0.932009 6.91134 74 94 121
-0.477549 -1.36315 7.46718 132 140 151
-0.262628 -0.82477 6.92332 110 117 123
-0.456824 -1.35444 7.44236 128 141 149
-0.525349 -1.54837 7.63943 145 144 124
-0.223207 -0.899293 6.89583 8 36 47
-0.497605 -1.67857 7.63997 159 156 147
-0.488928 -1.78174 7.65998 33 40 58
-0.462479 -1.70061 7.63771 149 141 138
-0.20089 -1.01885 6.94042 104 107 112
-0.448453 -1.54263 7.61521 146 149 138
-0.18483 -0.977044 6.92741 82 105 123
-0.173338 -0.928502 6.91539 76 79 110
-0.180219 -1.00214 6.94773 101 111 120
-0.187786 -0.965563 6.96743 49 59 69
-0.332371 -1.21005 7.3632 88 94 94
-0.355491 -1.3688 7.51381 111 119 130
-0.133283 -0.948383 6.95438 46 46 58
-0.347547 -1.39907 7.55602 150 153 160
-0.273629 -1.37182 7.53219 121 130 147
-0.237866 -1.33665 7.50914 98 104 116
-0.247171 -1.34506 7.55709 106 114 127
-0.212033 -1.34487 7.53654 118 115 126
-0.189346 -1.33851 7.54739 103 112 119
-0.217819 -1.44572 7.69553 142 147 151
-0.0585589 -1.16408 7.58467 82 98 123
-0.0526949 -1.23096 7.59521 54 62 81
-0.0457588 -1.30178 7.62615 49 63 64
-0.0472039 -1.4243 7.63399 93 97 100
-0.0403249 -1.31124 7.61468 56 65 72
-0.0542446 -1.55876 7.69796 115 121 121
-0.0281807 -1.30781 7.64115 80 92 106
0.072539 -0.910618 7.42277 73 90 116
-0.00399889 -1.36431 7.80067 82 103 120
0.105094 -1.33048 7.83946 36 43 61
0.113003 -1.33512 7.83728 38 53 60
0.166453 -1.34383 7.89289 237 228 223
0.17082 -1.32885 7.87869 241 232 227
0.24161 -1.33906 7.89134 215 214 219
0.242713 -1.31954 7.88738 236 233 228
0.297532 -1.32323 7.91768 246 240 240
0.323268 -1.31906 7.92555 244 240 237
0.35036 -1.31954 7.91443 244 239 235
-2.90918 0.649349 5.58692 189 229 255
-2.92094 0.691206 5.61119 187 229 254
-2.8789 0.611765 5.58058 189 229 255
-2.92702 0.70497 5.62124 187 228 255
-2.91904 0.71149 5.6338 187 229 254
-2.8556 0.652828 5.58367 187 229 254
-2.92299 0.702251 5.64282 188 228 254
-2.78705 0.615262 5.62786 191 231 255
-2.76867 0.615029 5.63604 193 229 255
-2.77464 0.600616 5.66437 188 230 254
-2.77899 0.591086 5.67029 194 231 255
-2.75933 0.628946 5.65484 189 231 255
-2.76657 0.617712 5.66316 194 228 255
-2.76657 0.617712 5.66316 194 228 255
-2.78366 0.580109 5.69078 196 230 255
-2.20695 0.372311 5.36848 201 236 255
-2.20329 0.451646 5.36624 195 236 255
-2.19047 0.486126 5.35941 197 233 255
-2.25718 -0.683604 5.48263 225 253 255
-2.25718 -0.683604 5.48263 225 253 255
-2.23149 -0.183269 5.45116 214 249 255
-2.1629 0.372136 5.38275 200 235 255
-2.26502 -0.676236 5.49683 225 253 255
-2.22436 -0.190729 5.46293 216 249 255
-2.22422 -0.228697 5.46918 219 248 255
-2.24317 -0.704179 5.49806 225 253 255
-2.14101 0.333376 5.39159 204 237 255
-2.25021 -0.672992 5.51297 225 253 255
-2.23287 -0.569641 5.50097 223 253 255
-2.23287 -0.569641 5.50097 223 253 255
-2.14574 -0.0567973 5.45689 212 246 255
-2.22791 -0.00646174 5.53916 212 246 255
-2.15727 -0.00557965 5.47507 212 246 255
-2.18918 -0.729597 5.52203 226 254 255
-2.14507 -0.208401 5.47169 216 249 254
-2.12071 -0.278363 5.46057 221 250 255
-2.18648 -0.724723 5.53667 228 254 255
-2.13848 -0.22129 5.49254 216 249 254
-2.12563 -0.196938 5.49015 216 249 254
-2.07589 0.261894 5.44313 208 240 255
-2.12917 -0.314818 5.50577 222 250 254
-2.10417 -0.390625 5.49219 222 251 255
-2.13441 -0.393177 5.51893 222 251 255
-2.12164 -0.592543 5.52392 225 253 255
-2.06019 0.208078 5.45229 208 241 255
-2.07325 0.0760401 5.48201 212 244 255
-2.08466 -0.116872 5.49702 216 249 255
-2.02458 0.159667 5.4485 209 243 255
-2.17999 -0.818482 5.61962 230 254 254
-1.99949 0.412859 5.44475 205 236 255
-2.05431 -0.42598 5.51713 223 251 254
-2.05458 -0.11632 5.51504 216 249 255
-2.00389 0.107999 5.49075 212 244 255
-2.02439 -0.111646 5.51518 219 248 255
-2.03923 -0.277098 5.53679 222 251 255
-1.97156 -0.0655127 5.46771 216 249 255
-1.97941 -0.00682766 5.4818 214 247 254
-1.99337 0.0582874 5.49861 210 247 255
-1.93023 0.44329 5.43227 201 236 255
-1.98177 -0.099216 5.49915 218 248 255
-2.21195 -0.748528 5.73725 230 254 254
-2.07657 -0.730565 5.61391 230 254 254
-2.00964 -0.237771 5.53963 221 250 254
-1.98435 -0.297403 5.52437 221 250 254
-2.012 -0.351334 5.56024 223 251 255
-2.00667 -0.301703 5.5584 221 250 254
-2.01292 -0.499831 5.58228 226 254 255
-1.98827 -0.690534 5.57822 230 254 254
-1.94784 -0.490316 5.5622 225 253 255
-1.89374 0.400385 5.49794 204 240 255
-1.91148 0.183937 5.54131 212 244 255
-1.85342 0.24181 5.52875 211 243 255
-2.11054 -1.07747 5.82486 241 255 255
-1.79515 0.579769 5.49664 200 237 255
-1.79515 0.579769 5.49664 200 237 255
-1.87986 -0.667412 5.61967 232 253 254
-1.75204 0.437221 5.49675 208 240 255
-1.95545 -0.78379 5.73266 234 255 255
-1.74872 0.420864 5.51833 208 240 255
-1.75641 0.587373 5.52812 202 237 255
-1.77727 0.0594641 5.5684 219 248 254
-1.72983 0.345703 5.53915 210 242 253
-1.74839 -0.0390923 5.58082 222 249 255
-1.71302 0.308617 5.54382 211 243 254
-2.06374 -1.22414 5.94565 245 255 255
-1.71486 0.297074 5.57352 212 244 255
-1.82287 -0.922076 5.71596 239 255 255
-1.72188 0.116353 5.59466 219 246 253
-1.71587 0.16961 5.58955 215 248 255
-1.6741 0.303214 5.56305 211 243 254
-1.73716 -0.310424 5.64508 228 253 255
-1.69274 0.00248009 5.59872 222 249 255
-1.73788 -0.383068 5.65506 229 255 255
-1.67609 0.0843474 5.59066 218 249 254
-1.74307 -0.459065 5.67067 230 254 254
-1.674 0.248357 5.59446 213 246 255
-1.73056 -0.36842 5.66972 229 255 255
-1.72938 -0.393419 5.67388 228 254 255
-1.73226 -0.441184 5.67941 230 254 254
-1.72476 -0.496632 5.67642 230 254 254
-1.65562 0.247351 5.58863 213 246 255
-1.73024 -0.521744 5.69163 233 254 255
-1.72877 -0.621727 5.69778 235 255 255
-1.71006 -0.498487 5.69253 232 253 254
-1.66105 -0.0461515 5.63938 222 250 254
-1.61522 0.0477271 5.60609 221 248 255
-1.61735 0.295519 5.60621 212 246 255
-1.65636 -0.0920148 5.66385 226 251 255
-2.01226 -1.39304 6.09019 249 255 255
-1.62651 -0.0448471 5.65254 223 251 255
-1.65338 -0.417375 5.70025 232 253 254
-2.0092 -1.43238 6.1101 249 255 255
-2.0092 -1.43238 6.1101 249 255 255
-1.57337 0.413844 5.60181 212 244 255
-1.63004 -0.237222 5.67829 229 253 255
-1.57078 0.233399 5.60753 217 247 255
-1.9499 -1.2958 6.04983 246 255 254
-1.93989 -1.29901 6.04356 246 255 254
-1.62662 -0.253745 5.68394 228 254 255
-1.96304 -1.36047 6.07379 249 255 255
-1.62576 -0.350327 5.6953 232 253 254
-1.62237 -0.255395 5.6933 229 255 255
-1.93793 -1.30672 6.05894 247 255 255
-2.0011 -1.52318 6.13609 251 255 255
-1.55379 0.199131 5.62223 218 248 255
-1.57466 0.0750942 5.64647 224 249 254
-1.58725 -0.0964184 5.66781 224 252 255
-1.60539 -0.267948 5.69108 230 254 255
-1.99373 -1.53655 6.14453 251 255 255
-1.99318 -1.56193 6.14899 251 255 255
-1.99039 -1.58577 6.1505 251 255 255
-1.95452 -1.39048 6.11082 249 255 255
-1.98656 -1.42901 6.15297 249 255 255
-1.56393 0.0818631 5.66585 33 51 75
-1.57373 -0.214426 5.69197 229 253 255
-1.56036 -0.0582827 5.67994 226 251 255
-1.85113 -1.22105 6.02758 246 254 255
-1.59888 -0.603035 5.75099 239 255 255
-1.57655 -0.443955 5.72504 236 254 255
-1.57655 -0.443955 5.72504 236 254 255
-1.51194 0.0639843 5.65357 223 251 255
-1.55736 -0.52884 5.74008 236 254 254
-1.50095 -0.146423 5.67352 225 253 254
-1.70514 -0.987774 5.92795 245 255 255
-1.70514 -0.987774 5.92795 245 255 255
-1.46023 0.523648 5.63316 212 244 255
-1.48053 -0.174008 5.66962 229 253 255
-1.51962 -0.151223 5.72011 231 252 255
-1.53238 -0.486625 5.74608 236 254 254
-1.66321 -0.951368 5.90484 245 255 255
-1.52279 0.185439 5.76277 42 48 108
-1.519 -0.146993 5.78006 229 255 255
-1.52588 -0.198534 5.79097 230 254 255
-1.53466 0.478013 5.78705 213 246 255
-2.24935 -1.44866 6.67221 250 254 255
-1.51202 -0.141972 5.80352 230 254 255
-1.51131 -0.124939 5.81045 229 253 255
-1.47133 -0.658984 5.77681 243 255 255
-1.54275 -0.327618 5.85922 234 254 255
-1.46055 -0.705695 5.77381 243 255 255
-2.22396 -1.4426 6.67136 251 255 255
-1.71298 -0.9088 6.07456 246 254 255
-1.54721 0.549141 5.8565 213 246 255
-1.54721 0.549141 5.8565 213 246 255
-1.53756 -0.517635 5.87711 239 255 255
-1.43952 -0.692771 5.77211 243 255 255
-1.67945 -0.873571 6.06689 246 254 255
-1.57613 -0.155993 5.94242 113 120 138
-1.61883 -0.77702 6.03782 98 96 171
-1.59032 0.563717 5.98783 216 244 255
-1.59032 0.563717 5.98783 216 244 255
-1.63864 -0.783323 6.07622 196 206 255
-1.61248 -0.196097 6.03989 232 253 254
-2.19116 -1.44908 6.73951 254 254 255
-1.62573 0.11182 6.04873 75 90 109
-1.61966 -0.167891 6.06394 86 107 136
-2.15787 -1.3874 6.72295 253 254 255
-2.14126 -1.40204 6.71287 253 254 255
-1.63016 0.50774 6.07346 216 246 254
-0.871649 0.420017 5.18932 216 246 254
-1.62999 -0.750227 6.10073 245 255 255
-1.64042 0.132567 6.09482 52 64 90
-1.63284 0.0538249 6.08947 192 224 247
-1.63048 -0.435521 6.1217 239 255 255
-1.63883 -0.144414 6.1266 127 132 151
-2.14013 -1.17819 6.75418 250 255 255
-2.13633 -1.35655 6.75699 253 254 255
-1.62207 -0.813668 6.14024 244 253 252
-2.13055 -1.23081 6.74867 102 135 152
-2.11758 -1.24793 6.73867 89 116 133
-2.1355 -1.34886 6.77765 253 254 255
-2.1857 -1.26553 6.85684 115 112 139
-1.67516 -0.116413 6.23615 127 137 149
-2.10074 -1.47239 6.77875 156 157 188
-1.60773 -0.910338 6.18159 251 255 255
-2.10205 -1.4662 6.78842 194 184 244
-1.72588 0.518447 6.30185 216 246 254
-1.70501 0.721267 6.28284 214 244 255
-1.72774 0.208944 6.32236 81 85 97
-1.66206 -0.855008 6.28077 250 254 255
-1.70113 0.0426975 6.31404 92 100 119
-1.71213 -0.154588 6.33177 97 95 119
-1.713 -0.0837493 6.3371 176 179 212
-1.70516 0.515097 6.32668 208 246 255
-1.70389 0.356959 6.34279 201 237 251
-2.37512 -1.40909 7.19304 253 254 255
-2.31509 -1.22875 7.11849 143 142 160
-1.71099 0.472927 6.35244 50 76 91
-1.73273 -0.279714 6.39746 233 255 255
-1.73538 -0.262566 6.40188 233 255 255
-1.73813 -0.073121 6.40029 173 216 223
-2.36142 -1.3082 7.1822 70 81 101
-2.37583 -1.34748 7.20162 241 255 255
-1.73215 -0.0185269 6.39577 100 137 163
-2.37289 -1.41117 7.20387 253 254 255
-2.36892 -1.33598 7.19976 101 125 137
-1.70875 0.129273 6.37171 78 93 124
-1.72927 -0.0895886 6.40191 73 81 100
-1.68075 0.505367 6.34074 63 69 91
-1.71902 -0.00236978 6.39989 128 150 187
-1.71311 0.0945959 6.39425 91 110 140
-2.35951 -1.4451 7.21793 253 255 254
-1.73615 -0.551715 6.44426 95 106 134
-2.35237 -1.33332 7.20885 121 139 151
-1.71185 0.0317569 6.40315 58 77 107
-2.35653 -1.24535 7.22053 108 110 135
-2.34309 -1.19671 7.20296 127 127 137
-1.69912 0.178557 6.39079 76 92 125
-2.35511 -1.39422 7.22832 253 255 254
-1.73028 -0.540141 6.44987 72 89 119
-1.72859 -0.539652 6.44786 72 89 119
-1.7117 -0.138793 6.42273 125 138 154
-1.71773 -0.324184 6.43739 97 104 132
-1.69316 0.129195 6.39791 80 95 124
-1.69704 0.129145 6.40232 80 95 124
-1.71101 -0.214938 6.43067 103 106 121
-1.67466 0.244724 6.37936 79 93 122
-1.70902 -0.286638 6.43783 143 148 170
-1.69496 -0.104833 6.42538 43 58 79
-1.68693 0.0263376 6.41467 61 76 107
-1.70018 -0.227535 6.44012 105 116 148
-1.7039 -0.49809 6.45923 69 87 127
-1.69366 -0.483614 6.46168 76 92 128
-1.66015 -0.565216 6.45851 65 91 126
-1.66015 -0.565216 6.45851 65 91 126
-1.65705 -0.174217 6.45028 122 134 150
-1.94599 -1.16545 6.88913 91 93 118
-1.94511 -1.48929 6.90327 104 99 131
-1.95176 -1.41011 6.92188 138 148 158
-1.63123 -0.137811 6.49255 119 131 147
-1.95676 -1.45524 6.93679 253 254 255
-1.94894 -1.417 6.92658 185 197 193
-1.94833 -1.46215 6.93143 134 145 201
-1.90705 -1.11458 6.89557 247 250 255
-1.9209 -1.33194 6.92659 253 255 254
-1.9209 -1.33194 6.92659 253 255 254
-1.59102 -0.405376 6.49591 77 96 126
-1.90072 -1.42015 6.95653 155 167 183
-1.90977 -1.16202 6.96717 91 95 120
-1.99536 -1.20224 7.22436 111 119 140
-1.51217 -0.833472 6.58928 51 70 102
-1.51217 -0.833472 6.58928 51 70 102
-2.01383 -1.26568 7.27081 64 72 95
-1.49574 -0.810445 6.59058 53 67 102
-2.0164 -1.35882 7.29619 253 255 254
-2.0119 -1.40256 7.29269 255 255 255
-1.46589 -0.176339 6.55501 47 62 95
-2.01404 -1.4197 7.31117 191 177 238
-1.42036 0.0953895 6.50274 85 86 91
-1.43637 -0.474371 6.53768 49 66 96
-1.45335 -0.393057 6.5604 57 75 111
-1.41701 0.136368 6.51457 60 76 109
-1.40521 0.0389296 6.53591 67 72 94
-1.26463 0.602697 6.34132 37 54 80
-1.37318 0.120133 6.53655 126 118 116
-1.38029 -0.206444 6.57768 54 65 93
-1.3679 -0.441783 6.58975 51 65 100
-1.32572 0.0982658 6.52951 95 95 95
-1.35796 -0.346738 6.59375 51 68 94
-1.32401 -0.1964 6.57093 37 48 70
-1.32266 -0.173533 6.57244 45 57 83
-1.32266 -0.173533 6.57244 45 57 83
-1.33828 -0.247071 6.59953 68 88 115
-1.32854 -0.615644 6.59988 46 62 98
-1.29902 -0.0404881 6.56538 47 54 80
-1.29902 -0.0404881 6.56538 47 54 80
-1.46771 -0.981625 6.86337 48 64 98
-1.45638 -0.982907 6.87679 53 64 94
-1.2901 -0.628406 6.65807 54 70 103
-1.43603 -0.967488 6.89898 57 73 107
-1.64563 -1.4036 7.20373 65 78 112
-1.65245 -1.43195 7.21402 56 71 104
-1.65157 -1.45725 7.23487 48 65 91
-1.64063 -1.58419 7.2612 92 104 120
-1.63188 -1.57174 7.26098 106 117 137
-1.61528 -1.47305 7.25186 79 92 101
-1.63066 -1.59767 7.27678 59 73 100
-1.20435 -0.0863215 6.65085 50 67 95
-1.60243 -1.43565 7.2638 47 58 86
-1.22071 -0.82079 6.70901 123 120 105
-1.18019 0.181313 6.63237 112 111 116
-1.15929 -0.604321 6.64259 59 72 104
-1.19669 -0.867647 6.71826 93 91 102
-1.19584 -0.27698 6.70591 51 67 93
-1.51529 -1.36632 7.22642 39 54 83
-1.51858 -1.39319 7.24507 47 55 74
-0.920092 0.603736 6.38271 59 87 134
-1.02646 0.597172 6.54458 64 92 132
-1.05484 0.108851 6.61717 67 89 138
-1.05484 0.108851 6.61717 67 89 138
-1.11195 -0.619613 6.7349 55 74 104
-1.07027 -0.127479 6.69495 32 55 96
-1.01744 0.352715 6.61516 41 55 81
-1.04953 0.121094 6.68132 60 91 138
-1.08762 -0.8115 6.76263 78 107 141
-1.08827 -0.652185 6.7609 90 104 133
-1.04715 0.0976498 6.68301 94 122 169
-1.01817 0.0747284 6.64727 59 91 138
-1.01817 0.0747284 6.64727 59 91 138
-1.03721 -0.112261 6.68149 68 85 115
-0.998205 0.538509 6.60937 44 60 86
-1.03436 -0.240638 6.68631 98 121 163
-1.42688 -1.39578 7.29848 56 68 106
-1.04609 -0.127447 6.70972 35 61 98
-1.04609 -0.127447 6.70972 35 61 98
-1.03904 -0.41273 6.71987 68 97 139
-0.96281 0.53845 6.62241 67 83 117
-1.01162 -0.380327 6.71836 66 99 140
-1.02058 -0.434757 6.73402 68 99 143
-1.01175 0.0281786 6.70783 75 89 100
-0.990479 -0.555517 6.72155 97 108 136
-0.972198 0.0598018 6.68355 132 125 107
-1.00663 -0.499863 6.75246 92 102 127
-1.00252 -0.476263 6.74741 87 107 132
-0.966655 0.482419 6.672 121 121 109
-0.966655 0.482419 6.672 121 121 109
-0.941701 0.172513 6.66862 121 113 110
-0.956929 -0.226632 6.72267 101 92 85
-0.94355 0.111629 6.70835 122 112 100
-0.96694 -0.390407 6.76995 109 108 106
-0.928206 -0.0797343 6.71546 117 111 97
-0.946738 -0.310898 6.7726 97 89 86
-0.916072 -0.607464 6.75606 117 105 89
-1.08998 -0.938067 7.04397 119 106 98
-1.07796 -0.960736 7.0388 108 98 96
-1.23577 -1.32974 7.32189 120 110 108
-0.916211 -0.644484 6.81288 120 121 113
-1.05442 -0.921423 7.03435 127 126 132
-0.835616 0.664183 6.65862 105 97 86
-0.898561 -0.0725854 6.78273 125 126 121
-1.2526 -1.3823 7.3695 65 70 63
-1.25258 -1.3928 7.37162 114 103 117
-1.18319 -1.32051 7.33636 130 131 123
-0.849156 -0.115814 6.79839 97 93 92
-0.860083 -0.807866 6.83572 111 112 114
-0.857269 -0.340418 6.8556 92 85 79
-0.823935 -0.812461 6.87341 110 110 110
-1.12464 -1.56196 7.40185 114 106 95
-0.733316 -0.36557 6.82052 66 77 73
-1.0688 -1.37873 7.42706 78 80 75
-0.637775 -0.668945 6.83599 117 115 116
-0.995208 -1.36479 7.45958 88 73 76
-0.948252 -1.31736 7.39856 107 106 104
-0.543596 0.0287185 6.6908 66 81 112
-0.559259 -0.512083 6.74703 129 126 119
-0.97209 -1.3736 7.4802 65 66 68
-0.529926 -0.567747 6.75668 96 84 98
-0.942131 -1.36495 7.47764 75 73 84
-0.942131 -1.36495 7.47764 75 73 84
-0.562872 -0.687224 6.8207 131 133 130
-0.926454 -1.35167 7.48029 108 108 110
-0.499177 -0.577388 6.74088 79 79 81
-0.914589 -1.36206 7.47686 67 62 69
-0.457477 0.0833253 6.6866 74 98 136
-0.327378 0.556464 6.48003 56 73 101
-0.319908 0.558972 6.48095 70 86 111
-0.458623 -0.569189 6.7572 89 79 87
-0.399136 -0.0374159 6.65005 116 117 111
-0.420957 -0.0365776 6.68416 116 117 111
-0.490256 -0.66183 6.84658 120 115 119
-0.777223 -1.17539 7.37361 85 103 117
-0.780407 -1.43976 7.39861 67 76 81
-0.782472 -1.47487 7.41064 112 116 115
-0.426509 -0.569434 6.76775 75 65 76
-0.77205 -1.46379 7.40065 84 88 99
-0.580642 -0.600974 7.05151 68 67 72
-0.434582 -0.578578 6.79375 67 66 71
-0.755874 -1.3332 7.39726 106 98 111
-0.755165 -1.38034 7.40202 54 49 72
-0.748204 -1.19516 7.38839 33 39 65
-0.380527 -0.232637 6.71913 133 133 143
-0.743359 -1.40122 7.40445 103 111 114
-0.745041 -1.40209 7.40737 103 111 114
-0.744649 -1.44678 7.41116 43 55 69
-0.570934 -0.975398 7.10014 76 69 77
-0.736005 -1.39947 7.41159 88 89 107
-0.727992 -1.43875 7.41547 50 57 73
-0.710928 -1.20267 7.38688 35 42 60
-0.275516 0.525259 6.58049 105 105 97
-0.275516 0.525259 6.58049 105 105 97
-0.72795 -1.48847 7.44291 83 83 95
-0.37168 -0.488208 6.85166 60 73 92
-0.56104 -1.11516 7.21338 33 41 54
-0.818205 -1.43194 7.68891 115 106 123
-0.739752 -1.36367 7.56303 98 95 106
-0.712532 -1.31991 7.52864 106 106 108
-0.344303 -0.668688 6.86872 115 118 127
-0.348232 -0.636534 6.88899 119 126 132
-0.336564 -0.704047 6.88543 49 62 78
-0.53828 -1.18512 7.2923 93 92 98
-0.299963 -0.379937 6.83811 99 101 116
-0.317308 -0.381273 6.86693 99 101 116
-0.316423 -0.694268 6.88229 90 99 106
-0.561865 -1.25473 7.34891 79 88 93
-0.310745 -0.650334 6.87704 87 96 111
-0.313815 -0.730264 6.88779 104 112 123
-0.309715 -0.706507 6.88846 115 121 133
-0.634764 -1.37033 7.51517 76 77 71
-0.274868 0.45099 6.83266 109 102 84
-0.265293 0.514169 6.82429 85 77 66
-0.57435 -1.3672 7.45838 54 64 55
-0.265988 0.504141 6.83097 85 71 60
-0.280619 -0.892092 6.90278 110 107 102
-0.228586 0.503623 6.78279 85 79 63
-0.228586 0.503623 6.78279 85 79 63
-0.254768 0.491494 6.83247 90 83 64
-0.254768 0.491494 6.83247 90 83 64
-0.244896 0.210787 6.82591 123 116 108
-0.25726 -0.0525254 6.85753 120 119 115
-0.244276 0.209674 6.82915 119 114 108
-0.247156 0.483374 6.83699 94 85 68
-0.247156 0.483374 6.83699 94 85 68
-0.215591 0.497765 6.79574 89 83 69
-0.211044 0.432833 6.79442 122 123 118
-0.548712 -1.38699 7.48772 74 83 90
-0.226627 0.444193 6.83897 117 120 125
-0.532386 -1.3611 7.46795 62 66 69
-0.227801 -0.580235 6.87897 76 75 80
-0.249197 -0.910985 6.93707 76 74 79
-0.517543 -1.36123 7.47587 48 54 52
-0.190688 0.231814 6.82657 110 113 106
-0.0752208 0.605225 6.60343 111 103 92
-0.510302 -1.37402 7.48236 95 96 101
-0.487598 -1.33471 7.45437 75 80 74
-0.181346 0.495063 6.82482 80 71 72
-0.159949 0.1353 6.80964 118 124 124
-0.485312 -1.35115 7.46974 81 85 84
-0.481518 -1.34403 7.47379 83 85 82
-0.519775 -1.51123 7.5537 67 66 74
-0.461637 -1.31764 7.44399 80 74 76
-0.514679 -1.48935 7.55028 93 97 100
-0.180693 -0.47069 6.88597 103 103 103
-0.047985 0.60501 6.60693 90 91 95
-0.206985 -1.02617 6.97032 102 92 90
-0.206985 -1.02617 6.97032 102 92 90
-0.188571 -0.93138 6.94335 81 77 76
-0.188571 -0.93138 6.94335 81 77 76
-0.53146 -1.3833 7.6164 57 58 60
-0.468885 -1.36171 7.49644 57 58 60
-0.197114 -1.04749 6.97187 105 101 100
-0.197114 -1.04749 6.97187 105 101 100
-0.53836 -1.54402 7.66083 97 99 98
-0.388784 -1.20228 7.36647 99 97 100
-0.23229 -0.88949 7.05862 110 106 107
-0.163585 0.248663 6.89468 83 82 78
-0.541279 -1.72204 7.69537 140 144 147
-0.179688 -0.936298 6.97449 74 67 75
-0.536988 -1.7313 7.70131 140 144 143
-0.528925 -1.71282 7.68703 138 143 147
-0.525239 -1.70773 7.69174 141 146 150
-0.513111 -1.7 7.68766 131 131 139
-0.51348 -1.73122 7.6936 127 125 128
-0.501945 -1.71723 7.67965 110 103 110
-0.151366 -0.177334 6.95418 113 116 123
-0.145282 -0.349686 6.95858 100 100 102
-0.147705 -0.917919 6.99154 79 71 84
-0.41615 -1.38148 7.53051 142 141 146
-0.12195 -0.768783 6.97973 108 106 117
-0.456808 -1.71533 7.68453 139 143 144
-0.105339 -0.653591 6.96439 98 102 111
-0.39298 -1.41263 7.55332 97 102 108
-0.392721 -1.40233 7.55963 47 56 63
-0.494633 -1.5278 7.77088 96 101 97
-0.494633 -1.5278 7.77088 96 101 97
-0.0694833 0.149093 6.88433 68 80 104
-0.0621083 -0.354361 6.91655 97 102 106
-0.0534486 -0.608949 6.922 80 72 83
-0.413961 -1.53313 7.66692 105 100 104
-0.04643 -0.591221 6.9147 80 74 84
-0.0493404 -0.6013 6.92181 76 69 77
-0.35287 -1.38076 7.55842 121 122 124
-0.0924536 -0.682306 7.02156 109 113 114
-0.42687 -1.7151 7.72949 140 142 141
-0.0375851 -0.37259 6.93918 83 104 125
-0.412425 -1.69955 7.73628 138 136 141
-0.0415184 -0.578125 6.95438 76 71 78
-0.0415184 -0.578125 6.95438 76 71 78
-0.311166 -1.3649 7.56299 65 63 68
-0.0294729 -0.622967 6.97683 69 61 74
-0.0459621 -0.687291 7.01994 111 109 110
-0.0368565 -0.709763 7.00747 29 42 58
-0.00053294 -0.561194 6.93231 105 106 111
-0.0219736 -0.646002 6.9908 98 93 97
-0.0282772 -0.667167 7.02626 107 110 117
-0.282562 -1.35602 7.56821 59 60 62
-0.2289 -1.30297 7.53345 101 104 109
0.0702671 0.0746108 6.92418 85 88 105
0.0415397 -0.616768 7.00971 65 68 75
0.0358789 -0.655517 7.0348 105 105 107
0.066094 0.118877 6.9464 90 90 98
0.036182 -0.667642 7.05324 103 107 108
0.0223428 -0.66932 7.079 103 107 108
0.0578005 -0.629188 7.02612 68 66 67
0.114271 -0.558916 6.96955 72 71 79
0.165349 -0.0339702 6.88092 97 99 98
0.126032 -0.167151 6.97722 104 107 112
0.0568314 -0.833486 7.21141 234 247 240
0.133914 -0.700381 7.1251 84 93 98
-0.0978747 -1.36185 7.6644 64 53 67
0.160249 -0.379276 7.07901 54 73 87
-0.0802722 -1.35997 7.66608 59 58 72
0.183159 -0.621746 7.07013 64 63 71
0.186638 -0.441039 7.07039 59 73 102
0.189663 -0.478646 7.07013 42 60 72
-0.0879453 -1.57242 7.73363 77 77 77
0.222129 -0.0441442 7.00235 104 108 109
-0.0539984 -1.51829 7.68733 67 78 74
0.0438645 -0.906173 7.46176 80 90 92
0.266059 0.00788688 6.96196 42 49 67
-0.0278403 -1.1581 7.65885 37 39 51
0.189977 -0.251071 7.17985 99 111 125
0.223727 0.206674 7.09 87 88 108
0.196027 -0.325279 7.17172 76 78 90
0.268745 -0.596266 7.04858 68 67 73
0.0965629 -0.958472 7.46171 49 48 56
0.206656 -0.0764191 7.20982 83 83 91
0.220152 -0.213837 7.19002 95 100 103
0.200794 -0.493395 7.25537 48 65 81
0.235559 -0.445959 7.19675 55 72 102
0.121342 -0.910301 7.50015 83 92 99
-0.0308192 -1.38938 7.86427 55 63 74
-0.0105856 -1.30809 7.81953 81 89 108
0.132564 -0.902029 7.4861 74 84 93
0.132564 -0.902029 7.4861 74 84 93
0.252736 -0.287985 7.21243 34 47 55
0.231006 -0.605585 7.2896 70 78 89
0.237322 -0.788814 7.28692 51 69 93
0.244488 -0.619517 7.2714 73 83 95
0.0471641 -1.33894 7.86332 85 97 111
0.317765 -0.786449 7.30013 55 63 84
0.149238 0.453158 7.69686 64 80 103
0.351597 -0.423396 7.24784 61 69 82
0.367684 -0.528436 7.29498 76 93 113
0.143454 -1.33309 7.88538 68 80 102
0.359985 -0.787737 7.34412 66 68 93
0.401086 -0.53922 7.25979 70 89 106
0.35759 -0.66442 7.37191 45 56 78
0.371928 -0.730116 7.35141 68 83 106
0.153905 -1.34223 7.91394 66 80 107
0.153548 -1.3681 7.92284 62 75 91
0.169306 -1.32289 7.89461 69 84 103
0.385252 -0.740714 7.35378 20 32 56
0.420242 -0.524467 7.26994 68 87 104
0.373252 0.364257 7.35541 72 87 110
0.177824 -1.3226 7.90502 67 79 103
0.382885 0.468923 7.34792 78 83 113
0.41364 -0.534893 7.31252 71 82 102
0.187922 -1.38039 7.93747 61 76 97
0.194006 -1.34868 7.9296 70 78 101
0.436133 -0.349138 7.30259 55 68 85
0.434328 -0.714285 7.36458 66 73 99
0.437796 -0.615757 7.35265 55 64 73
0.454809 -0.588837 7.32775 55 66 84
0.455224 -0.540875 7.32997 68 69 97
0.463087 -0.573434 7.32425 60 71 91
0.47973 0.140543 7.28466 43 57 70
0.481368 0.139783 7.31232 59 66 85
0.5219 0.177111 7.25817 83 83 107
0.5219 0.177111 7.25817 83 83 107
0.526764 0.00916099 7.25568 65 71 97
0.526764 0.00916099 7.25568 65 71 97
0.49133 -0.237468 7.3525 48 62 75
0.49133 -0.237468 7.3525 48 62 75
0.522037 0.0900461 7.28387 41 52 74
0.514178 -0.3789 7.32109 57 62 84
0.515108 -0.264421 7.31479 69 75 99
0.518977 -0.523785 7.32203 31 44 60
0.401473 -0.907167 7.63714 41 55 66
0.517284 -0.582594 7.3491 45 51 63
0.523818 -0.446234 7.35033 54 69 88
0.43069 -0.881449 7.62612 59 74 93
0.529783 -0.4386 7.36611 67 82 105
0.433261 -0.951114 7.63989 67 76 91
0.323673 -1.29723 7.93744 78 96 120
0.537403 -0.442738 7.36016 76 80 115
0.446343 -0.880952 7.61275 88 94 120
0.541704 -0.437602 7.35791 70 79 112
0.569742 0.212639 7.2721 43 59 82
0.564541 0.0906949 7.29018 61 69 88
0.335263 -1.29784 7.93694 88 99 119
0.450988 -0.897985 7.62503 42 65 83
0.348062 -1.27478 7.92349 150 155 149
0.334678 -1.33436 7.96427 215 220 200
0.334678 -1.33436 7.96427 215 220 200
0.340228 -1.3634 7.98214 223 214 205
0.475361 -0.875933 7.61204 87 98 128
0.581867 -0.0459137 7.3152 82 100 124
0.517133 0.112948 7.50111 82 97 128
0.594564 0.107302 7.30101 80 93 125
0.619284 0.485433 7.25773 75 95 119
0.619284 0.485433 7.25773 75 95 119
0.618138 0.408576 7.26925 83 95 121
0.625569 0.0103904 7.29679 93 109 135
0.615998 -0.0377036 7.32956 92 104 130
0.377785 -1.3633 8.02428 217 206 200
0.570957 -0.827359 7.50261 231 218 212
0.742372 0.801522 6.98748 82 100 122
0.407558 -1.3326 7.99872 234 223 221
0.430071 -1.32535 7.99586 240 231 224
0.6435 -0.525081 7.39959 233 220 214
0.6435 -0.525081 7.39959 233 220 214
0.654529 -0.425694 7.3929 233 222 218
0.651769 -0.737019 7.47037 212 199 193
0.678184 -0.52311 7.41316 231 220 216
0.472921 -1.34443 8.02844 231 220 218
0.701775 0.0104019 7.37096 237 226 220
0.696803 -0.524485 7.41812 235 224 218
0.734825 0.692663 7.2896 240 226 226
0.722274 -0.520728 7.40183 233 222 216
0.703224 -0.842091 7.48672 229 218 214
0.682133 -0.803422 7.54838 234 223 219
0.70113 -0.692858 7.49548 236 227 222
0.70113 -0.692858 7.49548 236 227 222
0.715726 -0.830268 7.48188 214 203 199
0.715567 -0.836064 7.48366 226 215 211
0.721876 -0.822707 7.4766 237 226 222
0.769736 0.0122078 7.35996 232 218 217
0.540393 -1.13113 8.06463 234 224 223
0.740039 -0.71794 7.50753 235 224 222
0.741699 -0.717517 7.50327 235 224 222
0.766988 -0.775159 7.48155 235 225 216
0.805081 0.693998 7.31783 251 237 236
0.782206 0.185488 7.40172 248 237 233
0.793956 0.0122958 7.41674 239 229 227
0.812176 0.122567 7.40136 240 230 228
0.805197 -0.336766 7.45086 244 235 230
0.805197 -0.336766 7.45086 244 235 230
0.805168 -0.33927 7.46044 246 237 232
0.852923 0.660646 7.30651 236 226 225
0.852923 0.660646 7.30651 236 226 225
0.813686 -0.664841 7.51865 231 219 219
0.853885 0.596863 7.35128 237 223 222
0.82382 -0.79289 7.51064 235 225 224
0.829074 -0.599648 7.51989 243 233 231
0.889458 0.596751 7.36101 175 194 113
0.686066 -1.27778 8.04936 234 225 226
0.84777 -0.59482 7.53344 238 229 224
0.780878 -0.89554 7.77338 235 227 224
0.872237 -0.352272 7.48045 231 220 218
0.682469 -1.37772 8.10069 234 226 223
0.885238 -0.127281 7.44628 235 224 218
0.883659 -0.23184 7.46497 238 224 221
0.869422 -0.449656 7.52108 235 225 224
0.869422 -0.449656 7.52108 235 225 224
0.878918 -0.377574 7.49144 239 229 227
0.904732 0.413355 7.38397 184 207 125
0.88558 0.236271 7.45124 166 185 96
0.901226 0.235825 7.40856 166 185 96
0.79928 -0.950986 7.76879 236 228 226
0.880319 -0.424634 7.5021 231 221 219
0.717542 -1.27767 8.06018 232 223 224
0.900739 0.0151666 7.4565 240 229 223
0.904759 -0.0397341 7.45801 240 231 226
0.812799 -0.951903 7.7774 230 222 220
0.909583 0.112372 7.44566 234 221 215
0.909583 0.112372 7.44566 234 221 215
0.816947 -0.942663 7.77644 232 224 222
0.928753 0.580753 7.37933 151 167 92
0.825693 -0.917812 7.79587 238 228 227
0.842407 -0.936227 7.76467 239 229 228
0.925568 -0.215678 7.47942 218 209 204
0.935786 0.0950156 7.44676 239 230 221
0.944072 0.223316 7.41786 171 187 99
0.957499 0.615739 7.36076 157 176 86
0.852925 -0.892428 7.78161 221 211 210
0.849693 -0.939416 7.79608 242 232 230
0.849693 -0.939416 7.79608 242 232 230
0.857132 -0.875189 7.77407 230 220 218
0.946234 -0.445936 7.52652 231 220 218
0.956969 -0.0616664 7.4836 243 232 228
0.973565 0.197319 7.44903 196 205 140
0.973899 0.173633 7.4557 160 168 91
0.973899 0.173633 7.4557 160 168 91
0.974904 0.0968588 7.46319 215 201 188
0.958616 -0.278018 7.52924 232 221 215
0.965016 -0.47606 7.53002 220 206 203
0.984208 0.258027 7.43956 163 184 93
0.982946 -0.344018 7.54686 234 225 218
0.978339 -0.728929 7.61036 236 225 223
0.998993 -0.427774 7.53245 251 240 236
0.990324 -0.766385 7.59124 236 225 221
1.00642 -0.776397 7.56176 241 232 227
1.00363 -0.630999 7.57639 252 239 233
1.0134 -0.780548 7.57368 246 232 231
0.896483 -1.09834 7.98949 228 218 217
1.03977 -0.310437 7.58604 240 230 228
1.05645 -0.770531 7.6284 233 221 221
1.00128 -0.951652 7.9095 225 211 210
1.00567 -0.987894 7.93844 235 223 223
1.12216 0.0738714 7.53104 198 210 126
1.10262 -0.783162 7.65002 238 229 224
1.138 0.198389 7.50926 159 186 83
1.14136 -0.35421 7.59542 247 238 233
1.13806 -0.3067 7.6095 227 217 208
1.16047 -0.510476 7.58526 223 212 208
1.16047 -0.510476 7.58526 223 212 208
1.16057 -0.772318 7.63985 242 228 225
1.18335 -0.600964 7.64546 208 193 190
1.20878 0.203483 7.54514 169 187 88
1.20634 -0.515597 7.59995 240 231 222
1.21449 -0.331618 7.62113 248 237 235
1.21877 -0.324823 7.61767 219 208 206
1.22565 -0.409898 7.61929 229 218 212
1.1016 -1.22124 8.11215 229 219 217
1.23363 -0.424774 7.61064 232 223 216
1.23482 -0.226547 7.61412 211 200 194
1.23834 -0.1642 7.60365 229 216 208
1.2403 -0.149642 7.59897 230 217 208
1.11652 -1.14092 8.10989 244 230 227
1.14404 -1.12047 8.06998 229 218 212
1.26493 0.190881 7.57477 176 193 87
1.27455 -0.0234998 7.61601 154 171 69
1.32835 0.678764 7.51883 205 224 117
1.6043 0.536913 6.94198 0 0 0
1.65209 -0.102604 6.92424 0 0 0
1.65961 -0.0895938 6.919 0 0 0
1.67961 -0.0923497 6.91478 0 0 0
1.66643 -0.32061 6.9848 0 0 0
1.66113 -0.538725 7.0222 0 0 0
1.67097 -0.164637 6.97395 0 0 0
1.66519 -0.456771 7.01962 0 0 0
1.67116 -0.516069 7.01709 0 0 0
1.67527 -0.360612 7.01314 0 0 0
1.68261 -0.523018 7.00461 0 0 0
1.67879 -0.446053 7.02078 0 0 0
1.68823 -0.0600578 6.96632 0 0 0
1.68639 -0.176938 6.98581 0 0 0
1.69068 -0.149034 6.96748 0 0 0
1.6878 -0.149875 6.97858 0 0 0
1.68881 -0.370208 6.99171 0 0 0
1.68361 -0.371596 7.01118 0 0 0
1.69368 -0.128711 6.96298 0 0 0
1.68869 -0.294116 6.99705 0 0 0
1.69651 0.0565719 6.95931 0 0 0
1.69114 -0.451466 7.01145 0 0 0
1.69816 0.0684726 6.95513 0 0 0
1.70344 0.188009 6.94005 0 0 0
1.69956 -0.157379 6.99354 0 0 0
1.70148 -0.170514 6.98977 0 0 0
1.71083 0.422268 6.91609 0 0 0
1.70064 -0.386792 7.01878 0 0 0
1.69969 -0.552915 7.03859 0 0 0
1.71655 0.409708 6.92013 0 0 0
1.71486 0.330822 6.93191 0 0 0
1.66553 -0.892201 7.22254 0 0 0
1.70536 -0.483979 7.03203 0 0 0
1.7214 0.324419 6.94713 0 0 0
1.72406 0.0385482 6.96043 0 0 0
1.72518 0.220534 6.94999 0 0 0
1.72226 -0.094113 6.98309 0 0 0
1.71973 -0.18288 7.00102 0 0 0
1.72163 -0.189049 6.99497 0 0 0
1.72322 -0.641459 7.02792 0 0 0
1.72289 -0.374718 7.03478 0 0 0
1.74617 0.50659 6.90277 0 0 0
1.74623 0.0220841 6.98731 0 0 0
1.68133 -1.07275 7.35268 0 0 0
1.75429 -0.351731 7.01697 0 0 0
1.76456 0.481236 6.92424 0 0 0
1.75475 -0.656536 7.04116 0 0 0
1.7585 -0.198191 7.00548 0 0 0
1.75609 -0.130054 7.01301 0 0 0
1.75573 -0.136524 7.01675 0 0 0
1.7577 -0.110585 7.00749 0 0 0
1.76278 -0.518638 7.03288 0 0 0
1.76763 0.0949163 6.98573 0 0 0
1.76928 0.000648613 6.984 0 0 0
1.5484 -0.682122 8.06974 0 0 0
1.76902 -0.597132 7.0481 0 0 0
1.78082 0.348776 6.95813 0 0 0
1.79246 -0.213511 7.0255 0 0 0
1.79175 -0.174874 7.02495 0 0 0
1.79511 -0.199433 7.01626 0 0 0
1.79362 -0.104545 7.02366 0 0 0
1.79974 -0.0235547 7.02351 0 0 0
1.80534 -0.417839 7.04268 0 0 0
1.80767 -0.301599 7.03707 0 0 0
1.80778 -0.359874 7.05036 0 0 0
1.80851 -0.206714 7.04599 0 0 0
1.82037 0.219613 6.9681 0 0 0
1.81879 0.192584 6.99232 0 0 0
1.81081 -0.536728 7.07919 0 0 0
1.82205 0.0674082 7.00868 0 0 0
1.82743 0.252762 6.9829 0 0 0
1.7425 -1.22465 7.48707 0 0 0
1.83055 -0.22473 7.03721 0 0 0
1.82602 -0.251685 7.0625 0 0 0
1.81062 -0.764827 7.1692 0 0 0
1.82009 -0.658771 7.1179 0 0 0
1.83358 0.0266874 7.02205 0 0 0
1.83654 0.250593 6.99747 0 0 0
1.81787 -0.835758 7.15709 0 0 0
1.83952 0.245878 6.99694 0 0 0
1.83952 0.245878 6.99694 0 0 0
1.84704 0.0398883 6.98166 0 0 0
1.82705 -0.663816 7.12136 0 0 0
1.82321 -0.79015 7.14895 0 0 0
1.84047 0.177981 7.01548 0 0 0
1.85473 0.267308 6.99516 0 0 0
1.85617 0.345458 6.98844 0 0 0
1.84913 -0.666793 7.09036 0 0 0
1.8515 -0.407486 7.06511 0 0 0
1.85348 -0.423835 7.0746 0 0 0
1.85676 -0.723572 7.09106 0 0 0
1.85198 -0.639696 7.10039 0 0 0
1.85084 -0.857868 7.14159 0 0 0
1.81242 -1.21015 7.43833 0 0 0
1.8863 -0.0845333 7.05038 0 0 0
1.88782 -0.0802763 7.06472 0 0 0
1.89594 -0.870705 7.11854 0 0 0
1.89155 -0.315886 7.11693 0 0 0
1.88915 -0.774548 7.18728 0 0 0
1.89627 -0.845907 7.17258 0 0 0
1.91306 -0.283673 7.11247 0 0 0
1.93727 0.52636 6.96994 0 0 0
1.78727 -0.120843 7.79819 0 0 0
1.926 0.355935 7.05163 0 0 0
1.93005 0.446829 7.02527 0 0 0
1.93136 -0.115664 7.06743 0 0 0
1.95504 0.736769 6.97736 0 0 0
1.95873 -0.608313 7.06628 0 0 0
1.94782 -0.364415 7.16494 0 0 0
1.94782 -0.364415 7.16494 0 0 0
1.95532 -0.636899 7.14793 0 0 0
1.97319 -0.0557843 7.09164 0 0 0
1.97448 -0.129523 7.09159 0 0 0
1.96423 -0.352031 7.17259 0 0 0
1.97999 0.224088 7.08933 0 0 0
1.97999 0.224088 7.08933 0 0 0
1.99252 0.237964 7.09283 0 0 0
1.99609 -0.209047 7.15758 0 0 0
2.0031 0.51038 7.06685 0 0 0
1.98692 -1.00994 7.37471 0 0 0
2.01833 0.22374 7.10866 0 0 0
2.02007 0.172557 7.11752 0 0 0
2.02127 0.171724 7.11251 0 0 0
2.01458 -0.854235 7.21736 0 0 0
2.02917 0.40523 7.09018 0 0 0
2.03033 -0.716251 7.1725 0 0 0
1.98286 -1.0648 7.47116 0 0 0
2.04415 0.632384 7.05189 0 0 0
2.04237 -0.66382 7.20807 0 0 0
2.04327 -0.668241 7.22565 0 0 0
2.05428 -0.645399 7.16258 0 0 0
2.05815 0.371467 7.1099 0 0 0
2.07784 -0.194707 7.13739 0 0 0
2.06979 -0.662559 7.23367 0 0 0
2.08874 -0.606179 7.12956 0 0 0
2.08954 -0.38569 7.15441 0 0 0
2.05348 -0.931356 7.41079 0 0 0
2.07069 -0.928909 7.41454 0 0 0
2.1077 -0.273885 7.15537 0 0 0
2.11199 -0.509358 7.22046 0 0 0
2.13454 -0.270141 7.16409 0 0 0
2.13957 0.503959 7.11283 0 0 0
2.14283 0.477781 7.09785 0 0 0
2.15012 -0.0637175 7.11863 0 0 0
2.13425 -0.733823 7.29223 0 0 0
2.14972 -0.296076 7.17313 0 0 0
2.15291 -0.141779 7.15959 0 0 0
2.15669 0.198457 7.13867 0 0 0
2.15508 -0.380074 7.2388 0 0 0
2.1641 0.0866549 7.167 0 0 0
2.17108 0.24464 7.15549 0 0 0
2.16928 -0.110543 7.20057 0 0 0
2.1802 0.445416 7.14044 0 0 0
2.2087 -0.60332 7.16816 0 0 0
2.19921 0.205119 7.16781 0 0 0
2.21365 -0.310024 7.23728 0 0 0
2.21556 0.0287383 7.19996 0 0 0
2.22189 -0.341929 7.20549 0 0 0
2.21523 -0.245064 7.23868 0 0 0
2.22808 -0.37547 7.2047 0 0 0
2.22889 -0.468136 7.22786 0 0 0
2.22747 -0.435579 7.27918 0 0 0
2.23899 -0.275986 7.20444 0 0 0
2.2352 -0.200658 7.23208 0 0 0
2.24048 -0.212482 7.20498 0 0 0
2.2333 -0.50341 7.27487 0 0 0
2.23718 -0.444731 7.26672 0 0 0
2.24974 -0.418426 7.21534 0 0 0
2.24296 -0.39883 7.2609 0 0 0
2.2528 -0.321671 7.21481 0 0 0
2.25996 -0.168028 7.20778 0 0 0
2.25776 0.513955 7.17217 0 0 0
2.27498 0.117301 7.20001 0 0 0
2.27692 0.192334 7.19221 0 0 0
2.28598 0.347875 7.17317 0 0 0
2.28598 0.347875 7.17317 0 0 0
2.29674 -0.647415 7.31881 0 0 0
2.31015 -0.325947 7.28882 0 0 0
2.31247 -0.500205 7.30136 0 0 0
2.31247 -0.500205 7.30136 0 0 0
2.31358 -0.386318 7.29424 0 0 0
2.33222 0.0962744 7.24914 0 0 0
2.33384 0.253761 7.24162 0 0 0
2.33384 0.253761 7.24162 0 0 0
2.34602 0.0322462 7.24366 0 0 0
2.34602 0.0322462 7.24366 0 0 0
2.34827 -0.583571 7.29938 0 0 0
2.35034 0.25338 7.22387 0 0 0
2.13664 -0.787536 9.04383 0 0 0
2.35112 -0.636651 7.29842 0 0 0
2.35768 -0.626293 7.29513 0 0 0
2.48212 0.73142 7.60097 0 0 0
2.50472 0.612401 7.76482 0 0 0
2.54751 0.72486 7.62323 0 0 0
2.64684 0.110944 7.24402 0 0 0
2.66949 -0.385741 7.22928 0 0 0
2.66804 0.372757 7.20085 0 0 0
2.66804 0.372757 7.20085 0 0 0
2.67411 -0.147595 7.24014 0 0 0
2.68189 -0.167697 7.20305 0 0 0
2.67844 0.137657 7.22564 0 0 0
-2.21202 0.476122 5.32331 215 245 255
-2.18916 0.479359 5.31076 216 244 255
-2.18288 0.432475 5.33321 217 247 255
-2.18907 0.424013 5.34615 215 248 255
-2.11001 0.396563 5.37004 219 248 255
-2.08465 0.555353 5.34892 216 245 253
-2.11752 0.159795 5.38449 225 250 254
-2.11215 0.279959 5.38339 222 249 255
-2.10614 0.362926 5.38372 223 248 255
-2.17042 -0.606992 5.47397 241 255 255
-2.08324 0.256662 5.39693 226 251 255
-2.11169 -0.0235571 5.42471 229 255 255
-2.0864 0.142225 5.40834 227 252 255
-2.11641 -0.316012 5.451 236 254 254
-2.04122 0.294967 5.40615 223 251 255
-2.03691 0.222099 5.40998 226 251 255
-2.08755 -0.425459 5.46194 240 255 255
-2.08755 -0.425459 5.46194 240 255 255
-2.04561 0.0818047 5.42998 229 253 255
-2.03716 0.103224 5.43203 227 252 255
-2.02186 0.169586 5.43602 228 252 255
-1.96648 0.338012 5.43235 222 249 255
-1.97588 0.0369417 5.4566 230 254 254
-1.96232 0.160216 5.44861 228 252 255
-1.96232 0.160216 5.44861 228 252 255
-1.96476 -0.0186926 5.47519 232 253 254
-1.98807 -0.238199 5.49756 236 254 254
-1.98807 -0.238199 5.49756 236 254 254
-1.94768 0.0701622 5.46728 230 254 255
-1.96602 -0.211256 5.49803 236 254 254
-1.90779 0.432866 5.44337 222 249 255
-1.97413 -0.387638 5.51201 241 255 255
-1.95093 -0.219961 5.49273 236 254 254
