ply
format ascii 1.0 
element vertex 1023
property float32 x 
property float32 y 
property float32 z
property uchar red  
property uchar green
property uchar blue
element face 0
property list uchar int vertex_indices
end_header
-1.00864 1.71612 1.35448 200 200 190
-1.00677 1.6938 1.36541 105 100 94
-1.0466 1.43565 1.43487 197 198 192
-1.05004 1.37019 1.44112 87 88 74
-1.02106 1.51716 1.40918 180 177 170
-1.03784 1.39475 1.43348 110 106 95
-1.00442 1.65388 1.40552 188 179 172
-1.04568 1.3183 1.47465 140 142 139
-1.28516 -0.443476 1.8466 108 109 104
-0.981481 1.627 1.41072 129 128 126
-1.31678 -0.797173 1.90872 223 227 239
-0.98913 1.5269 1.43406 114 114 104
-0.961856 1.71956 1.39848 99 98 94
-1.04276 1.25521 1.52116 213 209 206
-0.959371 1.70957 1.4037 110 111 105
-1.29792 -0.711349 1.91279 108 113 109
-1.26996 -0.510493 1.87525 120 122 121
-1.32449 -1.10353 1.9563 220 226 238
-1.17151 0.235527 1.73191 119 121 107
-1.17151 0.235527 1.73191 119 121 107
-1.2988 -0.795552 1.9251 218 228 238
-1.23709 -0.333405 1.83398 17 20 13
-1.03684 1.26894 1.55525 216 216 216
-1.05117 1.0963 1.57205 245 246 241
-0.988035 1.41207 1.48191 50 46 43
-0.988035 1.41207 1.48191 50 46 43
-0.945996 1.74006 1.42463 130 129 125
-1.20553 -0.182498 1.82073 58 60 55
-0.966836 1.50921 1.46015 210 210 208
-1.21496 -0.27992 1.84261 33 33 31
-1.21749 -0.362718 1.84405 47 49 44
-0.981903 1.39997 1.49009 30 30 28
-1.2078 -0.326976 1.83608 32 32 30
-0.977502 1.41392 1.48961 30 35 28
-1.21244 -0.360238 1.84891 43 43 41
-1.12214 0.437844 1.7271 107 103 92
-1.17164 0.0653218 1.80324 187 190 183
-1.05347 0.980867 1.62825 214 214 206
-1.24306 -0.68481 1.91339 109 113 112
-1.0142 1.25389 1.56186 216 215 211
-1.26806 -0.936409 1.95477 219 225 237
-1.23494 -0.647095 1.91433 112 112 112
-0.96635 1.40301 1.50234 32 39 31
-0.96635 1.40301 1.50234 32 39 31
-1.22484 -0.615779 1.90732 145 147 146
-1.21778 -0.609343 1.89366 145 147 146
-1.18403 -0.23568 1.84712 29 29 27
-1.18403 -0.23568 1.84712 29 29 27
-1.20534 -0.5212 1.87953 132 136 137
-1.21205 -0.52685 1.89256 132 136 137
-1.22061 -0.592449 1.90735 141 143 142
-0.957724 1.40437 1.51073 48 50 47
-1.54544 -0.356931 2.43955 11 12 7
-1.1311 -0.190259 1.79292 9 11 6
-1.1311 -0.190259 1.79292 9 11 6
-1.20575 -0.587917 1.91415 144 145 147
-1.0286 0.987677 1.64821 225 229 214
-1.19968 -0.623893 1.91845 148 150 149
-0.90362 1.73254 1.44573 152 153 155
-0.941972 1.42529 1.51144 213 214 209
-1.1644 -0.25122 1.87028 25 25 25
-1.23275 -0.947272 1.98287 219 225 237
-1.12168 0.110516 1.80542 210 210 208
-1.14835 -0.272349 1.83418 29 29 27
-1.19467 -0.227053 1.92424 25 27 24
-0.975643 1.27176 1.5784 211 206 202
-0.902088 1.67341 1.46631 164 165 167
-1.16137 -0.39907 1.89331 44 46 43
-1.05109 0.605296 1.71753 220 220 218
-0.891024 1.71228 1.46379 178 180 179
-1.1461 -0.272646 1.88513 34 34 34
-1.1387 -0.216977 1.8754 22 25 18
-0.923718 1.43827 1.5227 113 111 99
-0.922332 1.42541 1.52322 131 131 123
-1.14544 -0.350518 1.89659 44 44 42
-1.11181 -0.0231499 1.85081 130 134 133
-1.19767 -0.934645 1.9952 216 224 235
-1.49439 0.634791 2.49575 157 159 158
-1.18104 -0.750288 1.97389 104 106 105
-1.05623 0.446997 1.76863 160 162 161
-0.911396 1.42248 1.53412 213 214 209
-1.18747 -0.889302 1.99823 217 223 235
-0.900138 1.43594 1.54091 124 124 122
-0.930026 1.33533 1.59625 204 205 199
-0.927386 1.32907 1.58727 204 205 199
-0.95365 1.16835 1.63246 219 218 214
-0.946134 1.2538 1.62021 162 162 154
-0.986039 0.881267 1.69116 219 220 215
-0.958896 1.10526 1.64621 220 221 216
-0.960855 1.08718 1.65092 224 225 220
-1.07092 0.093892 1.84803 199 199 199
-1.13353 -0.452833 1.95656 98 106 109
-1.13353 -0.452833 1.95656 98 106 109
-1.16734 -0.760758 2.01839 163 163 163
-0.88477 1.50517 1.53085 213 208 204
-0.895924 1.42671 1.56059 211 212 206
-0.876779 1.4356 1.55661 210 211 205
-1.103 -0.345717 2.01568 48 47 43
-0.950419 1.00324 1.73927 205 204 202
-0.949849 1.00088 1.74024 208 207 205
-1.13291 -0.75301 2.10234 206 207 202
-1.12403 -0.724841 2.10124 204 205 200
-1.05403 -0.736897 2.14658 206 203 196
-1.05241 -0.811979 2.16126 131 123 112
-1.04499 -0.723608 2.15014 209 208 204
-0.97784 -0.742528 2.2003 210 207 200
-0.955288 -0.788048 2.2207 211 211 203
-0.895016 -0.11828 2.09555 20 22 17
-0.941206 -0.787994 2.24317 208 209 203
-0.925278 -0.74156 2.23417 200 197 190
-0.925278 -0.74156 2.23417 200 197 190
-0.931602 -0.82588 2.25628 209 208 203
-0.929341 -0.899293 2.26054 205 202 195
-0.919744 -0.713101 2.24016 204 201 196
-0.874092 -0.2978 2.19002 28 30 27
-0.913777 -1.35616 2.41386 208 209 204
-0.798032 0.0608873 2.12334 165 165 165
-0.859902 -0.786796 2.29073 209 208 204
-0.718097 1.01797 1.92243 221 222 224
-0.692888 1.34555 1.85579 27 27 19
-0.913058 -1.52284 2.45835 207 204 197
-0.819858 -0.336697 2.20824 58 60 59
-1.24395 -4.97941 3.35955 13 16 7
-0.785171 0.100127 2.12833 185 185 185
-0.844701 -0.89788 2.32028 211 210 205
-0.806181 -0.355893 2.22215 40 42 39
-0.831841 -0.705446 2.29658 199 201 198
-0.839178 -0.918033 2.32783 212 211 206
-0.802265 -0.338522 2.24036 34 34 34
-0.801934 -0.377681 2.24012 40 42 39
-0.828606 -0.745002 2.32224 207 208 203
-0.817145 -0.63919 2.28878 149 151 148
-0.824338 -0.786306 2.31002 211 210 206
-0.782093 -0.236294 2.20283 22 24 19
-0.759757 0.0170053 2.15822 147 147 147
-0.814134 -0.742169 2.32919 207 208 203
-0.852917 -1.2504 2.44309 212 213 208
-0.846045 -1.26772 2.43781 214 213 208
-0.751653 0.0158074 2.17386 145 145 145
-0.751653 0.0158074 2.17386 145 145 145
-0.811348 -0.897742 2.34672 212 211 207
-0.654895 1.29876 1.89559 18 19 11
-0.826309 -1.12947 2.40737 207 212 208
-0.824601 -1.16468 2.41541 219 218 213
-0.740147 0.0453312 2.16984 153 153 153
-1.00179 -3.78601 2.94022 123 124 119
-1.00311 -3.75293 2.94676 91 90 86
-0.804631 -1.007 2.36988 202 199 194
-0.643979 1.33809 1.89823 13 18 12
-0.993405 -3.85606 2.96785 20 20 18
-0.832942 -4.28425 2.87652 1 13 9
-0.717719 0.683335 2.47878 174 176 171
-0.586464 0.570175 2.02879 174 176 171
-0.828941 -4.18659 2.87582 63 78 75
-0.824279 -4.21407 2.87505 152 140 140
-0.52164 0.832694 1.85152 99 102 93
-0.499396 1.18203 1.78347 11 16 9
-0.488767 1.3294 1.7061 38 38 26
-0.476979 1.51435 1.71539 37 37 25
-0.478968 1.46213 1.72999 38 38 26
-0.460091 1.77768 1.66281 13 16 7
-0.456645 1.83079 1.65141 17 20 13
-0.454469 1.82705 1.65552 14 17 10
-0.466249 1.47519 1.70057 31 32 18
-0.521612 0.53781 1.97311 178 177 172
-0.489781 0.775909 1.89112 226 228 225
-0.489781 0.775909 1.89112 226 228 225
-0.44708 1.51443 1.74526 37 38 24
-0.425884 1.70147 1.71378 50 50 38
-0.425151 1.69078 1.6956 50 50 38
-0.470123 0.639456 1.86885 188 190 187
-0.457262 0.833185 1.90456 231 232 227
-0.406068 1.38562 1.81632 19 22 13
-0.406068 1.38562 1.81632 19 22 13
-0.413288 0.965389 1.91074 220 221 216
-0.625817 -3.70678 2.89205 17 17 7
-0.686982 -5.02147 3.20546 21 22 16
-0.612915 -3.74508 2.89212 59 58 53
-0.397896 0.799469 1.89533 227 228 222
-0.636656 -4.76345 3.16283 58 60 49
-0.384342 0.951866 1.9422 219 220 215
-0.342983 1.89316 1.73735 13 16 9
-0.56523 -3.66755 2.88322 164 160 149
-0.625742 -4.89824 3.20297 52 48 37
-0.386832 0.810218 1.90131 209 208 203
-0.365596 0.975137 1.95074 220 219 214
-0.365596 0.975137 1.95074 220 219 214
-0.58903 -5.25125 3.32681 44 46 35
-0.33861 1.02861 1.96921 192 196 199
-0.355322 0.556849 2.09547 162 159 150
-0.355322 0.556849 2.09547 162 159 150
-0.551254 -4.99216 3.28143 50 46 37
-0.30732 1.61329 1.8446 18 19 13
-0.30732 1.61329 1.8446 18 19 13
-0.545521 -5.2213 3.34411 62 55 45
-0.527944 -4.79993 3.2486 41 35 23
-0.31918 0.991055 1.99102 152 153 147
-0.525862 -5.00308 3.30378 70 66 54
-0.513659 -4.70318 3.23457 63 57 43
-0.274801 1.20866 1.97927 128 129 131
-0.278979 1.02982 2.01661 171 172 167
-0.264396 1.36222 1.94897 109 117 120
-0.277358 1.0292 1.96272 160 161 156
-0.430748 -4.32794 3.17585 25 26 20
-0.265589 0.982197 2.04092 156 157 151
-0.265589 0.982197 2.04092 156 157 151
-0.261496 0.966625 2.04344 42 35 29
-0.459382 -5.66848 3.74821 72 49 41
-0.389706 -5.92776 3.78683 126 131 135
-0.384816 -5.61254 3.5889 126 131 135
-0.318637 -5.66473 3.74133 88 88 80
-0.313508 -4.70853 3.72228 26 23 14
-0.321093 -4.81128 3.79838 26 23 14
-0.313591 -4.92347 3.82462 68 66 54
-0.313948 -4.64508 3.76627 105 103 91
-0.306144 -4.53971 3.68569 105 103 91
-0.306219 -4.74486 3.73106 101 101 91
-0.29713 -4.55116 3.74302 70 67 60
-0.288319 -4.36832 3.65416 63 66 59
-0.295399 -4.71777 3.73685 53 52 47
-0.264863 -4.71981 3.812 77 74 67
-0.257857 -4.85544 3.80949 71 73 62
-0.256387 -4.93475 3.82582 67 66 61
-0.249448 -4.88488 3.8664 62 65 56
-0.24844 -4.82047 3.85084 75 74 69
-0.256294 -6.0024 3.9861 100 96 85
-0.245797 -5.06063 3.86099 66 66 56
-0.227811 -4.47123 3.77412 73 69 60
-0.229626 -4.39222 3.71104 73 69 60
-0.219872 -6.18252 4.04333 104 100 91
-0.148989 -6.21576 4.10132 120 116 107
-0.143094 -6.4624 4.10979 118 111 101
-0.114432 -4.41014 3.84434 25 24 20
-0.11887 -6.09745 3.9834 114 110 101
-0.115107 -5.25024 4.00054 56 55 50
-0.126886 -6.28745 4.01556 118 109 100
-0.126886 -6.28745 4.01556 118 109 100
-0.0638642 -3.84246 3.76282 169 162 152
0.00412687 -3.98074 3.84141 161 157 146
0.0115743 -6.0357 4.09151 82 81 77
0.0295947 -3.48777 3.71113 112 108 99
0.0357495 -5.2761 4.1873 139 135 124
0.0357495 -5.2761 4.1873 139 135 124
0.0325258 -3.74086 3.76708 130 127 118
0.0292591 -5.92975 4.09738 79 75 72
0.0383383 -3.76911 3.7731 124 120 111
0.0607376 -6.4296 4.2805 69 70 65
0.0622193 -6.72336 4.27709 76 77 72
0.0568757 -5.07346 4.09432 149 142 134
0.0604716 -5.18574 4.17891 149 142 134
0.0612041 -5.29302 4.20686 129 125 116
0.0612041 -5.29302 4.20686 129 125 116
0.053265 -3.83117 3.76933 104 94 84
0.0649933 -4.96347 4.12959 134 130 121
0.0582526 -4.86451 4.07877 134 135 127
0.088576 -5.13145 4.12527 123 114 105
0.0942263 -6.13574 4.26861 69 55 52
0.0937748 -5.12165 4.1914 141 132 123
0.0823494 -3.67816 3.80148 140 141 135
0.107612 -6.74902 4.3171 69 70 65
0.101102 -4.667 4.06064 94 96 91
0.115156 -5.38592 4.16378 99 99 91
0.104881 -4.75897 4.09515 112 113 108
0.114628 -5.00125 4.17829 95 98 91
0.114628 -5.00125 4.17829 95 98 91
0.109117 -5.99191 4.17994 100 87 81
0.121175 -5.98892 4.19169 148 141 131
0.122764 -6.37001 4.19757 70 71 66
0.138077 -6.59515 4.34355 70 71 66
0.153125 -6.01325 4.22199 125 126 118
0.158391 -5.19238 4.21371 112 112 104
0.157684 -3.94359 3.90146 108 111 104
0.155329 -3.69615 3.83798 126 125 120
0.163095 -4.04708 3.90982 113 115 110
0.164313 -4.06979 3.89035 99 101 96
0.190436 -6.17356 4.34595 103 102 97
0.18841 -4.12933 3.93872 122 123 117
0.229769 -6.20602 4.38897 108 107 102
0.235996 -3.95902 4.03328 99 98 93
0.235296 -3.9526 4.02791 99 98 93
0.262331 -5.52541 4.40515 109 111 106
0.256169 -6.21589 4.25594 93 82 76
0.266959 -5.45148 4.40584 107 106 102
0.306977 -6.66469 4.48547 48 53 49
0.282394 -4.00371 4.10126 118 117 112
0.3041 -5.97579 4.28054 108 108 100
0.321027 -6.5647 4.51594 100 100 92
0.3262 -6.08176 4.30054 108 109 104
0.337637 -5.57249 4.47934 128 129 123
0.354031 -4.93195 4.30214 106 107 101
0.365197 -5.27224 4.43114 97 98 92
0.375682 -5.23509 4.44274 114 117 108
0.367369 -5.02132 4.31417 135 135 125
0.384572 -4.92498 4.37155 102 101 97
0.393617 -5.99385 4.34842 85 85 75
0.394891 -4.51165 4.2988 105 106 100
0.406791 -4.93708 4.38942 112 113 107
0.410976 -5.01819 4.41861 105 106 100
0.397232 -4.39488 4.24069 113 114 106
0.404313 -4.6455 4.31781 123 124 118
0.421304 -4.87118 4.39088 137 138 132
0.440714 -5.43684 4.53324 100 101 95
0.445576 -4.69963 4.37435 104 103 98
0.431732 -4.23746 4.22378 104 106 101
0.462533 -5.10335 4.4761 119 120 114
0.510356 -6.7771 4.66801 108 108 100
0.523559 -6.47454 4.67472 101 101 93
0.523559 -6.47454 4.67472 101 101 93
0.515215 -6.04513 4.43656 80 77 68
0.52778 -6.25905 4.59699 93 93 81
0.5618 -6.2829 4.62901 107 97 85
0.490487 -2.70569 3.93464 123 117 105
0.588902 -6.44583 4.7093 111 103 90
0.578744 -5.33975 4.52366 114 107 97
0.586514 -5.41072 4.65257 115 107 96
0.586026 -5.32487 4.64027 124 115 106
0.582881 -5.10231 4.58092 118 110 99
0.576016 -6.00443 4.50391 110 101 92
0.482927 -0.992053 3.75623 131 122 113
0.608079 -6.38707 4.72137 101 97 85
0.613018 -5.55047 4.71024 105 98 88
0.607393 -5.33731 4.65582 97 87 78
0.493462 -1.04885 3.77728 128 120 109
0.758893 -9.40224 5.76538 86 83 74
0.603858 -4.09922 4.38281 117 111 99
0.795759 -9.48806 5.79031 94 92 80
0.646146 -6.35811 4.71831 108 102 90
0.62784 -4.73166 4.54109 115 109 97
0.622039 -4.69897 4.5124 115 109 97
0.622039 -4.69897 4.5124 115 109 97
0.661855 -4.06186 4.42966 124 116 105
0.438253 1.93836 2.94655 99 99 91
0.88824 -9.50396 5.89219 78 78 68
0.88824 -9.50396 5.89219 78 78 68
0.730733 -7.04451 4.76667 104 100 88
0.715773 -4.39397 4.55835 111 104 94
0.572999 -0.956416 3.60225 100 96 87
0.766147 -5.43149 4.79437 117 113 101
0.578121 -1.12835 3.61108 85 86 81
0.736356 -6.45849 4.56025 100 98 86
0.74821 -6.38424 4.69517 111 107 96
0.791834 -5.99682 4.86895 0 0 0
0.686518 -2.70864 4.10305 0 0 0
1.0135 -9.59373 5.9962 0 0 0
0.783539 -4.56488 4.56166 0 0 0
0.773448 -4.56292 4.48484 0 0 0
0.700755 -2.47461 4.04326 0 0 0
1.04233 -9.66235 6.01072 0 0 0
0.80425 -4.95728 4.61511 0 0 0
0.69283 -1.86428 3.94258 0 0 0
0.791234 -4.40779 4.51148 0 0 0
1.07126 -9.64137 6.04962 0 0 0
1.07126 -9.64137 6.04962 0 0 0
0.71889 -1.94777 3.96431 0 0 0
0.675146 -1.15888 3.69582 0 0 0
0.692129 -1.38255 3.7646 0 0 0
0.839038 -4.35834 4.5434 0 0 0
0.530276 1.91917 2.87598 0 0 0
0.848287 -4.43696 4.56491 0 0 0
1.1132 -9.61767 5.9811 0 0 0
0.536829 1.90269 2.88551 0 0 0
0.85739 -4.38008 4.56361 0 0 0
0.619879 0.549584 3.30243 0 0 0
0.631554 0.295583 3.35277 0 0 0
0.64653 0.132019 3.41367 0 0 0
0.848686 -4.14922 4.46132 0 0 0
0.881637 -5.4045 4.62543 0 0 0
0.622813 0.722784 3.24537 0 0 0
0.601569 1.22337 3.11419 0 0 0
0.861632 -4.19561 4.43866 0 0 0
0.593415 1.46904 3.05118 0 0 0
0.903205 -6.98193 4.65372 0 0 0
0.92875 -7.0224 4.73108 0 0 0
0.58601 1.74125 2.98175 0 0 0
0.590101 1.69918 2.99673 0 0 0
0.94673 -6.47742 4.72939 0 0 0
0.970576 -6.10627 4.79723 0 0 0
0.947275 -3.94485 4.34334 0 0 0
1.016 -6.41576 4.53198 0 0 0
1.05337 -6.18411 4.63296 0 0 0
1.0695 -5.94453 4.69327 0 0 0
1.03268 -6.51653 4.5404 0 0 0
1.0554 -5.66087 4.62545 0 0 0
1.03127 -6.79338 4.53189 0 0 0
1.07396 -5.99226 4.64585 0 0 0
1.07528 -6.48097 4.61114 0 0 0
0.994377 -4.34487 4.22491 0 0 0
0.661382 2.3515 2.76383 0 0 0
1.0415 -4.13538 4.27539 0 0 0
1.20812 -6.151 4.85025 0 0 0
1.52311 -9.64635 5.91465 0 0 0
0.800912 0.892225 3.02803 0 0 0
0.800094 1.00779 3.00173 0 0 0
0.808533 0.98617 3.00684 0 0 0
1.27955 -6.87578 4.79193 0 0 0
0.815882 1.06119 3.0151 0 0 0
1.32008 -5.98183 4.90145 0 0 0
0.762738 1.90136 2.7897 0 0 0
1.662 -9.8224 6.04659 0 0 0
1.34424 -6.65465 4.85643 0 0 0
0.740156 2.32535 2.67321 0 0 0
0.777045 1.8688 2.79904 0 0 0
0.759433 2.34791 2.69731 0 0 0
0.780669 1.98847 2.77311 0 0 0
1.7332 -9.83953 6.14103 0 0 0
1.40947 -5.99637 4.96682 0 0 0
1.38746 -6.62552 4.84847 0 0 0
1.4562 -6.71656 4.93994 0 0 0
0.900082 1.25137 3.04579 0 0 0
0.900082 1.25137 3.04579 0 0 0
0.96361 0.792778 3.24688 0 0 0
1.49198 -7.1597 4.99071 0 0 0
1.49198 -7.1597 4.99071 0 0 0
1.52102 -7.04166 5.04064 0 0 0
1.40649 -4.13714 4.6303 0 0 0
0.84656 -4.10364 2.78044 0 0 0
1.37318 -3.88686 4.50471 0 0 0
1.58453 -7.58515 5.1583 0 0 0
1.57659 -7.37326 5.03991 0 0 0
0.922249 2.39697 2.82765 0 0 0
1.07387 1.32359 3.25994 0 0 0
1.17326 1.31671 3.3021 0 0 0
1.63948 -0.0684289 4.42751 0 0 0
1.2072 2.05952 3.18115 0 0 0
1.16648 2.50668 3.04737 0 0 0
1.84097 -0.81725 4.76812 0 0 0
1.94359 -0.732171 4.84919 0 0 0
2.25861 -2.53372 5.60419 0 0 0
1.78752 0.719983 4.44417 0 0 0
1.78752 0.719983 4.44417 0 0 0
1.90896 -0.247449 4.73197 0 0 0
1.90896 -0.247449 4.73197 0 0 0
2.13871 -2.00902 5.28575 0 0 0
2.18213 -1.94247 5.34907 0 0 0
2.10059 -1.56336 5.12705 0 0 0
2.14186 -1.40288 5.19255 0 0 0
1.94938 -0.125996 4.7382 0 0 0
2.12637 -0.339992 5.16595 0 0 0
1.97614 0.255794 4.75134 0 0 0
2.04657 -0.178802 4.91539 0 0 0
2.11923 -0.523277 5.02966 0 0 0
2.08756 -0.999705 4.98285 0 0 0
2.10104 -0.383574 4.96529 0 0 0
2.14143 -0.602298 5.00137 0 0 0
2.19231 -1.00523 5.11832 0 0 0
2.12726 -0.40895 4.92653 0 0 0
2.1133 -0.189069 4.8942 0 0 0
2.34799 -2.11714 5.45828 0 0 0
1.84262 1.56986 4.27788 0 0 0
2.04653 -0.112028 4.74995 0 0 0
1.80197 2.18911 4.16672 0 0 0
2.22913 -0.900551 5.13644 0 0 0
2.10503 -0.350399 4.87336 0 0 0
2.05908 0.357669 4.73435 0 0 0
1.79256 2.25302 4.13099 0 0 0
1.78283 2.11053 4.11429 0 0 0
1.9327 0.857686 4.45441 0 0 0
2.17551 -0.428495 4.98094 0 0 0
1.9635 1.10048 4.49778 0 0 0
1.96586 0.646824 4.52224 0 0 0
1.95847 1.17542 4.47169 0 0 0
2.16343 -0.141071 4.9322 0 0 0
1.8639 1.91852 4.26055 0 0 0
1.98269 0.600842 4.54498 0 0 0
2.10795 -0.101901 4.80375 0 0 0
2.13332 -0.428819 4.86088 0 0 0
2.13332 -0.428819 4.86088 0 0 0
2.22628 -1.08441 5.06296 0 0 0
2.33229 -1.03737 5.27883 0 0 0
1.69418 2.89645 3.83358 0 0 0
2.20608 -0.319876 4.96685 0 0 0
2.20608 -0.319876 4.96685 0 0 0
1.81599 2.10694 4.10496 0 0 0
2.29544 -0.81818 5.14973 0 0 0
2.34647 -0.81733 5.27477 0 0 0
2.20949 -0.0369116 4.95374 0 0 0
1.82738 2.0189 4.11011 0 0 0
1.77836 2.18963 3.99943 0 0 0
1.76845 2.21594 3.96709 0 0 0
1.76287 2.29871 3.95456 0 0 0
1.98341 2.54609 4.43489 0 0 0
1.75852 2.25588 3.93093 0 0 0
1.89186 2.00899 4.21452 0 0 0
2.07114 0.663301 4.62492 0 0 0
2.24812 -0.0341455 4.99144 0 0 0
1.6895 2.80007 3.75762 0 0 0
2.2892 -0.0314006 5.0278 0 0 0
1.70144 2.71605 3.75933 0 0 0
1.85645 2.22193 4.08177 0 0 0
2.50448 -1.69567 5.52071 0 0 0
1.74277 2.83065 3.80755 0 0 0
2.37372 -0.260795 5.13583 0 0 0
2.51755 -1.17956 5.43777 0 0 0
2.10465 1.46274 4.53458 0 0 0
2.42618 -0.291102 5.18405 0 0 0
2.02235 1.91432 4.33752 0 0 0
2.58219 -1.07637 5.4885 0 0 0
2.57542 -1.46641 5.49485 0 0 0
2.32937 0.821272 4.9087 0 0 0
2.56977 -1.24522 5.41849 0 0 0
2.23838 1.19128 4.69909 0 0 0
2.26303 1.37703 4.73537 0 0 0
2.10218 1.93494 4.40805 0 0 0
2.21555 1.7758 4.60471 0 0 0
2.00998 2.95257 4.03185 0 0 0
2.218 2.49781 4.3341 0 0 0
2.88855 2.767 5.29501 0 0 0
2.92257 2.78289 5.31318 0 0 0
2.78087 3.41755 5.00378 0 0 0
1.14289e+06 -3.27036e+06 2.05848e+06 0 0 0
2.80823 3.29571 5.04884 0 0 0
2.80823 3.29571 5.04884 0 0 0
1.02671e+06 -2.82997e+06 1.83345e+06 0 0 0
1.21719e+06 -3.41685e+06 2.17043e+06 0 0 0
1.14955e+06 -3.23509e+06 2.04086e+06 0 0 0
129.925 -308.666 227.16 0 0 0
1.16703e+06 -3.24046e+06 2.03972e+06 0 0 0
1.05001e+06 -2.96494e+06 1.81786e+06 0 0 0
1.05001e+06 -2.96494e+06 1.81786e+06 0 0 0
1.2986e+06 -3.4891e+06 2.2364e+06 0 0 0
47.5271 -105.012 79.3396 0 0 0
47.5271 -105.012 79.3396 0 0 0
32.8635 -65.7612 54.2594 0 0 0
26.0083 -48.0712 42.8877 0 0 0
49.283 -108.361 81.1319 0 0 0
29.1926 -56.2734 47.879 0 0 0
29.1926 -56.2734 47.879 0 0 0
44.8385 -90.6068 72.9292 0 0 0
46.6366 -97.7098 75.108 0 0 0
4.34546 3.55555 6.90192 0 0 0
19.1078 -26.6738 30.1593 0 0 0
18.9591 -26.4122 29.819 0 0 0
-1.04526 1.74467 1.41498 100 93 83
-1.45083 2.39948 2.01959 188 179 172
-1.36304 -0.900612 1.94779 220 226 238
-1.31313 -0.443006 1.88496 88 86 74
-1.02022 1.4803 1.47846 130 130 128
-1.02022 1.4803 1.47846 130 130 128
-1.29266 -0.296039 1.87659 108 112 115
-1.03327 1.37442 1.51022 200 195 192
-0.984061 1.77304 1.4389 118 119 113
-0.983474 1.75917 1.4402 110 111 105
-1.02901 1.38031 1.51262 205 204 199
-1.22092 0.116706 1.80541 125 122 115
-1.33253 -1.08971 1.97268 220 226 238
-1.63138 -1.16972 2.41929 222 226 238
-1.21599 0.131387 1.8041 122 122 112
-1.16287 0.549623 1.73142 212 212 210
-1.08594 1.12544 1.62454 245 246 241
-1.24937 -0.495001 1.88442 118 120 119
-1.10018 0.946134 1.66068 220 216 213
-1.22761 -0.210071 1.85543 87 87 85
-1.09348 0.960166 1.65999 216 213 208
-1.09348 0.960166 1.65999 216 213 208
-1.63048 -0.35091 2.48995 24 24 22
-1.09643 0.865265 1.68093 225 216 211
-1.67268 -0.381061 2.58922 30 32 29
-1.17765 0.1075 1.82381 157 152 148
-1.24028 -0.647943 1.92141 112 112 112
-1.20974 -0.405388 1.87452 44 45 39
-1.18253 -0.0365973 1.84934 120 124 127
-1.25 -0.934874 1.96139 218 224 236
-0.928834 1.77619 1.46144 145 143 146
-1.20793 -0.48792 1.90326 122 126 127
-1.37141 -1.47055 2.16181 215 221 233
-1.17026 -0.033899 1.85316 127 133 133
-1.17084 -0.120475 1.87228 12 17 11
-0.946721 1.43362 1.51777 213 214 209
-1.15972 -0.0364259 1.85908 131 133 132
-1.16825 -0.225378 1.88171 25 27 24
-1.00225 1.30469 1.61565 108 105 96
-0.946726 1.42047 1.53966 128 119 112
-2.51688 0.148013 3.91907 130 131 135
-1.16037 -0.332225 1.90944 44 46 45
-1.07562 -0.180432 1.79554 33 34 29
-1.08688 0.30639 1.80603 15 18 11
-0.92997 1.42471 1.54566 178 173 170
-1.11992 0.0330172 1.86591 176 176 176
-2.58573 1.33631 4.1744 157 159 158
-1.06473 0.446932 1.78038 160 162 161
-0.969468 1.30784 1.63565 210 209 205
-1.04039 0.611258 1.75671 221 221 219
-0.902174 1.52732 1.52404 215 214 209
-1.24669 1.97504 2.10928 223 224 219
-1.10127 0.173846 1.87729 221 221 219
-0.950847 1.3293 1.62755 214 213 208
-1.14199 -0.756096 2.11638 206 207 202
-1.36144 -0.885921 2.57515 207 208 203
-1.12548 -0.824246 2.12971 205 204 199
-1.37629 -0.00280808 2.61484 142 146 147
-1.07524 -0.751033 2.14232 202 198 189
-1.06729 -0.836639 2.15167 197 190 180
-1.06537 -0.745953 2.15259 201 201 193
-1.24545 -0.988138 2.54736 119 119 111
-1.04261 -0.835656 2.15979 155 157 156
-1.02293 -0.722616 2.16424 118 112 100
-1.01441 -0.892383 2.16338 212 211 207
-1.14073 -0.866318 2.56953 210 207 200
-0.951766 -0.887196 2.194 210 207 200
-0.943842 -0.72116 2.20542 209 209 199
-1.07991 -0.939147 2.54116 207 204 197
-0.941088 -0.821791 2.21453 207 204 197
-0.80835 0.109427 2.10737 194 194 194
-0.80242 0.122967 2.10763 200 200 198
-0.787253 0.203697 2.07837 218 218 216
-0.851385 -0.703433 2.263 152 151 149
-0.986946 0.0936711 2.65228 178 178 178
-0.789369 0.075638 2.12162 178 178 178
-0.769552 0.252024 2.09157 226 226 224
-0.802666 -0.311175 2.21101 27 29 24
-0.925876 -0.484979 2.60102 40 42 37
-0.845271 -1.31137 2.3892 210 209 205
-0.802948 -0.883392 2.27953 211 210 206
-0.928691 0.0147333 2.64269 147 147 147
-0.825556 -1.15616 2.35271 213 212 208
-0.798048 -0.884581 2.28346 213 209 206
-0.795326 -0.923015 2.2906 208 207 203
-0.73557 -0.880093 2.28265 212 211 207
-0.74393 -5.8911 3.77906 30 23 15
-0.485055 -4.9571 3.45191 27 27 19
-0.431242 -4.85752 3.58977 26 25 21
-0.485287 -5.13898 3.80894 26 25 21
-0.406278 -4.11684 3.43496 63 62 57
-0.409731 -5.19709 3.46661 231 223 220
-0.422866 -4.87536 3.59421 20 24 23
-0.388567 -5.3488 3.40791 35 31 30
-0.398589 -4.62583 3.57925 145 140 134
-0.39409 -4.50653 3.54131 66 58 55
-0.397099 -4.69875 3.57563 87 82 78
-0.383727 -4.77151 3.6135 56 59 52
-0.363568 -5.47168 3.44845 109 115 115
-0.363568 -5.47168 3.44845 109 115 115
-0.368689 -4.30952 3.51844 81 78 71
-0.343608 -4.45222 3.57986 56 63 56
-0.320336 -4.83521 3.68648 27 29 26
-0.311466 -5.48047 3.61881 90 91 83
-0.302239 -4.32304 3.5785 68 68 58
-0.305329 -4.49633 3.61733 74 74 64
-0.295315 -4.73918 3.67829 87 82 76
-0.326952 -5.08938 3.88002 87 84 77
-0.285729 -5.51841 3.63873 93 90 83
-0.28039 -4.36501 3.61416 62 65 58
-0.274887 -4.72734 3.70007 56 56 54
-0.149894 -2.34632 2.01907 68 69 63
-0.254236 -4.39703 3.64124 58 51 45
-0.256225 -4.55767 3.67892 73 70 65
-0.258462 -4.91211 3.75812 72 68 57
-0.285078 -4.87499 3.89534 73 72 68
-0.232112 -4.40572 3.66386 71 72 66
-0.233221 -4.49274 3.68381 70 73 64
-0.211184 -3.12827 3.34295 203 202 197
-0.234183 -4.84067 3.76372 64 65 57
-0.220009 -5.7137 3.74142 99 97 85
-0.219696 -4.77747 3.75565 91 86 80
-0.15359 -5.72225 3.80425 120 113 103
-0.15359 -5.72225 3.80425 120 113 103
-0.147146 -5.80237 3.82449 122 115 107
-0.132975 -5.94633 3.79405 118 111 101
-0.126711 -5.62692 3.81651 120 111 102
-0.104487 -5.03077 3.92292 19 19 11
-0.119803 -5.91471 4.02474 120 116 107
-0.0901943 -5.91267 4.04086 114 110 99
-0.0622174 -3.83216 3.74739 169 162 152
-0.0550088 -5.95203 3.91978 115 111 102
-0.0156324 -2.21091 2.12716 165 158 148
-0.00849372 -5.77558 3.94473 103 98 94
0.00261705 -5.74173 3.96114 81 82 76
0.00933077 -4.6975 3.95838 160 153 143
0.0112368 -3.55251 3.69386 145 137 126
0.0112368 -3.55251 3.69386 145 137 126
0.0167841 -4.72536 3.96609 159 150 141
0.0380032 -4.55229 3.94566 154 149 143
0.0372472 -3.96447 3.71503 146 141 135
0.0466477 -4.88325 4.03016 148 148 140
0.0466477 -4.88325 4.03016 148 148 140
0.0293396 -4.03996 3.96578 104 94 84
0.0798393 -5.9391 4.1368 47 39 36
0.098558 -6.18035 4.0659 75 77 72
0.098558 -6.18035 4.0659 75 77 72
0.093527 -3.42773 3.71581 140 143 136
0.109913 -5.03568 4.11799 126 122 113
0.107668 -5.03372 4.11537 126 122 113
0.0994512 -3.62137 3.74941 114 115 107
0.11032 -4.95194 4.11741 103 104 98
0.120977 -5.87571 4.08591 28 30 25
0.108744 -4.51898 4.08284 114 115 109
0.128551 -4.78128 4.08519 119 116 109
0.128551 -4.78128 4.08519 119 116 109
0.141264 -3.52446 3.78534 122 121 116
0.141264 -3.52446 3.78534 122 121 116
0.159834 -6.32374 4.19274 64 65 60
0.159834 -6.32374 4.19274 64 65 60
0.17981 -5.95386 4.19571 120 119 114
0.192067 -6.24384 4.15475 58 60 57
0.192067 -6.24384 4.15475 58 60 57
0.221938 -6.05683 4.23014 148 149 141
0.221938 -6.05683 4.23014 148 149 141
0.237405 -5.33759 4.30591 107 108 102
0.237405 -5.33759 4.30591 107 108 102
0.234526 -5.0142 4.20954 113 115 110
0.270416 -5.9788 4.25698 102 103 95
0.275687 -6.07003 4.26565 87 88 80
0.279181 -4.03016 4.12014 118 117 112
0.331604 -5.98172 4.28892 96 97 91
0.348054 -6.34974 4.30629 45 49 48
0.358336 -4.68389 4.28633 102 103 97
0.392076 -5.01969 4.30949 124 121 112
0.389908 -5.14804 4.41434 124 121 112
0.39606 -5.35378 4.46308 113 114 108
0.402642 -5.36548 4.47811 121 122 116
0.42411 -4.81001 4.37029 110 107 100
0.442793 -5.47654 4.5343 105 108 101
0.433098 -4.90849 4.40629 113 115 110
0.43185 -4.78891 4.38081 132 129 122
0.450784 -5.09549 4.36221 129 130 124
0.521024 -3.88386 4.34219 115 105 95
0.56846 -5.29855 4.62256 119 109 99
0.421936 1.017 3.43256 133 109 85
0.528731 -3.58677 4.20816 128 122 110
0.578826 -5.22204 4.60522 118 109 100
0.590004 -5.26778 4.63668 119 111 100
0.516372 -3.03067 4.08168 128 122 110
0.583436 -4.94597 4.5597 107 100 90
0.583436 -4.94597 4.5597 107 100 90
0.595149 -4.03872 4.39283 108 99 90
0.598078 -1.2643 3.71919 101 94 86
0.629185 -1.27828 3.78032 0 0 0
0.704967 -2.62574 4.18939 0 0 0
0.820761 -6.87025 4.69864 0 0 0
0.699998 -0.885142 3.80753 0 0 0
0.843999 -4.42053 4.59223 0 0 0
0.683073 -0.34169 3.66072 0 0 0
1.09704 -5.99143 4.70901 0 0 0
1.09354 -5.86053 4.6784 0 0 0
1.12456 -5.75402 4.69426 0 0 0
1.13622 -5.93957 4.73817 0 0 0
1.18772 -4.19954 4.51669 0 0 0
1.32582 -7.06133 4.8043 0 0 0
1.34412 -7.08722 4.85426 0 0 0
1.36388 -7.00797 4.90346 0 0 0
1.54048 -6.96397 5.36021 0 0 0
1.45935 -6.16678 5.07352 0 0 0
1.42365 -7.14282 4.92698 0 0 0
1.42365 -7.14282 4.92698 0 0 0
1.54042 -6.10081 5.12787 0 0 0
1.48899 -6.67516 4.9062 0 0 0
1.52931 -6.88342 5.04664 0 0 0
1.59758 -6.25871 5.21268 0 0 0
1.54874 -6.68267 4.94234 0 0 0
1.32717 -0.887253 4.04876 0 0 0
1.5903 -0.902347 4.71072 0 0 0
1.59548 -0.958565 4.70618 0 0 0
1.52708 0.120449 4.44889 0 0 0
1.96363 -1.15738 5.68391 0 0 0
1.74128 0.163672 4.91759 0 0 0
1.72699 -1.25191 4.85653 0 0 0
1.82436 -1.01342 4.96231 0 0 0
1.82709 0.401529 4.93771 0 0 0
1.8438 -1.07883 4.95765 0 0 0
1.83528 0.551819 4.91601 0 0 0
1.89761 -0.897415 5.06338 0 0 0
1.78276 -0.000229578 4.71737 0 0 0
1.8281 0.897595 4.82757 0 0 0
1.79087 1.3767 4.66888 0 0 0
1.69918 2.31911 4.37925 0 0 0
2.00528 -0.923767 5.13462 0 0 0
2.01441 -0.927821 5.15319 0 0 0
1.98485 -0.647423 5.00766 0 0 0
1.99156 -0.569254 5.01199 0 0 0
1.9624 -1.31126 4.91692 0 0 0
2.0913 -1.32855 5.23812 0 0 0
2.23688 -2.18276 5.59151 0 0 0
2.08426 -1.04184 5.20092 0 0 0
2.07145 -0.755334 5.15007 0 0 0
1.94762 0.11996 4.82655 0 0 0
2.02732 -0.335436 5.01722 0 0 0
1.79328 1.74819 4.35857 0 0 0
2.00114 0.357909 4.85667 0 0 0
1.69049 2.55064 4.0745 0 0 0
1.90839 1.26119 4.57447 0 0 0
2.04392 0.362143 4.89759 0 0 0
2.08349 0.167145 4.96287 0 0 0
2.15254 0.337131 5.15998 0 0 0
2.03296 0.701664 4.80159 0 0 0
2.20882 -0.856458 5.20214 0 0 0
1.81185 2.32251 4.26345 0 0 0
1.78627 2.4994 4.19695 0 0 0
2.22867 -1.32264 5.23154 0 0 0
1.81663 2.41648 4.24988 0 0 0
2.23838 -0.817957 5.22234 0 0 0
2.24405 -0.861282 5.23535 0 0 0
1.82045 2.44896 4.24134 0 0 0
2.11225 0.124875 4.91324 0 0 0
2.47528 -2.21521 5.75451 0 0 0
2.28669 -1.2337 5.31273 0 0 0
2.18801 -0.389756 5.0788 0 0 0
2.27626 -1.00981 5.27788 0 0 0
2.05088 0.696139 4.75338 0 0 0
1.85457 2.35852 4.28418 0 0 0
1.93311 1.80003 4.45997 0 0 0
2.23787 -0.571175 5.15974 0 0 0
2.21475 -0.277418 5.10555 0 0 0
2.01452 1.05663 4.64443 0 0 0
2.22759 -0.427733 5.10905 0 0 0
1.88471 2.25594 4.31426 0 0 0
2.04329 1.13207 4.64906 0 0 0
2.12424 0.744324 4.81166 0 0 0
2.20812 0.196968 4.98943 0 0 0
1.87246 2.3612 4.22883 0 0 0
2.29331 -0.573206 5.17533 0 0 0
2.03028 1.48195 4.57023 0 0 0
2.34807 -0.616706 5.23927 0 0 0
2.37171 -0.769257 5.28406 0 0 0
2.37171 -0.769257 5.28406 0 0 0
1.9463 2.32026 4.32743 0 0 0
2.36238 -0.559091 5.24376 0 0 0
2.09295 1.26553 4.64665 0 0 0
2.40932 -0.773891 5.32562 0 0 0
1.80392 2.76911 3.99005 0 0 0
1.77984 3.00521 3.91856 0 0 0
2.71486 -1.94957 5.93613 0 0 0
2.66578 -1.74264 5.82243 0 0 0
2.35137 0.20165 5.11441 0 0 0
2.44616 -0.0627774 5.34336 0 0 0
2.23743 0.986152 4.85722 0 0 0
2.59389 -1.08943 5.58505 0 0 0
2.44954 0.141857 5.25369 0 0 0
2.42164 0.414372 5.17936 0 0 0
1.95644 2.57218 4.18209 0 0 0
1.95644 2.57218 4.18209 0 0 0
2.36716 0.0985242 5.04929 0 0 0
2.51094 0.263762 5.39111 0 0 0
2.66123 -1.20627 5.66293 0 0 0
2.55874 -0.365512 5.43783 0 0 0
2.36575 0.961978 5.01809 0 0 0
2.38572 0.772022 5.05588 0 0 0
2.70043 -1.33964 5.67978 0 0 0
2.70043 -1.33964 5.67978 0 0 0
2.2355 1.9307 4.70209 0 0 0
2.30314 1.45963 4.83903 0 0 0
2.32501 1.59168 4.79562 0 0 0
2.08798 2.62768 4.30526 0 0 0
2.22287 2.83432 4.37734 0 0 0
-1.00534 1.65373 1.41004 128 128 126
-1.03986 1.38429 1.47221 42 37 34
-1.00583 1.47046 1.4585 215 214 209
-0.980198 1.65384 1.42857 151 151 151
-1.13326 0.53762 1.6995 200 199 195
-1.39575 -1.09314 2.20146 213 220 228
-1.30437 -0.944969 1.93681 220 227 235
-1.20798 -0.27036 1.85066 179 180 175
-1.25043 -0.685775 1.91992 220 227 235
-0.907092 1.43386 1.536 45 47 42
-1.17447 -0.96501 2.01545 217 214 209
-1.11345 -0.732594 2.10996 205 201 192
-1.03373 -0.00338631 1.9716 21 23 18
-1.01932 -0.81291 2.10593 212 209 200
-1.01787 -0.897882 2.17785 145 135 126
-0.97815 -0.742722 2.19942 217 214 207
-0.814494 -0.351516 2.21432 209 206 199
-0.799814 -0.405132 2.23903 210 209 204
-0.460781 1.19066 1.75307 10 15 9
-0.482329 0.630765 1.85954 164 164 156
-0.417579 1.75843 1.65244 10 12 9
-0.455408 0.778854 1.84699 189 186 179
-0.883938 -6.46759 3.66922 71 54 46
-0.249782 1.41368 1.89241 30 31 26
-0.342214 -5.12707 3.85164 113 106 96
-0.281026 -4.2846 3.68041 23 24 19
-0.591125 -6.68235 3.79047 109 105 94
-0.42632 -5.83353 3.18651 112 108 96
-0.306961 -6.10564 3.80601 72 62 53
-0.110051 -5.99088 3.99936 81 80 75
-0.170336 -2.87772 2.77658 148 142 128
-0.0325274 -3.9306 3.78806 169 163 149
0.0163615 -3.74121 3.74776 138 134 125
0.78873 -6.41004 4.73316 105 101 90
0.77372 -6.82037 4.73924 113 109 100
1.04235 -6.20887 4.60594 110 106 94
2.04375 -1.22852 5.07424 0 0 0
1.92589 1.28237 4.49729 0 0 0
2.33926 -1.13281 5.2885 0 0 0
7.22673e+08 2.37262e+08 -1.06736e+09 69 66 61
1.50911e+09 4.80858e+08 -2.2488e+09 26 27 21
1.47488e+09 5.02176e+08 -2.20339e+09 67 68 62
1.47488e+09 5.02176e+08 -2.20339e+09 67 68 62
-6.02093e-11 -1.10025e-11 9.28957e-11 21 23 18
-3.72849 -2.02419 6.17004 153 153 153
-5.16424e-11 -1.95375e-11 8.64415e-11 96 101 104
-2.38417 2.52669 4.38018 220 221 216
2.40751e+06 1.52533e+06 -4.88066e+06 207 207 199
-1.9309 -2.03272 5.20449 210 209 204
-1.6283 1.35224 6.14772 227 227 225
-1.60701 1.33817 6.19167 226 227 222
-1.55987 1.29747 6.29009 227 228 223
-1.52829 1.4777 6.35499 220 221 216
-1.52829 1.4777 6.35499 220 221 216
-1.4621 1.28252 6.5095 233 232 227
-1.43583 1.38734 6.55633 152 149 144
-1.33475 1.05957 6.82183 162 163 157
-1.32538 1.23768 6.82619 161 162 154
-0.160616 -2.48959 1.90889 61 61 53
-0.324164 -5.05489 3.88275 63 64 56
-0.319674 -4.93186 3.88242 101 101 91
-0.28088 -6.01514 3.94306 102 93 84
-0.102313 -2.89129 1.94202 107 103 94
-0.0901834 -3.07296 1.95178 106 101 95
-0.122352 -6.11957 4.02779 122 118 107
-0.110165 -5.17546 3.99516 18 19 13
-0.0320405 -6.0214 4.0758 113 109 98
-0.00189178 -6.17496 4.0978 86 85 80
0.0201955 -6.02528 4.10551 82 81 77
0.0349033 -2.99166 2.0807 44 46 43
0.265863 -5.22908 4.23618 107 106 102
0.297798 -6.33572 4.27901 48 53 49
0.240359 -3.24349 2.36089 91 91 83
0.28009 -3.10437 2.49987 102 95 85
0.332673 -2.91986 2.61412 118 110 99
1.14114 1.09433 3.52244 0 0 0
1.80269 -0.521096 5.18612 0 0 0
2.35969 -1.27924 6.01915 0 0 0
2.31577 -1.79906 5.41948 0 0 0
-2.20439 -2.26707 4.237 219 226 234
-0.74241 -0.098088 9.32818 137 130 120
1.91807e+09 1.17478e+09 -6.43298e+09 209 206 199
-1.39168 -0.412223 2.74213 208 205 196
1.59139e+09 2.19067e+09 -5.60323e+09 217 214 207
-0.74241 -0.098088 9.32818 219 216 209
-0.228968 -5.92139 3.92175 118 111 101
-0.350083 -4.15187 2.55819 116 109 99
-0.123866 -6.0135 3.98146 81 80 75
-0.0860274 -6.18428 4.02179 77 76 71
0.585246 -5.35515 4.5156 123 116 106
0.133858 -4.24158 3.06108 29 31 26
1.45126e+06 8.12935e+06 -1.34062e+07 0 0 0
-2.76855 -0.714597 3.46806 72 67 61
-2.69311 -1.38467 3.4166 73 71 59
33.2498 3.43397 -36.9291 96 101 97
-3.08367e+07 -5.43069e+06 3.49399e+07 102 99 94
-90.1018 -11.8483 102.67 131 117 116
1.28766e+07 1.67885e+06 -1.50978e+07 216 218 215
-3.89239e+09 -6.63201e+08 4.88109e+09 222 228 240
-4.29803e+09 -3.0564e+08 5.31676e+09 159 162 151
-4.29803e+09 -3.0564e+08 5.31676e+09 159 162 151
-31.7135 -3.97631 38.4739 143 147 132
-2.47014 -1.28117 3.55463 214 216 215
7.82572 -0.309094 -9.36128 218 217 215
-2.1712 -1.18544 3.70211 184 182 183
-2.15353 -1.19843 3.70991 186 184 185
-4.50497e+09 4.51751e+08 7.37895e+09 40 40 38
-0.500483 -3.75222 2.09932 38 35 30
0.276111 -0.665117 0.478354 214 210 207
0.276111 -0.665117 0.478354 214 210 207
0.11097 -1.21159 0.907097 214 215 209
-1.01551 -5.91018 3.72678 17 23 11
-0.00776506 -1.79686 1.30477 83 83 75
-0.925784 -5.91345 3.7653 38 34 23
-3.2463 -4.0607 16.8561 45 43 31
-0.772223 -5.3857 3.88553 71 71 63
-3.64092 -4.18844 17.5317 99 104 100
-0.69227 -6.73191 3.8644 46 42 31
-0.119162 -3.74889 2.84375 87 80 72
-0.364148 -5.04419 3.89186 87 80 72
-0.268617 -6.27861 3.97473 17 19 16
-0.2914 -4.90585 3.92698 66 69 60
-0.226848 -6.28298 3.99548 86 92 82
-0.240513 -4.51706 3.93742 205 206 200
-0.150788 -5.92173 4.02305 72 73 65
-0.145889 -6.06779 4.02698 64 59 55
-0.126427 -4.92056 3.99854 115 102 94
-0.126427 -4.92056 3.99854 115 102 94
-0.0239497 -6.30134 4.09665 25 28 21
-0.0239497 -6.30134 4.09665 25 28 21
-0.00761009 -4.48712 4.02569 211 210 206
0.050615 -5.9373 4.12514 162 158 146
0.0479061 -3.87539 4.03794 21 22 17
0.0683047 -4.64524 4.08021 188 182 170
0.116707 -6.32363 4.17085 136 132 123
0.235788 -7.19662 4.24133 79 80 75
0.224857 -6.33874 4.22846 114 111 104
0.224857 -6.33874 4.22846 114 111 104
0.260071 -7.26095 4.25785 79 80 75
0.221752 -5.95393 4.2173 125 126 120
0.289739 -7.21767 4.27674 85 74 70
0.259739 -5.95825 4.2393 111 112 106
0.255389 -5.28773 4.21626 142 142 132
0.291714 -5.96617 4.25788 108 109 103
0.368923 -7.17586 4.32922 122 123 117
0.338732 -6.06973 4.28728 116 117 111
0.395818 -7.16878 4.34685 98 99 93
0.4297 -7.32707 4.37161 88 90 79
0.365254 -4.99041 4.27488 135 130 124
0.395365 -5.99008 4.31925 110 111 105
0.397281 -4.80414 4.27619 115 103 91
0.471611 -7.35413 4.4016 99 99 91
0.40768 -5.04747 4.3006 141 142 136
0.467379 -5.99969 4.36297 125 121 110
0.59531 -4.91981 4.41916 132 124 113
1.06369 -7.0658 4.65524 0 0 0
1.42679 -7.86131 4.95226 0 0 0
1.43803 -7.94359 4.95898 0 0 0
1.43803 -7.94359 4.95898 0 0 0
1.19819 -6.80523 4.73698 0 0 0
1.45233 -7.86001 4.96761 0 0 0
1.5368 -7.94004 5.01774 0 0 0
1.31704 -6.87825 4.80505 0 0 0
1.57115 -7.97168 5.03788 0 0 0
1.37946 -6.88595 4.8383 0 0 0
1.44248 -6.10916 4.89019 0 0 0
1.48556 -6.89413 4.89832 0 0 0
1.5068 -7.20723 4.90946 0 0 0
1.5068 -7.20723 4.90946 0 0 0
1.55939 -7.21407 4.9384 0 0 0
1.55057 -0.646661 4.75166 0 0 0
1.60296 -0.553247 4.80823 0 0 0
1.60296 -0.553247 4.80823 0 0 0
1.63884 -0.834433 4.80979 0 0 0
1.79579 -0.876556 4.93886 0 0 0
2.01689 -0.657019 5.14416 0 0 0
2.08447 -0.335601 5.18337 0 0 0
2.35735 -0.360838 5.29046 0 0 0
2.39544 0.337572 5.31316 0 0 0
2.4238 0.255226 5.33118 0 0 0
