ply
format ascii 1.0 
element vertex 1321
property float32 x 
property float32 y 
property float32 z
property uchar red  
property uchar green
property uchar blue
element face 0
property list uchar int vertex_indices
end_header
1.22809 -1.46129 3.50716 128 122 110
1.65498 -3.64102 4.73654 107 100 90
1.65498 -3.64102 4.73654 107 100 90
1.53064 -2.55343 4.27062 108 99 90
1.16988 -0.00169284 3.00937 101 94 86
1.21113 0.00375822 3.0623 0 0 0
1.46812 -1.09323 3.69143 0 0 0
2.27197 -6.50671 5.6059 0 0 0
1.25439 0.330779 3.01263 0 0 0
1.89484 -2.92602 4.5513 0 0 0
1.17793 0.709954 2.8068 0 0 0
2.46371 -4.99906 5.18475 0 0 0
2.42676 -4.8108 5.09704 0 0 0
2.44861 -4.6426 5.06856 0 0 0
2.50978 -4.90518 5.19209 0 0 0
2.21499 -2.64202 4.33242 0 0 0
2.58889 -5.64216 4.744 0 0 0
3.06616 -6.72297 5.80843 0 0 0
2.49501 -5.21306 4.522 0 0 0
3.43693 -6.30654 6.35838 0 0 0
3.04224 -5.09312 5.62542 0 0 0
2.56237 -5.32642 4.52752 0 0 0
3.20788 -6.78331 5.91485 0 0 0
3.13846 -4.9594 5.64357 0 0 0
2.77131 -5.15296 4.79406 0 0 0
3.30682 -6.25633 5.91295 0 0 0
3.27057 -5.16691 5.805 0 0 0
2.85553 -5.15828 4.83763 0 0 0
1.84402 0.383781 3.13057 0 0 0
2.19393 0.546821 3.65189 0 0 0
2.2041 0.502468 3.65841 0 0 0
1.97821 1.22163 3.25598 0 0 0
2.82592 0.667619 4.63034 0 0 0
2.22695 1.36131 3.5886 0 0 0
2.38048 0.313069 3.82485 0 0 0
2.45113 0.520892 3.84916 0 0 0
2.26775 1.51819 3.54505 0 0 0
2.55834 0.516731 4.01109 0 0 0
2.25234 1.60969 3.49932 0 0 0
2.43474 0.592103 3.75601 0 0 0
2.24186 1.19145 3.45359 0 0 0
2.19097 1.80706 3.37026 0 0 0
2.08323 2.06202 3.17572 0 0 0
1.87758 2.53178 2.83899 0 0 0
2.66535 0.667977 4.02632 0 0 0
2.58523 0.633972 3.89896 0 0 0
2.66802 0.879057 3.9741 0 0 0
2.53645 0.852524 3.77212 0 0 0
2.78248 0.325222 4.12434 0 0 0
2.77111 0.343726 4.10724 0 0 0
3.10847 -0.252902 4.60051 0 0 0
2.71268 0.5566 4.00985 0 0 0
2.65142 0.753274 3.90917 0 0 0
2.37451 1.29038 3.49264 0 0 0
2.53237 1.0206 3.72141 0 0 0
1.99673 2.19679 2.89631 0 0 0
2.39116 1.45167 3.46507 0 0 0
1.80907 2.56979 2.60802 0 0 0
2.16667 1.95338 3.11173 0 0 0
2.43065 1.46116 3.4902 0 0 0
2.498 1.34615 3.57168 0 0 0
2.53207 1.45772 3.62083 0 0 0
2.36315 1.65497 3.35816 0 0 0
2.78377 0.690892 3.94799 0 0 0
1.94212 2.48315 2.75198 0 0 0
1.8983 2.56267 2.68685 0 0 0
2.87723 0.351093 4.07068 0 0 0
1.93414 2.52995 2.72911 0 0 0
2.80602 0.721322 3.95258 0 0 0
2.81962 0.69303 3.97162 0 0 0
1.93305 2.54361 2.71943 0 0 0
2.51643 1.30288 3.53681 0 0 0
3.34943 -0.235266 4.70576 0 0 0
2.92684 0.436666 4.1102 0 0 0
2.67607 0.99058 3.75555 0 0 0
2.70302 0.888997 3.90927 0 0 0
2.3688 1.6372 3.32054 0 0 0
1.97219 2.5017 2.75743 0 0 0
2.10762 2.23593 2.94438 0 0 0
2.75578 0.883291 3.84858 0 0 0
2.68546 1.07412 3.74991 0 0 0
2.27979 1.83641 3.18339 0 0 0
2.71756 0.970555 3.78071 0 0 0
2.00749 2.45106 2.7883 0 0 0
2.29325 1.87994 3.1716 0 0 0
2.42723 1.67589 3.34605 0 0 0
2.59317 1.36307 3.56856 0 0 0
1.97722 2.48506 2.71932 0 0 0
2.79817 0.890912 3.847 0 0 0
2.2304 2.06911 3.06055 0 0 0
2.86341 0.866619 3.90441 0 0 0
2.91396 0.768972 3.96897 0 0 0
2.91396 0.768972 3.96897 0 0 0
2.04635 2.48113 2.78241 0 0 0
2.86687 0.906883 3.89423 0 0 0
2.31321 1.95421 3.14226 0 0 0
2.95173 0.775288 3.99717 0 0 0
1.85773 2.64635 2.51619 0 0 0
1.81098 2.75107 2.44438 0 0 0
3.53408 0.0246464 4.74787 0 0 0
3.42397 0.171381 4.59599 0 0 0
2.72213 1.38797 3.64265 0 0 0
2.63181 1.63642 3.80219 0 0 0
2.48751 1.82557 3.32376 0 0 0
3.19791 0.608339 4.24752 0 0 0
2.82871 1.37801 3.74623 0 0 0
2.75505 1.53635 3.64105 0 0 0
2.00951 2.57295 2.65403 0 0 0
2.00951 2.57295 2.65403 0 0 0
2.98326 1.47678 3.93438 0 0 0
2.89339 1.47908 3.8325 0 0 0
3.28631 0.540778 4.327 0 0 0
3.02975 1.06402 3.98487 0 0 0
2.61 1.84023 3.42806 0 0 0
2.65707 1.73173 3.48762 0 0 0
3.34511 0.44417 4.36643 0 0 0
3.34511 0.44417 4.36643 0 0 0
2.34527 2.33318 3.06085 0 0 0
2.47235 2.09347 3.22424 0 0 0
2.4625 2.15758 3.16732 0 0 0
2.11266 2.6158 2.71624 0 0 0
2.19401 2.72114 2.72468 0 0 0
-0.634924 1.51082 0.962076 128 128 126
-0.664556 1.35567 1.01925 42 37 34
-0.634866 1.40695 1.00458 215 214 209
-0.612304 1.51655 0.975639 151 151 151
-0.748083 0.846412 1.23781 200 199 195
-1.46505 -0.633904 3.29669 213 220 228
-0.932784 -0.224576 1.52076 220 227 235
-0.826272 0.289537 1.40556 179 180 175
-0.87358 -0.0185507 1.48976 220 227 235
-0.544914 1.40564 1.06281 45 47 42
-0.799858 -0.21979 1.58723 217 214 209
-0.726815 -0.00630288 1.66245 205 201 192
-1.99813 0.945197 8.77694 21 23 18
-0.636402 -0.0711814 1.65351 212 209 200
-0.630033 -0.122459 1.72719 145 135 126
-1.03702 0.190795 3.50266 217 214 207
-0.419843 0.326096 1.7125 209 206 199
-0.403794 0.290861 1.73728 210 209 204
-0.144852 1.29515 1.21743 10 15 9
-0.152142 0.942793 1.3261 164 164 156
-0.119265 1.63639 1.11772 10 12 9
-0.129988 1.04147 1.30826 189 186 179
-0.183092 -4.8787 3.22298 71 54 46
0.0497443 1.48319 1.30481 30 31 26
0.362719 -4.18437 4.10119 113 106 96
0.383775 -3.11662 3.6565 23 24 19
0.133932 -5.11801 3.41092 109 105 94
0.127792 -5.08676 3.28182 112 108 96
0.42515 -5.49484 4.19226 72 62 53
0.69982 -4.96322 4.13917 81 80 75
0.478977 -2.14063 2.98426 148 142 128
0.682784 -2.64674 3.66939 169 163 149
0.720631 -2.43178 3.57355 138 134 125
2.11257 -5.57729 5.30552 105 101 90
2.15171 -6.21401 5.45238 113 109 100
2.3348 -5.18682 4.95781 110 106 94
2.74355 0.386589 4.06145 0 0 0
2.23208 2.01779 3.17448 0 0 0
2.79723 0.738211 3.9925 0 0 0
8.4202e+09 1.33656e+09 -1.39483e+10 69 66 61
3.73797e+09 6.5561e+08 -6.16631e+09 26 27 21
6.88461e+09 1.08458e+09 -1.12596e+10 67 68 62
6.88461e+09 1.08458e+09 -1.12596e+10 67 68 62
-4.1974e-13 1.679e-13 7.21872e-13 21 23 18
-3.63516 0.104861 6.8725 153 153 153
-3.17335e-13 7.38468e-14 6.09512e-13 96 101 104
-2.07175 2.37461 4.12261 220 221 216
4.12897e+09 2.41662e+08 -9.64368e+09 207 207 199
-1.77287 -0.352236 7.11662 210 209 204
-0.960017 1.60684 6.10779 227 227 225
-0.930639 1.59521 6.15909 226 227 222
-22278.1 244797 319127 227 228 223
-87066.5 1.75945e+06 2.02881e+06 220 221 216
-87066.5 1.75945e+06 2.02881e+06 220 221 216
-162895 4.1781e+06 5.21631e+06 233 232 227
-1.67132 2.39712 4.21033 152 149 144
-0.536611 1.37661 6.93305 162 163 157
-1.58852 2.38974 4.23745 161 162 154
0.196777 -2.06348 2.07174 61 61 53
0.392497 -4.07784 4.09745 63 64 56
0.303204 -3.812 4.16352 101 101 91
0.47491 -5.26927 4.29573 102 93 84
0.275673 -2.46616 2.07718 107 103 94
0.291703 -2.64943 2.07639 106 101 95
0.715309 -5.34681 4.39245 122 118 107
0.681516 -4.13775 4.18466 18 19 13
0.82463 -5.15249 4.36531 113 109 98
0.894775 -5.37407 4.47047 86 85 80
0.895542 -5.11507 4.37395 82 81 77
0.481019 -2.52594 2.22662 44 46 43
1.19793 -4.0452 4.44881 107 106 102
1.26746 -5.35652 4.52958 48 53 49
0.80057 -2.68885 2.51728 91 91 83
1.54484 -4.35539 4.67205 102 95 85
0.976315 -2.24646 2.801 118 110 99
1.33229 1.53973 2.27919 0 0 0
2.36083 0.589151 3.86853 0 0 0
3.29023 0.666576 4.93914 0 0 0
3.00471 -0.0494133 4.26165 0 0 0
-1.97307 0.28496 4.80434 219 226 234
-0.151704 0.899556 8.2696 137 130 120
2.72801e+09 1.83023e+09 -6.02314e+09 209 206 199
-1.22924 0.57522 3.59514 208 205 196
1.94982e+09 2.42658e+09 -5.61391e+09 217 214 207
1.25781e+09 1.55343e+09 -6.07667e+09 219 216 209
0.51511 -5.18106 4.18705 118 111 101
0.189674 -3.63723 2.76228 116 109 99
0.677429 -5.27335 4.32517 81 80 75
0.74782 -5.37728 4.31269 77 76 71
1.58079 -4.10344 4.6423 123 116 106
0.894948 -3.50764 3.26031 29 31 26
3.694e+08 7.87597e+08 -1.32245e+09 0 0 0
-2.68704 0.829099 3.58449 72 67 61
-2.65548 -0.201569 3.59139 73 71 59
20.8333 7.97909 -28.5784 96 101 97
-3.13249e+08 -7.21971e+07 5.20406e+08 102 99 94
-85.5376 24.3262 109.758 131 117 116
-1.02448e+09 -3.0649e+08 1.75371e+09 216 218 215
-3.49823e+09 -5.48654e+08 5.24422e+09 222 228 240
-3.99712e+09 -1.10989e+08 5.65968e+09 159 162 151
-4.39402e+09 6.88214e+07 6.04517e+09 159 162 151
-29.8845 9.66622 41.3337 143 147 132
-2.38151 0.465931 3.75194 214 216 215
9.50868 -4.91386 -13.578 218 217 215
-2.01647 0.579265 3.95972 184 182 183
-1.99622 0.570025 3.97289 186 184 185
-3.86625e+09 -2.05605e+08 7.93726e+09 40 40 38
-0.108907 -2.50782 1.61614 38 35 30
0.452986 0.0343831 -0.309275 214 210 207
0.452986 0.0343831 -0.309275 214 210 207
0.331692 -0.331219 0.165916 214 215 209
-0.457355 -4.83989 3.74198 17 23 11
0.25929 -0.748126 0.589395 83 83 75
-0.401483 -5.32994 4.19067 38 34 23
9.84265e+08 2.46851e+09 -6.18988e+09 45 43 31
-0.174722 -4.60315 4.2688 71 71 63
4.94264e+08 1.04953e+09 -2.73478e+09 99 104 100
-0.0586738 -6.38268 4.38451 46 42 31
0.370779 -3.15243 3.13906 87 80 72
0.347575 -4.0749 4.12647 87 80 72
0.535222 -5.61247 4.36342 17 19 16
0.349875 -3.73794 4.20267 66 69 60
0.591317 -5.58342 4.34012 86 92 82
0.497144 -3.41165 4.09602 205 206 200
0.676902 -5.09821 4.34393 72 73 65
0.70214 -5.29071 4.37617 64 59 55
0.589691 -3.76069 4.26793 115 102 94
0.662255 -3.84436 4.17433 115 102 94
0.891323 -5.56126 4.48104 25 28 21
0.891323 -5.56126 4.48104 25 28 21
0.793809 -3.28644 4.10172 211 210 206
0.965133 -5.05653 4.41122 162 158 146
0.829169 -2.52742 3.93695 21 22 17
0.901624 -3.43871 4.15982 188 182 170
1.08253 -5.53821 4.54911 136 132 123
1.29859 -6.62673 4.68202 79 80 75
1.22641 -5.51982 4.60095 114 111 104
1.22641 -5.51982 4.60095 114 111 104
1.32497 -6.782 4.77708 79 80 75
1.17509 -4.94808 4.42607 125 126 120
1.36606 -6.7103 4.78974 85 74 70
1.22401 -4.93729 4.44247 111 112 106
1.18655 -4.23609 4.50483 142 142 132
1.3255 -5.07281 4.48248 108 109 103
1.4811 -6.62787 4.84104 122 123 117
1.35632 -5.11635 4.59797 116 117 111
1.52057 -6.61045 4.85963 98 99 93
1.58408 -6.83258 4.91929 88 90 79
1.30569 -3.7821 4.4478 135 130 124
1.42821 -4.98972 4.60962 110 111 105
1.31108 -3.53254 4.44921 115 103 91
1.64971 -6.86055 4.95916 99 99 91
1.36508 -3.82436 4.46553 141 142 136
1.56361 -4.93847 4.6715 125 121 110
1.57592 -3.56294 4.41654 132 124 113
2.47254 -6.31238 5.15913 0 0 0
3.21344 -6.93997 5.72155 0 0 0
3.2502 -7.04892 5.75401 0 0 0
3.2502 -7.04892 5.75401 0 0 0
2.68156 -5.74628 5.14797 0 0 0
3.24682 -6.92632 5.73343 0 0 0
3.38049 -6.99975 5.79916 0 0 0
2.84039 -5.79898 5.20497 0 0 0
3.43462 -7.0283 5.82539 0 0 0
2.82579 -5.7675 4.69774 0 0 0
2.82649 -4.77447 5.07375 0 0 0
3.05976 -5.75661 5.28817 0 0 0
3.15588 -6.17201 5.38372 0 0 0
3.15588 -6.17201 5.38372 0 0 0
3.23893 -6.16279 5.44146 0 0 0
1.9822 0.975933 4.08894 0 0 0
2.05889 1.0262 4.06089 0 0 0
2.11928 0.535479 3.50477 0 0 0
2.06152 0.830695 4.11731 0 0 0
2.12507 1.0462 4.04888 0 0 0
2.37594 1.00852 4.13111 0 0 0
2.21779 2.02619 3.66222 0 0 0
2.87643 0.831821 3.9264 0 0 0
2.85199 1.25184 3.85116 0 0 0
2.88601 1.21257 3.87623 0 0 0
-1.07779e+09 -1.4915e+08 1.94536e+09 21 23 18
7.19064e+07 1.27308e+07 -1.27721e+08 130 131 133
1.48581e+08 2.8035e+07 -2.74759e+08 28 30 27
-3.295e+09 -8.35217e+08 6.36175e+09 109 105 104
-3.43167 0.00842302 8.73229 206 203 196
-0.166913 2.30668 5.21211 177 176 171
-3.51483e+08 -2.20312e+09 -7.70539e+08 120 117 108
-3.27704e+07 6.36128e+08 -4.19705e+08 116 112 103
0.897973 -4.80819 4.21882 43 43 41
1.21586 -5.1555 4.36105 48 53 49
1.46099 -4.86677 4.52385 97 98 92
5.84983 7.46501 12.1961 0 0 0
2.61226 -4.47439 4.82651 0 0 0
2.58991 2.40018 2.84336 0 0 0
2.53325 -5.17289 4.64556 0 0 0
-4.04226 3.99022 10.6391 209 208 203
-4.2605 -0.197536 16.313 216 213 204
2.21878e+07 8.01628e+08 -5.09959e+08 20 22 17
1.2256e+08 8.62632e+08 -3.83622e+08 6 22 12
-1.68699 4.8827 -4.24178 32 34 31
1.43206 -1.87029 2.8898 0 0 0
-5.38462e+09 7.01037e+08 6.79911e+09 119 118 113
-2.74707 0.666471 3.84206 97 96 91
-3.92927 0.0283363 5.46913 197 203 199
-3.79285e+09 6.60649e+08 5.02155e+09 216 218 215
-2.2533 0.744401 3.3668 216 218 215
-12.0338 -0.865822 21.0746 232 232 230
-11.844 -1.50428 21.548 197 197 197
-11.3635 -1.837 22.4685 185 185 185
-0.736924 0.0366768 2.13129 198 198 200
-0.699668 0.0453242 2.08589 203 201 202
0.431374 -4.3681 4.11992 87 88 80
0.800663 -4.81438 4.14571 71 72 66
2.06501 -3.69099 4.37429 0 0 0
6.34422e+08 2.28154e+07 -5.04186e+08 0 0 0
2.58991 2.40018 2.84336 0 0 0
2.55266 -5.49768 4.51721 0 0 0
0.986086 -1.20698 1.08587 0 0 0
1.66561 2.4866 3.52178 0 0 0
1.69047 2.49422 3.51136 0 0 0
1.10458 -1.45449 1.20705 0 0 0
1.7851 2.50415 3.47387 0 0 0
1.82077 2.50385 3.45829 0 0 0
2.58991 2.40018 2.84336 0 0 0
2.09114 1.96461 3.71492 0 0 0
2.13509 1.9223 3.726 0 0 0
3.11657 1.39624 4.42926 0 0 0
-2.75702 2.70237 3.91025 88 84 75
-2.75702 2.70237 3.91025 88 84 75
-2.69096 -12.8904 3.87135 130 146 146
-5.21848 -29.0032 -0.516519 164 177 186
-4.7977 -26.499 -0.0719768 37 38 30
-5.2973 -33.2885 -1.03537 164 174 184
-5.19451 -32.0438 -0.851414 163 173 183
-5.31554 -34.4847 -1.18909 166 174 185
-1.8306 -10.2384 4.98603 165 173 184
-5.04374 -31.4575 -0.728259 165 173 184
-2.55363 2.23799 3.91574 62 66 51
-2.23852 -14.9857 4.00612 163 171 182
-2.19491 -15.3483 4.02648 162 172 182
-5.02474 -38.284 -1.5136 161 171 181
-2.63021 0.497291 3.67457 188 185 176
-2.57107 0.908612 3.74481 197 190 180
-2.62369 0.00711883 3.61173 185 181 170
-2.14099 -12.3756 3.99822 21 26 19
-4.54162 -35.7899 -1.04157 165 171 183
-4.54162 -35.7899 -1.04157 165 171 183
-2.56918 0.352734 3.67719 194 187 177
-2.51688 1.08897 3.79102 94 84 72
-4.05341 -29.8904 -0.170019 36 29 36
-2.50965 0.851739 3.76168 91 83 70
-2.52628 0.854518 3.73381 91 83 70
-2.52558 0.451834 3.70726 187 183 172
-1.96919 -14.0267 4.04235 25 24 20
-3.13591 -15.2231 1.88283 92 102 93
-3.47489 -22.114 0.959132 103 99 98
-3.42707 -21.4287 1.05984 15 24 21
-2.51921 0.239804 3.67908 171 165 153
-2.43812 1.64599 3.8829 206 203 198
-3.4402 -22.3476 0.94384 29 34 27
-2.45709 1.09753 3.81408 198 195 186
-1.95995 -12.5409 4.02394 17 18 12
-3.46043 -24.0429 0.738678 17 20 13
-2.51233 -0.281135 3.63106 184 180 169
-3.39834 -22.8093 0.904616 25 31 21
-2.43234 1.06242 3.8168 201 197 186
-3.11569 -19.1075 1.43929 27 29 18
-2.43246 1.01319 3.79153 208 203 197
-2.42814 0.916687 3.77785 207 204 197
-2.39526 1.10524 3.8365 201 194 184
-2.38551 1.29938 3.86441 213 212 207
-2.38551 1.29938 3.86441 213 212 207
-2.3218 2.57364 4.04529 102 95 85
-2.38359 1.01569 3.83026 206 203 194
-2.71286 -12.2809 2.40258 184 190 202
-2.30787 2.58731 4.05175 117 123 113
-2.00462 -0.084105 4.43766 199 186 180
-2.41608 -0.356629 3.65532 199 186 180
-2.36449 1.0036 3.83716 203 200 191
-2.29466 2.50734 4.04787 122 125 114
-2.2904 2.58302 4.05969 108 108 98
-2.40352 -0.419868 3.65043 201 193 182
-2.33696 1.38157 3.89232 203 199 190
-2.29092 2.6481 4.05935 116 118 107
-2.37276 0.792401 3.78711 205 202 195
-2.28252 2.60159 4.06545 119 120 112
-2.28789 2.47639 4.04773 81 81 73
-2.58569 -11.5363 2.53993 185 191 203
-2.2926 2.36277 4.02823 123 123 115
-2.39402 0.241575 3.69636 209 202 194
-2.31162 1.67615 3.94239 179 179 167
-2.28829 2.26156 4.02222 122 123 115
-2.52849 -11.08 2.61514 184 192 203
-2.5076 -10.4479 2.69745 190 196 208
-2.27381 2.33028 4.03825 107 104 95
-2.27508 2.28242 4.03035 87 82 76
-2.30679 1.48787 3.91376 182 183 169
-2.27493 2.00733 3.99987 67 65 52
-2.32217 0.631474 3.80995 207 205 193
-2.32217 0.631474 3.80995 207 205 193
-2.35923 0.321125 3.71567 207 204 195
-2.27476 1.86199 3.97649 81 79 67
-2.27634 1.61899 3.95056 90 81 72
-2.27637 1.51469 3.93838 73 67 53
-2.25375 2.00934 4.00771 83 80 73
-2.26933 1.32657 3.92022 91 85 71
-2.28481 1.03468 3.86055 181 177 168
-2.30118 0.253476 3.76096 209 206 197
-2.26024 0.99046 3.88277 118 127 110
-2.27336 0.959247 3.85629 185 196 179
-2.27336 0.959247 3.85629 185 196 179
-2.27504 0.832884 3.83555 187 184 177
-2.24704 0.908437 3.8761 86 80 66
-2.24246 0.982735 3.88966 82 79 62
-2.2639 0.525017 3.7973 181 174 166
-2.21997 1.51708 3.96071 94 92 80
-2.19291 2.04812 4.03447 69 61 50
-2.1975 -0.703909 3.72874 201 199 187
-2.10422 1.28987 3.97639 68 69 55
-2.02074 0.56416 3.91729 109 103 89
-2.01179 1.64544 4.07533 116 116 108
-1.9959 0.507801 3.91855 82 76 62
-1.10371 -8.71876 2.94057 71 72 66
-1.10371 -8.71876 2.94057 71 72 66
-0.929806 -8.26278 3.06533 43 39 36
-1.27638 -2.65908 3.71126 116 105 101
-0.580021 -11.2394 2.87414 55 54 52
-0.580021 -11.2394 2.87414 55 54 52
-1.17496 -2.59857 3.85434 193 192 187
-1.17496 -2.59857 3.85434 193 192 187
-0.545185 -10.9448 2.92272 178 157 166
-1.09644 -3.5333 3.64717 188 192 178
-0.714782 -7.59552 3.2307 33 30 23
-0.27692 -11.6342 2.92764 28 30 17
-0.593287 -8.195 3.19046 41 38 33
-0.241982 -11.5013 2.95075 83 84 68
-0.573545 -6.41436 3.82801 69 70 62
-0.208539 -11.2409 3.00159 34 30 19
-0.356182 -8.57659 3.21376 105 110 106
-0.678106 -4.68742 3.65491 26 31 25
-0.274991 -8.5719 3.24481 27 28 22
-0.274991 -8.5719 3.24481 27 28 22
-0.380122 -7.40549 3.37172 16 21 15
-0.307105 -6.48586 3.86765 8 10 5
-0.723114 -3.60895 3.75937 211 208 201
-1.43976 2.94808 4.36845 28 31 24
-0.653754 -3.71435 3.89744 189 185 182
-0.605406 -4.08898 3.88122 179 177 182
-0.620314 -4.23206 3.72495 129 125 122
-0.620314 -4.23206 3.72495 129 125 122
-0.40384 -5.72953 3.77911 70 66 63
-0.454897 -5.60769 3.62034 47 47 39
0.0825237 -8.23503 4.18178 42 38 29
-0.215671 -6.71916 3.87435 18 24 12
-0.225114 -7.65884 3.38984 18 24 12
-1.31482 2.26826 4.34865 159 160 155
0.184875 -8.75765 4.10131 66 65 63
-0.303863 -6.39898 3.55404 33 41 30
-0.29935 -6.44182 3.54822 33 41 30
-1.35673 2.71265 4.38739 214 213 208
-1.2863 2.27406 4.37715 160 162 159
-1.34275 2.69524 4.39233 212 212 204
-1.34797 2.7315 4.39066 215 215 207
-1.16342 1.30673 4.3051 168 172 173
-1.32749 2.61685 4.38986 185 186 181
-1.27445 2.26936 4.38228 130 132 129
-1.2018 1.73405 4.3434 205 204 209
-1.26526 2.23006 4.37305 193 192 190
-0.00310482 -7.27357 3.89822 150 149 144
-1.29076 2.49113 4.40417 32 33 27
-1.18779 1.67511 4.3435 180 178 181
-1.18779 1.67511 4.3435 180 178 181
-1.09394 0.970764 4.28741 21 27 13
-1.24721 2.20083 4.38564 179 180 175
-1.14935 1.522 4.3397 45 46 30
-1.03778 0.674745 4.27407 35 35 23
-1.03778 0.674745 4.27407 35 35 23
-0.330128 -4.78293 3.8144 49 41 30
-1.26192 2.43994 4.41217 29 34 30
-0.614674 -2.35361 4.06212 203 202 198
-0.919592 -0.110404 4.21383 209 210 204
-0.919592 -0.110404 4.21383 209 210 204
-0.0707728 -6.77949 3.59983 69 69 69
-0.576256 -2.71236 3.99721 13 24 16
-0.515803 -3.0014 4.03879 207 207 199
-0.519966 -2.99675 4.03016 207 207 199
-0.109513 -5.665 4.06525 52 49 42
-0.492182 -3.27933 3.95305 213 210 205
-0.613251 -2.32238 4.04223 205 204 200
0.0581247 -7.64331 3.5194 62 68 64
0.0581247 -7.64331 3.5194 62 68 64
-0.632797 -2.0939 4.05451 212 211 206
-0.632797 -2.0939 4.05451 212 211 206
0.0100183 -6.91552 3.61883 78 84 74
-0.504249 -2.76445 4.06495 167 167 157
-0.519408 -2.73762 4.02133 106 119 109
0.0503079 -6.60004 3.92599 33 35 24
0.0503079 -6.60004 3.92599 33 35 24
-0.97502 0.652274 4.29137 39 40 34
-0.97905 0.742107 4.30483 28 29 21
-1.27886 2.92069 4.45677 32 33 27
-0.272804 -4.32056 3.89519 150 147 140
-0.272804 -4.32056 3.89519 150 147 140
-0.0840845 -5.69346 3.77811 35 35 25
-1.04211 1.33007 4.36299 14 16 11
-0.922304 0.487305 4.29484 41 42 28
-0.0207692 -5.40577 4.15378 33 33 21
-0.189315 -4.28289 4.08773 48 51 42
-0.897975 0.490483 4.29428 62 62 54
-0.169509 -4.51678 3.91858 44 25 21
-0.412233 -2.74756 4.09043 168 169 161
0.170692 -6.32747 4.14669 56 58 47
-0.434931 -2.65524 4.05795 36 44 33
-0.433542 -2.6512 4.06147 31 39 28
-0.150376 -4.55171 3.9215 36 16 9
-0.351806 -3.09819 4.0748 211 210 205
-0.635856 -1.17781 4.19171 29 31 18
-0.413721 -2.67425 4.09515 134 142 129
-0.690833 -0.777058 4.22633 172 149 141
-0.358649 -3.0333 4.03472 208 207 202
-0.355503 -2.98115 4.08228 208 207 202
-0.344196 -3.03759 4.07892 212 211 206
-0.252852 -3.65227 3.99432 197 196 192
-0.104827 -4.3999 4.1074 95 97 86
-0.0987925 -4.58187 3.94809 187 174 165
-0.601529 -1.17922 4.2076 67 61 49
-0.476527 -1.97066 4.14997 215 212 205
0.0316349 -5.12281 4.08689 17 20 13
-0.370307 -2.59353 4.13492 40 53 44
-0.0728942 -4.40257 4.1266 192 183 174
-0.107753 -4.17974 4.11878 177 180 173
0.20088 -5.96217 4.18201 63 65 54
-0.357955 -2.67656 4.09841 141 143 132
-0.115366 -4.046 4.15369 153 155 150
-0.110673 -4.11175 4.1189 153 155 150
-0.299026 -2.95489 4.12064 209 208 203
-0.32018 -2.82777 4.12426 201 201 193
-0.0892603 -4.32606 4.00505 179 179 171
-0.0809455 -4.39982 3.97937 179 179 171
-0.578384 -1.12992 4.2221 75 72 63
0.577907 -8.69134 3.67683 105 106 100
0.152333 -5.94293 3.81628 13 16 7
0.284133 -6.27362 4.01672 23 26 15
-0.335436 -2.29945 4.1583 199 198 194
-0.335436 -2.29945 4.1583 199 198 194
-0.0712167 -3.82255 4.1428 184 183 178
0.152925 -5.32576 3.92399 36 27 20
0.56324 -7.07884 4.33561 40 42 31
0.457653 -6.92895 3.79595 14 17 8
0.061889 -4.25613 4.0482 184 184 174
-0.0339758 -3.47005 4.11534 204 201 196
0.0572607 -3.88962 4.16923 143 125 111
-0.0682202 -3.16147 4.14084 211 210 205
0.442866 -6.14732 3.91197 193 190 183
-0.0046032 -3.48163 4.12286 200 199 194
0.36026 -5.59764 3.95142 193 190 183
0.362711 -5.11895 4.22887 190 190 182
0.161601 -4.02466 4.10878 184 184 176
0.440077 -5.58822 3.97986 191 191 183
0.127883 -3.46997 4.17035 198 197 193
0.209573 -3.9177 4.14325 121 121 111
0.122401 -3.30828 4.18903 206 206 198
0.127551 -3.26687 4.19631 208 207 202
0.104117 -2.9481 4.25355 210 209 204
0.243903 -3.67825 4.22693 167 172 165
0.220032 -3.4994 4.23083 186 182 179
0.220566 -3.48225 4.20323 191 190 186
0.327563 -4.0209 4.17065 184 184 176
0.266361 -3.52262 4.24392 173 169 166
0.326038 -3.85805 4.19057 188 185 176
0.188753 -3.12407 4.23513 210 209 204
0.0862013 -2.47095 4.282 23 18 14
0.719253 -5.8153 4.04807 194 194 186
0.30984 -3.58753 4.22067 161 160 158
1.2917 -7.51603 4.54008 177 170 160
0.195942 -2.41562 4.32783 40 25 22
0.195942 -2.41562 4.32783 40 25 22
0.57894 -4.04142 4.25588 184 181 172
1.6151 -8.82151 4.02349 174 174 164
0.690943 -3.81992 4.33536 186 186 174
0.295184 -2.01997 4.4056 202 201 197
0.248571 -1.68621 4.43413 211 210 205
0.36036 -2.13087 4.4117 188 189 184
0.568321 -2.9341 4.39554 213 210 205
0.756187 -3.76074 4.35333 187 187 179
0.644046 -3.20296 4.38926 202 201 196
0.747751 -3.63196 4.36684 184 185 177
0.81566 -3.88295 4.36911 188 185 178
0.406576 -2.13625 4.42871 183 182 180
1.18366 -5.48728 4.25182 191 190 185
0.645452 -3.02653 4.40705 207 206 202
0.855094 -3.91668 4.36903 181 181 173
0.711608 -3.15125 4.4158 202 201 197
2.02559 -8.67364 4.1874 170 170 160
0.742844 -3.19955 4.41792 196 195 191
0.552427 -2.40824 4.43436 165 168 159
0.821701 -3.47503 4.41803 185 186 178
0.821701 -3.47503 4.41803 185 186 178
0.877995 -3.69891 4.40414 190 187 180
2.02164 -8.48731 4.21209 64 66 55
0.574268 -2.34688 4.46865 159 160 152
0.526769 -2.14069 4.46411 177 176 172
0.702398 -2.78986 4.1314 198 198 190
0.650653 -2.49628 4.46904 199 199 191
2.84364 -11.3973 4.17794 10 15 9
0.631931 -2.4158 4.47648 175 176 168
1.47681 -5.84452 4.44757 187 187 177
0.62161 -2.27073 4.49887 125 135 126
2.20209 -8.66594 4.24948 53 53 45
1.53713 -5.84617 4.32887 188 187 182
1.52685 -5.28576 4.40276 72 78 64
2.33571 -8.14127 4.36814 51 51 39
1.65893 -5.46454 4.42175 65 69 55
1.31358 -4.02394 4.51442 32 34 21
1.23758 -3.68806 4.52777 33 36 25
1.25429 -3.64827 4.54303 25 27 16
1.20171 -3.36213 4.5526 197 172 165
1.30328 -3.63359 4.56244 21 22 14
1.35398 -3.78068 4.56099 21 24 17
1.38936 -3.85518 4.5636 21 24 15
1.22549 -3.22399 4.58462 52 29 23
1.02047 -2.47519 4.60915 211 208 203
1.80723 -5.32025 4.54961 89 80 65
1.18728 -3.04638 4.5853 188 187 182
1.39509 -3.71775 4.5826 16 19 12
1.39509 -3.71775 4.5826 16 19 12
1.29468 -3.3044 4.59841 52 38 25
1.35615 -3.51824 4.59461 26 29 20
1.31484 -3.3497 4.60218 43 40 25
1.37695 -3.57003 4.59538 30 34 20
1.3632 -3.43264 4.60734 22 28 16
1.85973 -5.17865 4.53235 162 159 150
1.89143 -5.08949 4.57041 159 155 146
0.879156 -1.54976 4.67472 210 207 202
1.49684 -3.38792 4.66211 124 124 116
1.1638 -2.21532 4.6887 125 118 108
1.10344 -1.97906 4.69855 144 137 127
1.28643 -2.43252 4.24936 120 117 110
1.12298 -2.01936 4.70106 116 113 106
0.378449 0.529022 4.75503 32 34 29
0.38331 0.621073 4.76879 31 33 28
1.21106 -2.05137 4.72493 130 132 121
2.3178 -5.59591 4.56356 172 154 144
2.87455 -6.92466 4.5107 44 47 38
2.25723 -4.79908 4.65964 157 154 145
1.83715 -3.24579 4.67767 133 127 115
2.37962 -4.88291 4.66195 179 176 169
1.66604 -2.50094 4.7227 130 128 116
2.7942 -6.11262 4.65352 120 114 100
2.14938 -3.85997 4.73103 74 74 62
3.2864 -7.52062 4.63574 99 95 84
3.77386 -8.46161 4.78802 101 103 92
3.42213 -7.55083 4.68587 91 93 82
3.51162 -7.52931 4.72558 81 83 72
2.66221 -4.66684 4.83318 104 104 94
3.53164 -7.27974 4.71157 90 91 83
3.31128 -6.63407 4.78738 107 108 100
2.21905 -3.22263 4.877 65 61 50
3.14809 -6.02901 4.80574 91 92 84
3.14736 -5.98341 4.81262 85 85 75
2.22907 -2.67802 4.80544 109 109 97
2.15626 -2.68225 4.87527 99 92 82
1.971 -1.71797 5.03574 117 107 95
0.46105 2.31707 4.90127 38 31 21
0.46105 2.31707 4.90127 38 31 21
2.1724 -2.17531 5.05162 113 103 91
3.19036 -4.40627 4.94885 100 94 82
3.2641 -4.67396 5.03376 89 81 70
1.15965 2.31032 3.04566 114 104 92
0.674525 1.83166 4.98732 114 108 96
3.65593 -5.96676 5.08241 75 75 65
3.18351 -4.12063 4.89403 110 86 62
0.267054 2.91822 4.93864 122 108 95
0.954 1.1547 5.0499 122 116 104
1.00276 1.02762 5.07687 121 113 102
0.18023 3.19784 4.91373 114 108 96
3.48502 -5.25119 5.09208 83 71 57
2.37369 -2.19413 5.0892 89 85 76
2.37369 -2.19413 5.0892 89 85 76
1.09499 0.926075 5.02173 113 107 93
1.07007 0.93025 5.08567 115 109 95
1.07007 0.93025 5.08567 115 109 95
0.27753 2.97138 4.94378 115 107 94
0.976671 1.18629 5.08749 112 108 97
0.793326 1.73842 4.96891 125 112 103
1.14012 0.858634 5.02368 112 93 78
1.08138 0.99942 5.0351 116 105 87
0.804108 1.64709 5.06399 118 112 100
1.07324 0.982935 5.10277 141 108 73
1.07324 0.982935 5.10277 141 108 73
3.69605 -5.75579 5.14898 69 71 60
3.51542 -5.00443 5.11229 78 75 68
1.12727 0.931812 5.04066 126 91 61
1.10126 1.00158 5.04404 120 94 71
1.05517 1.13633 5.03748 98 80 66
0.734636 1.91259 5.07884 128 98 70
1.16473 0.937004 5.05155 89 86 77
1.14042 1.00559 5.06741 0 0 0
1.17165 0.891398 5.12046 0 0 0
1.14899 0.951055 5.13113 0 0 0
3.83524 -5.71753 5.2137 0 0 0
1.24632 0.816416 5.0512 0 0 0
1.2537 0.792293 5.13929 0 0 0
1.19322 0.969833 5.15945 0 0 0
1.17268 1.02301 5.17035 0 0 0
1.2317 0.904779 5.1535 0 0 0
1.88958 0.978802 3.6373 0 0 0
1.18585 1.02763 5.17532 0 0 0
1.26994 1.00523 5.14063 0 0 0
1.23873 1.02633 5.22464 0 0 0
1.34109 0.817839 5.19063 0 0 0
1.38225 0.855039 5.24544 0 0 0
1.10338 1.53847 5.23125 0 0 0
1.35309 0.968626 5.30655 0 0 0
1.3419 1.00664 5.32741 0 0 0
1.37834 1.00068 5.26231 0 0 0
1.41014 0.910632 5.31901 0 0 0
1.35113 1.08791 5.44517 0 0 0
1.40791 1.0106 5.47295 0 0 0
1.41267 1.01001 5.48264 0 0 0
1.41587 1.00938 5.49134 0 0 0
1.42075 1.02257 5.48415 0 0 0
1.43402 1.00469 5.48913 0 0 0
1.37877 1.09228 5.51003 0 0 0
1.22758 1.83712 5.21665 0 0 0
1.22758 1.83712 5.21665 0 0 0
1.27236 1.36259 5.50461 0 0 0
1.44035 1.01042 5.54426 0 0 0
1.44035 1.01042 5.54426 0 0 0
1.24466 1.36242 5.57043 0 0 0
1.26129 1.21449 5.66963 0 0 0
1.44317 1.01128 5.55379 0 0 0
1.06725 1.35033 5.89496 0 0 0
1.44796 1.012 5.56138 0 0 0
1.44796 1.012 5.56138 0 0 0
1.75527 0.532024 5.46802 0 0 0
1.36916 2.14944 4.8344 0 0 0
7.15108e+06 3.44697e+06 -1.44238e+07 0 0 0
0.804484 1.34919 6.36597 0 0 0
0.989516 2.79136 4.96778 0 0 0
1.64122 0.806821 5.54987 0 0 0
1.45862 2.13034 4.81709 0 0 0
1.57241 0.929917 5.58148 0 0 0
1.647 0.837115 5.54406 0 0 0
1.3228 2.41312 4.80691 0 0 0
1.67607 0.809621 5.54404 0 0 0
1.07967 1.29897 6.08579 0 0 0
0.914867 3.02407 5.00695 0 0 0
1.30405 2.44122 4.84685 0 0 0
1.76531 0.716249 5.55217 0 0 0
1.00901 2.86893 4.97901 0 0 0
1.17372 1.30433 5.98934 0 0 0
1.36861 1.19163 5.79468 0 0 0
1.99445 0.368922 5.52784 0 0 0
1.17725 2.63253 4.93596 0 0 0
1.13705 1.43051 5.99351 0 0 0
1.13705 1.43051 5.99351 0 0 0
1.1901 1.4139 5.93686 0 0 0
1.51907 1.13332 5.70666 0 0 0
1.43776 1.21687 5.75898 0 0 0
2.23611 1.7372 4.21179 0 0 0
1.242 1.44404 5.86011 0 0 0
1.23743 1.47824 5.83912 0 0 0
1.17075 2.70502 4.96032 0 0 0
1.48138 1.21696 5.71172 0 0 0
1.34599 1.47372 5.73353 0 0 0
1.70843 0.977174 5.63857 0 0 0
1.70979 0.970097 5.64348 0 0 0
1.24438 1.42394 5.93152 0 0 0
1.16656 2.74703 4.99368 0 0 0
1.4309 1.38744 5.72329 0 0 0
0.96379 3.08735 5.03723 0 0 0
1.7795 0.911097 5.62595 0 0 0
1.78827 0.897205 5.62503 0 0 0
1.82429 0.836742 5.63227 0 0 0
1.41507 2.36452 4.96312 0 0 0
1.50556 1.38577 5.65996 0 0 0
1.11627 2.88053 5.0229 0 0 0
1.81727 0.908742 5.62527 0 0 0
1.50951 1.53774 5.55324 0 0 0
1.05048 3.02448 5.04516 0 0 0
1.23719 2.71086 5.02194 0 0 0
1.29295 2.62656 5.01651 0 0 0
1.00891 3.14232 5.07629 0 0 0
0.0818443 2.00871 2.96525 156 155 150
0.843141 -5.45784 4.38753 112 105 97
2.21886 -2.81775 4.15868 0 0 0
1.51426 1.91076 2.50384 0 0 0
-11.568 13.7765 28.703 70 67 58
0.330623 2.36942 2.82834 174 171 164
0.186801 -2.42629 2.08344 80 79 74
0.827325 -5.59477 4.41362 74 75 69
1.46215 3.39324 3.88337 164 164 156
1.46215 3.39324 3.88337 164 164 156
0.514907 -2.83409 2.56039 30 32 27
1.32264 -3.82914 4.53554 111 113 102
0.541198 -2.86036 2.59722 28 30 25
2.34326 -3.42198 4.47076 0 0 0
1.8138 2.46451 2.97753 0 0 0
2.12264 -4.13444 3.78493 0 0 0
2.54464e+10 -2.77029e+09 -3.50331e+10 215 216 211
4.86565 0.289962 -7.74674 33 35 34
2.8539e+09 1.40255e+09 -4.33571e+09 43 45 42
1.64041 2.55275 3.14748 0 0 0
1.70476 2.55327 3.15068 0 0 0
2.22092 1.07707 3.87036 0 0 0
-2.71408 0.308032 3.55282 189 185 174
-2.60087 -0.133669 3.59348 202 199 190
-2.51231 1.04044 3.59822 206 203 194
-2.41099 1.20411 3.6405 181 189 174
-2.31249 0.458622 3.684 178 175 166
-1.21787 -2.62885 3.84368 197 192 189
-0.674495 -3.52651 3.94741 202 199 194
-0.547446 -3.29082 4.43493 123 128 124
-0.600766 -3.90609 3.95825 95 101 99
-0.724308 -2.37705 4.16221 172 158 155
-0.384077 -5.06722 4.04319 34 36 23
0.155433 -8.34467 4.23694 66 65 63
-0.0981426 -6.79537 4.04057 87 89 84
-0.0578049 -6.92447 4.04588 35 36 28
-1.38259 2.58714 3.86624 122 124 123
-0.893558 2.05597 5.47254 34 36 33
0.195527 -4.5697 5.53956 56 55 53
-0.346807 -3.04095 4.14194 211 210 205
-0.997236 2.51623 5.18928 25 26 20
-0.097343 -4.29619 4.21139 95 97 86
-0.593059 -1.32322 4.13706 69 66 49
-0.909081 0.669986 4.05114 42 45 38
0.0266702 -4.07635 4.27344 189 186 179
-0.691607 0.488611 4.22508 23 23 15
0.678698 -2.74024 4.37667 208 208 200
0.644079 -2.55981 4.39518 197 197 189
1.16135 -3.06182 4.49447 200 199 195
3.82051 -8.71508 4.97512 93 94 88
3.79497 -8.63017 4.96498 81 82 76
3.71003 -8.26407 4.92433 74 75 67
3.00799 -5.67989 4.54488 84 84 74
3.26635 -6.53849 4.57578 106 106 98
3.83959 -6.03941 4.8591 69 66 59
-0.249105 1.04545 8.4558 0 0 0
1.0931 3.06335 4.45795 0 0 0
1.27068 3.32175 4.35331 0 0 0
1.27003 3.33062 4.35213 0 0 0
1.27003 3.33062 4.35213 0 0 0
2.75461 8.56309 -1.81543 0 0 0
5.34875 9.32464 -5.62648 0 0 0
3.5934 8.75642 -2.76522 0 0 0
1.61467 2.90518 4.42522 0 0 0
1.66354 2.89148 4.41855 0 0 0
3.81007 8.58532 -2.32516 0 0 0
7.55091e+09 -9.34765e+08 -1.80432e+09 83 79 67
1.50831 -2.08342 2.13376 159 169 181
1.49544 -2.06622 2.15156 164 172 183
1.22163 -1.81171 2.25733 167 177 189
1.31225 -1.89905 2.24492 168 176 189
1.44074 -1.92228 2.3944 174 180 192
8.50284e+09 -7.81119e+07 -1.95168e+09 56 55 50
3.72961e+09 5.95833e+07 -9.46124e+08 72 75 64
-3.31755 0.287045 3.8843 79 79 69
3.19468 2.45844 2.71161 77 74 65
1.80959 -2.33823 2.32732 23 27 13
1.60703e+10 -9.036e+08 -3.94852e+09 194 194 186
3.59565e+09 2.70456e+08 -1.05532e+09 112 112 104
1.1134e+10 -6.2526e+08 -2.76498e+09 194 194 186
4.80865e+08 4.51294e+07 -1.43392e+08 115 116 111
-3.12481 0.190797 3.91091 98 94 85
1.11713e+10 -1.47795e+08 -2.78712e+09 197 197 187
1.00527e+09 9.05534e+07 -3.05431e+08 99 95 83
1.98018 -2.51859 2.3137 16 15 10
3.72481e+09 1.44729e+08 -1.00672e+09 93 95 94
-5.15618 1.0615 4.57927 121 123 120
3.49782e+09 1.63555e+08 -1.01328e+09 128 130 125
1.97617 -3.04214 2.2618 17 23 11
2.03277 -2.57453 2.32089 36 36 26
6.59599 3.71262 1.98992 128 129 121
2.83335e+09 3.02472e+08 -8.91191e+08 128 129 121
-2.66177 -0.0201997 3.87549 105 99 87
-2.85075 0.119834 3.94868 124 121 116
3.68281e+09 2.00311e+08 -1.03663e+09 115 117 116
-1.57082 -0.555766 3.5638 108 101 91
5.60098 4.62438 2.31881 117 118 110
-1.50251 -0.622406 3.55674 114 116 105
1.96317 -2.51866 2.40352 21 20 15
2.16745e+07 886286 -6.71253e+06 181 180 176
2.06568e+07 789687 -6.59398e+06 187 188 183
1.06705 0.272686 3.18433 190 186 183
-0.601286 -2.06698 3.56677 190 186 183
2.16297e+07 776962 -7.34036e+06 192 192 190
0.829902 -3.11428 3.04716 25 31 29
-0.509099 -2.21327 3.65339 135 112 106
1.7769e+07 590860 -6.30316e+06 197 196 192
-2.84077e+07 4.51115e+06 1.03212e+07 208 209 203
-2.84077e+07 4.51115e+06 1.03212e+07 208 209 203
1.58784 -2.55935 2.91877 11 14 7
1.42871 -3.41308 2.93618 11 14 7
369.393 -52.8085 -135.215 215 215 207
369.393 -52.8085 -135.215 215 215 207
-0.156431 -2.5933 3.62563 203 204 198
-0.052242 -2.60556 3.5987 191 186 182
-0.035015 -2.79548 3.58272 47 43 42
0.111639 -2.74847 3.53701 44 40 41
1.11303 -3.54061 3.13735 32 31 27
1.58834 -3.61986 2.96672 4 9 5
-0.390109 -2.22345 3.8123 183 180 175
0.408043 -3.3756 3.48119 49 42 34
2.30078e+08 -1.08728e+07 -9.23777e+07 198 195 186
2.42325e+08 -7.12177e+06 -9.73639e+07 217 214 205
2.55072e+08 1.15265e+06 -1.02423e+08 213 213 205
-3.07842 -0.363193 5.04576 205 208 215
1.99476e+08 -1.89679e+07 -8.17997e+07 171 172 167
-1.40771 -1.32742 4.36261 184 187 180
2.69575e+08 1.66578e+07 -1.11083e+08 136 138 137
-0.0504191 -2.36005 3.81619 207 206 201
-1.83302 -1.02145 4.59227 197 202 196
1.14246e+07 -682129 -4.79948e+06 149 150 142
0.8921 -3.25299 3.43671 47 46 28
2.56469e+07 -988503 -1.07941e+07 213 213 203
2.77419e+08 2.46952e+07 -1.16179e+08 191 190 186
2.66389e+08 1.29325e+07 -1.11825e+08 104 100 97
3.79256e+09 7.35001e+08 -1.58359e+09 52 47 25
1.98856e+07 2.93558e+06 -8.36424e+06 89 100 94
-2.52404 -0.616425 4.9376 58 66 68
7.64658e+08 1.28158e+08 -3.21956e+08 214 215 220
2.98153e+08 6.00787e+07 -1.25637e+08 195 192 185
1.98154e+07 2.84019e+06 -8.38437e+06 22 21 17
3.48913e+09 2.71564e+08 -1.56219e+09 154 142 142
-2.31015 -0.678372 4.86456 23 23 13
1.92494e+09 5.81849e+08 -8.87518e+08 100 118 128
-2.44545 -0.61508 4.92963 58 51 33
-1.72575 -1.05298 4.6226 101 107 97
-3.25004 -0.0721256 5.29287 58 84 97
-1.69792 -1.11857 4.60538 199 198 193
1.50375 -3.53912 3.23149 40 40 30
0.473985 -3.21201 3.67897 43 43 43
36.67 -8.01991 -12.5506 216 215 210
-1.59012 -1.13672 4.5862 199 199 191
222.628 -37.1131 -92.6078 215 214 209
1.89652 -1.56565 3.09426 24 28 14
1.55426 -3.59831 3.2279 32 34 23
-0.936891 -1.56515 4.32004 29 26 19
0.616924 -2.95745 3.65432 13 19 15
-0.758849 -1.70406 4.25727 21 16 10
-0.349752 -2.07354 4.10315 209 208 203
1.00297 -3.40135 3.50704 24 26 21
1.22499 -3.66924 3.41027 16 15 11
0.520247 -3.25303 3.72689 22 33 25
-0.290389 -2.11394 4.0981 207 206 201
0.387832 -2.77584 3.79605 216 191 187
0.451791 -2.89627 3.76976 23 21 8
-0.132577 -2.29293 4.05392 151 144 136
1.05861 -3.44398 3.53852 25 27 16
-2.37723 0.0308212 5.18435 113 101 85
1.08416 -3.55287 3.62996 21 21 13
0.258521 -2.71886 4.01104 196 195 191
0.334457 -2.77997 3.97813 183 184 179
0.334457 -2.77997 3.97813 183 184 179
-1.81544 -0.298506 4.98092 101 81 70
0.360148 -2.84025 4.06726 174 173 169
0.360148 -2.84025 4.06726 174 173 169
1.11011 -3.66929 3.73715 171 172 166
0.564943 -3.05795 3.99514 192 189 180
0.535466 -3.03879 4.01302 188 185 178
0.669871 -3.17062 3.97841 190 187 182
0.612552 -3.16541 4.07622 191 188 181
1.89794 -4.24003 3.5015 14 19 13
2.04382 -4.48932 3.60679 9 10 4
0.0735954 -2.91581 4.67114 185 185 175
0.852277 -3.60077 4.31032 184 185 171
0.98706 -3.7628 4.29119 179 179 171
-0.144376 -2.63259 4.86746 207 206 202
0.330555 -3.23936 4.65598 203 202 197
0.961548 -3.76724 4.3636 184 181 174
0.382395 -3.23122 4.67749 204 203 198
0.41577 -3.07466 4.65499 207 207 199
1.1362 -4.03964 4.49877 190 187 178
0.432755 -3.38066 4.99033 208 207 202
1.29107 -4.29423 4.68507 186 186 178
1.26941 -4.30553 4.74668 188 187 182
-2.40659e+07 5.35145e+06 1.34151e+07 209 208 203
2.23038 -5.49404 4.54252 16 17 12
1.33624e+08 -1.58774e+07 -9.54711e+07 49 41 30
2.72405 -5.86688 4.36141 16 18 13
-7.49783e+08 2.91062e+08 5.04423e+08 201 195 183
2.96521 -6.05969 4.29656 15 17 12
4.67052 1.5293 1.34885 136 134 122
3.04087 -6.14495 4.44965 12 17 11
1.07747 -4.34508 5.69422 110 107 100
1.07747 -4.34508 5.69422 110 107 100
1.05672 2.46416 4.09994 119 122 113
2.91897 -6.09839 4.79348 41 42 37
2.13111 2.46326 3.22103 132 128 116
2.58243 -5.84022 5.12173 99 102 93
3.50761 -6.49991 4.57849 101 98 91
8.87106e+07 -3.93922e+07 -6.9211e+07 164 158 146
1.79339 -8.10376 6.71386 86 88 77
2.32929 -5.52332 5.64917 104 104 96
2.47372 -5.64617 5.58115 97 98 90
2.27435 -5.29532 5.81684 87 83 72
3.73322 -6.66827 4.88614 77 77 65
3.73322 -6.66827 4.88614 77 77 65
4.38037 -13.8176 6.70102 84 80 68
2.16777 -5.28077 5.95155 82 76 62
1.94855 -7.40636 6.99844 102 93 76
2.82095 -9.9602 7.12188 98 89 72
2.70215e+09 5.23412e+08 -2.86736e+09 85 82 75
0.597261 1.09662 5.29151 70 56 43
1.77859e+08 -2.83272e+07 -1.67674e+08 142 142 132
2.58684 -10.3964 7.6281 95 87 76
0.415085 -0.259033 6.01949 101 97 86
0.520138 0.674206 5.57152 115 105 93
0.48219 0.439742 5.69825 113 105 92
1.05304e+09 5.86044e+07 -1.08249e+09 134 134 126
-6.12345e+08 1.75031e+08 4.73515e+08 129 126 117
3.0689 2.28019 2.40415 120 120 112
1.7579e+08 -3.31577e+07 -1.64809e+08 130 130 118
1.89182e+08 -1.13639e+07 -1.86551e+08 124 124 116
9.96564e+06 -2.68131e+06 -9.09025e+06 137 134 127
0.494849 0.507308 5.69197 118 112 98
1.83928e+09 1.7861e+08 -1.93782e+09 58 59 54
3.36689 -6.47694 5.45985 90 84 72
4.83481 -15.1729 7.38089 90 84 70
4.8909 -15.2898 7.37241 72 60 44
27.1871 -5.97907 -15.257 150 150 142
9.16503e+08 -4.34706e+07 -9.26824e+08 89 86 77
3.27714 2.16673 2.223 120 113 103
0.530448 0.0737782 5.90246 117 111 97
2.0309 -7.85963 7.51111 102 98 86
3.09561 -11.1047 7.74956 98 92 80
2.87665 -6.05709 5.91604 93 89 77
3.39175 -6.50801 5.56714 101 79 55
1.1168 1.94867 4.5756 115 109 97
3.41134 -6.52616 5.58875 75 65 55
1.41014e+09 -5.70043e+07 -1.46362e+09 108 108 98
0.663241 0.832903 5.5164 123 115 104
0.642027 0.807267 5.54799 123 115 104
1.96278 -4.842 6.45157 113 101 87
3.24375 -6.40485 5.74058 90 78 62
1.02011e+07 -2.86249e+06 -9.614e+06 122 119 112
0.864218 1.42425 5.07066 120 112 101
2.01301 -4.90937 6.44347 114 106 95
1.23238 1.96408 4.46076 116 108 97
1.77999e+08 -3.42369e+07 -1.74725e+08 130 129 125
2.89474 -6.11294 6.01645 115 87 63
2.99884 -10.5511 7.79064 117 86 66
3.88087 2.03003 1.61995 117 117 107
4.00634 -7.25577 5.38097 61 62 54
1.01836e+07 -2.98195e+06 -9.62799e+06 118 118 110
0.579899 -1.0118 6.40738 119 109 99
3.48681 -6.57026 5.65857 72 70 58
3.79346 -6.81199 5.4646 74 68 56
0.724293 0.747653 5.6677 117 109 98
1.57891e+09 -2.9914e+08 -1.67367e+09 140 125 106
3.93059 -6.90295 5.71979 66 67 61
1.40528e+09 -2.80832e+08 -1.49524e+09 130 117 101
1.40528e+09 -2.80832e+08 -1.49524e+09 130 117 101
0.818078 0.762097 5.68672 121 112 97
1.20723 1.79089 4.81266 127 97 71
4.60221 -15.645 9.71192 68 65 58
-3.02696e+08 -1.67258e+09 1.74495e+09 81 78 69
-3.02696e+08 -1.67258e+09 1.74495e+09 81 78 69
-2.78397e+08 -1.7204e+09 1.77301e+09 77 77 69
-2.65786e+08 -1.73221e+09 1.77808e+09 74 73 68
-2.73824e+08 -1.57226e+09 1.6386e+09 81 82 74
-2.63694e+08 -1.57965e+09 1.64092e+09 78 75 68
0.972697 0.763873 5.91722 89 86 79
-3.35184e+08 -1.98589e+09 2.0619e+09 83 80 73
-2.54585e+08 -1.07648e+09 1.17142e+09 77 74 69
-3.35008e+08 -1.50856e+09 1.62302e+09 72 71 66
-3.33687e+08 -2.01131e+09 2.08751e+09 86 83 78
-2.45521e+08 -1.086e+09 1.17692e+09 75 75 67
-2.53843e+08 -1.0926e+09 1.18518e+09 77 77 67
-2.60222e+08 -1.10028e+09 1.19784e+09 78 75 68
1.10245 0.33009 6.35268 87 84 79
1.11642 0.300043 6.37046 74 75 69
1.05272 0.614691 6.26295 86 83 76
1.06 0.869068 6.16692 0 0 0
1.09385 1.31848 5.81158 0 0 0
2.91094e+09 -1.61818e+09 -3.24565e+09 0 0 0
1.17099 0.56142 6.38251 0 0 0
2.71138e+09 -1.55805e+09 -3.04457e+09 0 0 0
1.27269 0.226995 6.6238 0 0 0
1.28548 2.36167 4.96885 0 0 0
1.18189 1.31739 5.94518 0 0 0
1.30335 2.4476 4.87806 0 0 0
1.18438 1.2869 5.97578 0 0 0
1.16514 1.92825 5.55921 0 0 0
2.30672e+09 -1.20317e+09 -2.80758e+09 0 0 0
1.21853 2.40987 5.10795 0 0 0
2.74316e+09 -1.47871e+09 -3.33344e+09 0 0 0
1.6512e+08 -7.86715e+07 -2.10082e+08 0 0 0
0.911794 3.08288 5.09515 0 0 0
8.32368e+09 -4.69302e+09 -1.00856e+10 0 0 0
1.07635 2.90017 4.9831 0 0 0
1.01497 2.93454 5.08546 0 0 0
1.25837 1.5185 5.89501 0 0 0
1.25453 0.595209 6.71024 0 0 0
2.60569e+09 -1.2303e+09 -3.45178e+09 0 0 0
1.14022e+07 -3.96274e+06 -1.64342e+07 0 0 0
1.08836 2.36599 5.50585 0 0 0
1.08836 2.36599 5.50585 0 0 0
-4.42779e+07 2.66761e+07 4.69786e+07 0 0 0
2.13059e+09 -1.05271e+09 -2.82122e+09 0 0 0
2.13059e+09 -1.05271e+09 -2.82122e+09 0 0 0
1.05924 1.85289 6.04187 0 0 0
1.01564 2.67381 5.40304 0 0 0
2.22719e+09 3.02076e+08 -4.23383e+09 0 0 0
1.05718 1.79628 6.13122 0 0 0
1.20287 0.688634 6.87839 0 0 0
1.63717e+08 -7.12701e+07 -2.29797e+08 0 0 0
1.02525 2.11065 5.9661 0 0 0
0.681271 3.09888 5.70153 0 0 0
3.06601e+09 -1.55354e+09 -4.31623e+09 0 0 0
2.94882e+09 -1.53771e+09 -4.16117e+09 0 0 0
2.62882e+08 -1.47745e+08 -3.6276e+08 0 0 0
2.62882e+08 -1.47745e+08 -3.6276e+08 0 0 0
2.27745e+07 -2.87495e+09 3.03316e+09 0 0 0
1.35136e+08 -3.04041e+09 3.065e+09 0 0 0
1.91162e+08 -3.05778e+09 3.02851e+09 0 0 0
2.24459e+08 -3.06217e+09 3.00228e+09 0 0 0
2.21043e+08 -3.12972e+09 3.11645e+09 0 0 0
4.3755e+08 -4.13131e+09 4.02682e+09 0 0 0
3.21917 -2.56216 7.7965 0 0 0
7.68696e+08 -5.75063e+09 5.88861e+09 0 0 0
7.33168e+08 -7.53979e+09 8.24978e+09 0 0 0
7.48533e+08 -6.23718e+09 6.87164e+09 0 0 0
4.61778e+07 -3.58719e+07 -9.71237e+07 0 0 0
-4.66776e+07 -6.40163e+07 5.76017e+07 206 214 225
-32.4248 44.7038 42.4887 204 195 196
-6.45247e+08 9.3361e+08 1.08411e+09 228 227 223
-8.29468 11.708 13.8548 189 188 183
-0.05306 -3.38902 3.0658 67 74 66
0.135574 -2.31578 2.0387 76 73 66
1.49451 -0.558729 2.01571 0 0 0
0.72063 -0.511567 0.194287 0 0 0
-0.0564606 -3.89595 5.03249 30 30 20
-0.352689 -2.69438 4.11506 181 181 173
0.179516 -5.59887 3.88962 23 26 17
1.66317 -1.65778 14.7243 29 29 27
1.66317 -1.65778 14.7243 29 29 27
1.68494 -1.69681 14.8814 30 35 31
1.7289 -1.86251 15.2582 30 31 26
1.79331 -2.10669 15.8492 37 37 35
1.79229 -2.14425 15.8133 36 37 31
1.86105 -2.52559 16.6262 32 34 31
1.95307 -2.95479 17.7456 42 44 39
0.989536 -6.18594 4.17642 187 184 175
1.98469 -3.3799 18.2678 36 38 33
2.0159 -3.4035 18.7511 34 37 30
1.46317 -2.28602 15.9218 30 32 27
2.013 -3.58471 18.7033 42 44 39
2.03704 -3.63496 19.1022 35 36 31
2.03698 -3.70039 19.0833 35 35 33
2.58968 -5.77869 28.3588 83 85 82
2.61523 -6.01558 28.9941 90 91 83
2.74285 -8.69004 30.7628 42 44 43
2.76284 -9.07257 31.6518 119 121 120
2.80171 -15.5874 45.4393 44 44 42
-9.67209 2.30725 7.31006 214 213 208
-4.74558e+07 7.02444e+06 1.82863e+07 215 214 209
-0.107205 -4.99485 3.48916 26 27 21
0.30657 -5.19031 3.55653 42 41 36
-4.19709e+07 3.10718e+06 1.75724e+07 21 22 16
0.0801361 -2.23662 3.89744 207 206 201
0.812683 -2.69394 3.7098 27 27 15
-1.5899 -5.35249 5.96633 207 206 202
-5.83322e+07 -5.0169e+07 8.46069e+07 132 128 117
-1.55629 -5.40852 5.97481 207 206 202
-3.07343e+07 2.82025e+06 2.2028e+07 177 169 156
2.33169 -9.33343 6.94312 103 100 93
2.02589 -8.89539 7.43655 73 70 55
4.76611 -14.7377 6.88787 83 80 65
3.94016 -13.6081 7.53654 98 92 80
11.8453 5.71095 -5.22523 122 114 103
3.20815 -12.4872 8.47161 85 69 53
-0.880666 -5.65403 10.8081 86 86 78
5.65894 -16.6433 8.57706 91 68 52
-1.20743 -9.2017 2.43761 164 171 187
-0.451797 -10.2767 2.45385 65 90 86
0.196449 -11.2775 2.49898 158 166 179
0.318016 -11.3823 2.53042 156 166 176
0.462262 -11.624 2.55441 155 165 175
0.414146 -11.3991 2.56867 158 168 178
0.564057 -11.5655 2.61431 156 166 176
0.275367 -9.50748 2.8081 31 32 26
-0.0831841 -7.48449 2.87717 173 181 194
0.126023 -8.59511 2.85077 14 19 13
-39.9741 -2.77181 14.1345 48 48 36
-19.1986 -4.20549 8.62958 129 135 123
-2.56141 -8.81884 4.46608 183 191 176
1.15923 -7.11851 3.20545 87 89 88
1.19499 -7.1014 3.22113 20 23 14
-3.61793 -6.52679 4.94583 185 173 159
-5.38073e+07 1.10033e+07 1.92772e+07 196 192 181
-5.0735e+07 9.04025e+06 1.832e+07 200 196 187
-4.83191e+07 7.55225e+06 1.78581e+07 203 203 193
-4.83191e+07 7.55225e+06 1.78581e+07 203 203 193
-3.93201 -5.76493 5.38374 109 102 92
-3.28038 -5.91913 5.16959 128 120 109
-1.62696 -9.71795 4.88789 18 20 9
-57.8417 10.6643 25.8479 204 201 192
-3.55778e+07 -505477 1.44674e+07 188 188 178
-1.52305 -6.72473 4.68632 74 70 58
-1.33524 -8.49046 4.81576 27 30 23
-1.33338 -8.10861 4.78278 59 56 51
-1.32792 -7.63867 4.76041 59 59 49
-6.56806 3.2645 5.92995 203 200 191
-4.77315e+07 6.98724e+06 1.92219e+07 203 200 191
-62.6416 -10.6801 30.7795 211 209 197
-3.59117e+07 996566 1.53183e+07 82 72 60
-6.26628e+07 1.81749e+07 2.50993e+07 56 57 51
-1.77639 -3.85164 4.74748 202 200 188
-0.887534 -6.76183 4.67879 188 191 182
-1.34343 -3.7964 4.57107 201 195 181
-1.34343 -3.7964 4.57107 201 195 181
-4.37415e+07 4.66896e+06 1.85118e+07 81 75 59
-48.0697 -10.5637 25.8428 215 212 205
-17.6179 -6.33392 12.1559 195 192 183
-0.858483 -3.28411 4.44767 211 205 193
-0.347412 -5.38962 4.47882 198 198 186
-0.557242 -7.5929 4.8335 76 79 72
-0.942954 -2.86166 4.47868 131 130 112
1.06222 -2.17913 3.81363 73 65 52
1.45363 -1.07301 3.55677 191 182 175
2.16369 -0.278313 3.11101 206 209 200
2.2748 -0.196602 3.04139 204 201 194
1.98614 -1.07058 3.38466 70 60 50
-3.15942e+09 7.91869e+08 2.19157e+09 207 207 199
0.0937563 -13.4884 9.43736 95 79 64
0.0937563 -13.4884 9.43736 95 79 64
0.614944 -17.9312 10.4789 8 10 5
0.555511 -17.6538 10.4952 13 18 11
0.401342 -17.3238 10.666 11 12 4
0.494903 -5.82654 7.05723 186 186 176
-0.132796 -13.2743 10.0662 181 183 172
-0.166261 -12.9891 10.0146 64 65 51
1.67848 -21.5885 11.2773 25 27 16
-4.2681e+07 1.23107e+07 3.19677e+07 204 201 192
0.243849 -17.9522 11.4841 76 77 63
-0.438794 -12.6223 10.3877 204 205 197
-4.97464e+07 2.29105e+07 3.49639e+07 39 40 26
-4.62103e+07 1.7788e+07 3.36853e+07 14 17 8
2.55625 -23.9414 11.6774 20 22 11
-0.524004 -9.97846 9.68068 210 207 200
-0.529318 -8.08035 9.04713 163 165 154
-0.659914 -11.9308 10.5057 204 202 190
-0.723194 -8.8638 9.55416 183 183 175
-0.0322713 -18.1818 12.1961 81 78 69
-0.451177 -7.35202 8.83163 26 27 19
0.155001 -19.0645 12.3789 63 59 47
-8.55976e+08 -3.7152e+08 8.68479e+08 19 22 15
-0.809527 -11.6495 10.7056 207 200 194
3.15863 -28.1129 13.0546 11 12 4
-5.01325e+07 2.44354e+07 3.59096e+07 20 17 8
2.24704e+07 1.55212e+07 -2.47399e+07 190 188 176
-1.014e+09 -5.59214e+08 1.08842e+09 13 16 7
-0.95175 -12.4976 11.5265 205 201 190
-3.93763e+07 7.32673e+06 3.32144e+07 103 95 84
-3.93763e+07 7.32673e+06 3.32144e+07 103 95 84
-0.819056 -13.7113 11.9238 213 205 194
-0.77716 -14.0668 12.0179 208 202 190
-7.95269e+08 -3.55089e+08 8.48949e+08 25 25 13
-0.704083 -14.4274 12.1267 195 188 178
-0.704083 -14.4274 12.1267 195 188 178
3.55474 -29.2698 13.7884 7 12 8
-5.33311e+07 2.8071e+07 3.89849e+07 32 32 22
-5.33311e+07 2.8071e+07 3.89849e+07 32 32 22
-1.68489 -11.01 11.8907 172 168 156
1.72019 -23.1478 13.3226 15 18 11
2.47234 -24.7041 13.2665 15 16 11
-1.33558 -14.8861 13.1741 89 78 60
-1.33558 -14.8861 13.1741 89 78 60
-1.14923 -15.4492 13.2258 111 98 81
1.63976 -23.6756 13.8969 14 15 9
0.221953 -22.1097 14.8666 64 60 49
-1.45107 -16.1752 14.455 128 124 112
-1.68631 -15.7683 14.5456 127 125 113
-5.56608e+07 3.2835e+07 4.23397e+07 110 107 100
-4.48165e+08 -1.39087e+08 5.10674e+08 158 152 140
-3.60034e+08 -2.34387e+08 4.40958e+08 25 27 22
-3.60034e+08 -2.34387e+08 4.40958e+08 25 27 22
-4.69884e+07 1.62615e+07 4.10969e+07 185 179 165
2.15949 -26.5943 15.9592 14 17 8
2.96655 -27.5781 15.6676 17 19 14
2.96655 -27.5781 15.6676 17 19 14
2.42706 -28.1087 16.7554 6 8 3
2.84846 -28.2965 16.4198 3 13 2
11.8556 11.6057 -12.0282 135 131 119
11.7938 12.0231 -12.3214 126 122 110
11.5803 14.6994 -14.078 131 127 116
11.7838 12.2488 -12.5093 140 138 126
11.9256 9.87536 -10.9857 119 117 104
11.9256 9.87536 -10.9857 119 117 104
-1.75475e+09 7.70372e+08 1.56378e+09 82 76 64
4.62562e+06 2.37438e+07 -1.46481e+07 26 27 21
11.5511 14.6312 -14.1545 129 125 114
11.5511 14.6312 -14.1545 129 125 114
11.738 12.3008 -12.6769 136 134 122
11.919 10.0585 -11.2469 125 123 108
11.6671 12.8736 -13.0839 141 137 126
