ply
format ascii 1.0 
element vertex 1361
property float32 x 
property float32 y 
property float32 z
property uchar red  
property uchar green
property uchar blue
element face 0
property list uchar int vertex_indices
end_header
-0.633345 0.419855 2.07885 40 42 39
-0.64788 0.249395 2.13724 207 208 203
-0.641953 0.298461 2.12748 149 151 148
-0.644692 0.22691 2.1391 211 210 206
-0.618103 0.488643 2.06382 22 24 19
-0.60166 0.612804 2.03339 147 147 147
-0.630183 0.252662 2.14387 207 208 203
-0.652273 0.0220977 2.22342 212 213 208
-0.644099 0.0118636 2.21529 214 213 208
-0.589187 0.612414 2.03675 145 145 145
-0.589187 0.612414 2.03675 145 145 145
-0.621003 0.176373 2.14788 212 211 207
-0.528987 1.25344 1.83158 18 19 11
-0.627278 0.0739204 2.19365 207 212 208
-0.623643 0.0581048 2.19897 219 218 213
-0.576344 0.627097 2.03384 153 153 153
-0.708113 -1.05673 2.504 123 124 119
-0.710204 -1.04147 2.51486 91 90 86
-0.608161 0.126283 2.16228 202 199 194
-0.515922 1.27737 1.83638 13 18 12
-0.695128 -1.08257 2.52573 20 20 18
-0.518945 -1.27228 2.37791 1 13 9
-0.490609 1.02241 2.25001 174 176 171
-0.414206 0.866701 1.90341 174 176 171
-0.516985 -1.2316 2.38719 63 78 75
-0.511517 -1.24348 2.38347 152 140 140
-0.358328 0.949675 1.72145 99 102 93
-0.344272 1.12567 1.67274 11 16 9
-0.340936 1.18834 1.60374 38 38 26
-0.329516 1.29602 1.62267 37 37 25
-0.329537 1.27023 1.63448 38 38 26
-0.31861 1.43513 1.58495 13 16 7
-0.316435 1.46329 1.57651 17 20 13
-0.31322 1.46235 1.58043 14 17 10
-0.317271 1.2664 1.5979 31 32 18
-0.340828 0.824786 1.82924 178 177 172
-0.31484 0.928524 1.75453 226 228 225
-0.31484 0.928524 1.75453 226 228 225
-0.289432 1.30351 1.64984 37 38 24
-0.269419 1.40256 1.6275 50 50 38
-0.272002 1.3832 1.59374 50 50 38
-0.288152 0.852584 1.73996 188 190 187
-0.275067 0.963073 1.76833 231 232 227
-0.229634 1.24759 1.70874 19 22 13
-0.229634 1.24759 1.70874 19 22 13
-0.228195 1.13532 1.94448 220 221 216
-0.307374 -1.02447 2.4451 17 17 7
-0.325011 -1.5273 2.63862 21 22 16
-0.293024 -1.04051 2.44039 59 58 53
-0.200313 0.945525 1.76949 227 228 222
-0.279646 -1.4264 2.62026 58 60 49
-0.184605 1.03749 1.80595 219 220 215
-0.166622 1.51736 1.65362 13 16 9
-0.243536 -1.00821 2.43563 164 160 149
-0.262718 -1.47599 2.6474 52 48 37
-0.186429 0.95269 1.7751 209 208 203
-0.161371 1.05205 1.81373 220 219 214
-0.161371 1.05205 1.81373 220 219 214
-0.208346 -1.60315 2.7377 44 46 35
-0.127279 1.08667 1.83311 192 196 199
-0.128903 0.864954 1.936 162 159 150
-0.128903 0.864954 1.936 162 159 150
-0.175664 -1.50292 2.71712 50 46 37
-0.108256 1.38136 1.73932 18 19 13
-0.108256 1.38136 1.73932 18 19 13
-0.161344 -1.58823 2.75776 62 55 45
-0.15599 -1.42791 2.70245 41 35 23
-0.10127 1.07081 1.85004 152 153 147
-0.146515 -1.50421 2.73859 70 66 54
-0.14304 -1.38929 2.69738 63 57 43
-0.05079 1.18744 1.84621 128 129 131
-0.050522 1.09797 1.87322 171 172 167
-0.0426594 1.26484 1.82346 109 117 120
-0.0508514 1.08673 1.83309 160 161 156
-0.0632659 -1.24099 2.66996 25 26 20
-0.0314727 1.07793 1.89324 156 157 151
-0.0314727 1.07793 1.89324 156 157 151
-0.0263145 1.06941 1.89376 42 35 29
-0.0227599 -1.72219 3.14118 72 49 41
0.0553065 -1.8198 3.14646 126 131 135
0.0486165 -1.79115 3.09233 126 131 135
0.136753 -1.79019 3.24322 88 88 80
0.14133 -1.35234 3.28374 26 23 14
0.148227 -1.38204 3.35015 26 23 14
0.14635 -1.40451 3.31769 68 66 54
0.152831 -1.31888 3.33348 105 103 91
0.144843 -1.2818 3.25883 105 103 91
0.150537 -1.36695 3.28916 101 101 91
0.155129 -1.25552 3.27029 70 67 60
0.160667 -1.20848 3.23847 63 66 59
0.163255 -1.35314 3.29644 53 52 47
0.199326 -1.31797 3.32541 77 74 67
0.214024 -1.40081 3.35724 71 73 62
0.217634 -1.43355 3.36708 67 66 61
0.222827 -1.38114 3.36564 62 65 56
0.222188 -1.35552 3.35577 75 74 69
0.222523 -1.82665 3.3525 100 96 85
0.233643 -1.48355 3.39198 66 66 56
0.236565 -1.21426 3.30955 73 69 60
0.23329 -1.2062 3.2899 73 69 60
0.267516 -1.89188 3.39046 104 100 91
0.350534 -1.89668 3.44645 120 116 107
0.354463 -1.99242 3.42148 118 111 101
0.372983 -1.17332 3.38625 25 24 20
0.383437 -1.92435 3.43078 114 110 101
0.39485 -1.53751 3.50664 56 55 50
0.397591 -2.06344 3.56511 118 109 100
0.397591 -2.06344 3.56511 118 109 100
0.427101 -0.931638 3.36945 169 162 152
0.51002 -0.976033 3.42021 161 157 146
0.558302 -1.90095 3.5907 82 81 77
0.525895 -0.769466 3.32684 112 108 99
0.580007 -1.4979 3.65875 139 135 124
0.580007 -1.4979 3.65875 139 135 124
0.532445 -0.877411 3.3557 130 127 118
0.558574 -1.81163 3.52758 79 75 72
0.539337 -0.889151 3.35829 124 120 111
0.595777 -1.95982 3.59395 69 70 65
0.590469 -2.07054 3.55792 76 77 72
0.598161 -1.42863 3.58999 149 142 134
0.6072 -1.45891 3.65724 149 142 134
0.61065 -1.50145 3.67594 129 125 116
0.61065 -1.50145 3.67594 129 125 116
0.557255 -0.919451 3.35623 104 94 84
0.608129 -1.36886 3.62765 134 130 121
0.604121 -1.3337 3.58529 134 135 127
0.635108 -1.45043 3.61825 123 114 105
0.63668 -1.84122 3.62652 69 55 52
0.647078 -1.42821 3.67622 141 132 123
0.600088 -0.843524 3.41534 140 141 135
0.643944 -2.07587 3.59573 69 70 65
0.643848 -1.24851 3.58745 94 96 91
0.671652 -1.58107 3.68294 99 99 91
0.65663 -1.27492 3.59539 112 113 108
0.670122 -1.37661 3.67356 95 98 91
0.670122 -1.37661 3.67356 95 98 91
0.654672 -1.81987 3.59647 100 87 81
0.669216 -1.81585 3.60719 148 141 131
0.674479 -2.00312 3.61567 70 71 66
0.679011 -2.0062 3.61717 70 71 66
0.707175 -1.81922 3.63167 125 126 118
0.722198 -1.45611 3.69376 112 112 104
0.689612 -0.942296 3.4684 108 111 104
0.680446 -0.835955 3.42076 126 125 120
0.694493 -0.988049 3.46435 113 115 110
0.693576 -1.00096 3.44423 99 101 96
0.75126 -1.84502 3.6998 103 102 97
0.725326 -1.0195 3.48373 122 123 117
0.799941 -1.85239 3.74082 108 107 102
0.794733 -0.91542 3.59186 99 98 93
0.799035 -0.921374 3.60637 99 98 93
0.858959 -1.56726 3.85198 109 111 106
0.827846 -1.94924 3.72511 93 82 76
0.866464 -1.53539 3.86278 107 106 102
0.884842 -2.02231 3.77921 48 53 49
0.851659 -0.897601 3.6031 118 117 112
0.887042 -1.81868 3.74167 108 108 100
0.909103 -1.98031 3.82779 100 100 92
0.910345 -1.86153 3.75313 108 109 104
0.948095 -1.56626 3.90642 128 129 123
0.945457 -1.29935 3.75849 106 107 101
0.974458 -1.43702 3.87525 97 98 92
0.99749 -1.43039 3.91777 114 117 108
0.965589 -1.33655 3.77677 135 135 125
0.991338 -1.2883 3.83767 102 101 97
0.990144 -1.79887 3.78353 85 85 75
1.01133 -1.12595 3.83329 105 106 100
1.0173 -1.28865 3.85021 112 113 107
1.02503 -1.32005 3.87357 105 106 100
0.992612 -1.06761 3.73944 113 114 106
1.02082 -1.18316 3.83655 123 124 118
1.03392 -1.25696 3.85382 137 138 132
1.06692 -1.48665 3.9519 100 101 95
1.05971 -1.17907 3.84441 104 103 98
1.0429 -1.00991 3.76627 104 106 101
1.08654 -1.34383 3.91451 119 120 114
1.1287 -2.04096 3.94873 108 108 100
1.1563 -1.91863 3.99777 101 101 93
1.1563 -1.91863 3.99777 101 101 93
1.12845 -1.79509 3.84203 80 77 68
1.15048 -1.83249 3.92907 93 93 81
1.18981 -1.83429 3.95277 107 97 85
1.09085 -0.329147 3.57463 123 117 105
1.23229 -1.89878 4.03057 111 103 90
1.20426 -1.4212 3.88945 114 107 97
1.26169 -1.4672 4.10908 115 107 96
1.23695 -1.40362 4.03891 124 115 106
1.25337 -1.33982 4.06227 118 110 99
1.20523 -1.76019 3.89483 110 101 92
1.10035 0.514678 3.55116 131 122 113
1.25758 -1.87266 4.05051 101 97 85
1.29762 -1.5198 4.15622 105 98 88
1.2611 -1.40445 4.0486 97 87 78
1.11508 0.49271 3.56777 128 120 109
1.52142 -2.98462 4.84691 86 83 74
1.23721 -0.886028 3.86081 117 111 99
1.56004 -3.01126 4.85675 94 92 80
1.28806 -1.84365 4.01933 108 102 90
1.27548 -1.14724 3.97164 115 109 97
1.29412 -1.16455 4.0198 115 109 97
1.29412 -1.16455 4.0198 115 109 97
1.30546 -0.854699 3.89696 124 116 105
0.954835 1.90368 2.84612 99 99 91
1.68005 -3.01164 4.96953 78 78 68
1.68005 -3.01164 4.96953 78 78 68
1.36141 -2.12123 3.98766 104 100 88
1.37524 -0.980157 3.99175 111 104 94
1.15527 0.480959 3.31537 100 96 87
1.48257 -1.4448 4.23978 117 113 101
1.15641 0.393159 3.30592 85 86 81
1.36918 -1.96186 3.93478 100 98 86
1.38487 -1.84783 3.96914 111 107 96
1.50046 -1.68033 4.24751 0 0 0
1.33658 -0.285882 3.72261 0 0 0
1.82906 -3.034 5.06412 0 0 0
1.43888 -1.05164 3.9593 0 0 0
1.41536 -1.06731 3.88276 0 0 0
1.34422 -0.180471 3.66649 0 0 0
1.85682 -3.05497 5.06334 0 0 0
1.46016 -1.22188 3.98189 0 0 0
1.29583 0.102981 3.51913 0 0 0
1.44135 -0.988642 3.91658 0 0 0
1.89908 -3.04668 5.11372 0 0 0
1.89908 -3.04668 5.11372 0 0 0
1.32377 0.0675917 3.52587 0 0 0
1.27576 0.400028 3.37188 0 0 0
1.30283 0.303575 3.42977 0 0 0
1.49491 -0.95418 3.93703 0 0 0
1.03208 1.82996 2.71104 0 0 0
1.50652 -0.986931 3.95316 0 0 0
1.9212 -3.03079 5.01895 0 0 0
1.04063 1.82267 2.71853 0 0 0
1.51629 -0.959256 3.95201 0 0 0
1.18027 1.19317 3.06947 0 0 0
1.19557 1.06849 3.10237 0 0 0
1.22072 0.999364 3.15686 0 0 0
1.53457 -0.902812 3.95416 0 0 0
1.52639 -1.41437 3.93623 0 0 0
1.17424 1.26751 3.01209 0 0 0
1.13809 1.5052 2.90681 0 0 0
1.53862 -0.92728 3.91498 0 0 0
1.1231 1.62358 2.85593 0 0 0
1.51242 -2.09298 3.8442 0 0 0
1.54553 -2.09412 3.90511 0 0 0
1.10873 1.75633 2.80024 0 0 0
1.11518 1.73708 2.8132 0 0 0
1.5899 -1.87572 3.96782 0 0 0
1.65125 -1.71535 4.09314 0 0 0
1.60508 -0.81594 3.79183 0 0 0
1.61028 -1.86216 3.73323 0 0 0
1.67878 -1.75138 3.85869 0 0 0
1.72335 -1.64532 3.9552 0 0 0
1.62545 -1.90225 3.73215 0 0 0
1.70524 -1.53387 3.91031 0 0 0
1.61483 -2.01922 3.70456 0 0 0
1.69901 -1.65208 3.86515 0 0 0
1.67774 -1.87037 3.79219 0 0 0
1.59633 -1.01315 3.58617 0 0 0
1.15269 1.99866 2.5579 0 0 0
1.66394 -0.907612 3.65271 0 0 0
1.88729 -1.70202 4.08049 0 0 0
2.28584 -2.98552 4.83213 0 0 0
1.28782 1.2388 2.67237 0 0 0
1.28456 1.29027 2.65143 0 0 0
1.29254 1.27884 2.6516 0 0 0
1.89844 -1.98201 3.91224 0 0 0
1.31519 1.32302 2.6866 0 0 0
2.01401 -1.61267 4.1263 0 0 0
1.23169 1.70852 2.4952 0 0 0
2.44173 -3.03136 4.9329 0 0 0
1.96679 -1.87149 3.95579 0 0 0
1.20007 1.91002 2.40758 0 0 0
1.24564 1.6897 2.49668 0 0 0
1.2313 1.93815 2.43815 0 0 0
1.24722 1.74546 2.47488 0 0 0
2.53683 -3.0299 5.03025 0 0 0
2.11354 -1.60157 4.17403 0 0 0
2.01096 -1.84806 3.94913 0 0 0
2.1032 -1.89412 4.04254 0 0 0
1.39672 1.41869 2.68016 0 0 0
1.39672 1.41869 2.68016 0 0 0
1.49203 1.24083 2.85495 0 0 0
2.0611 -1.98914 3.92634 0 0 0
2.10851 -2.04471 4.01443 0 0 0
2.17248 -2.00935 4.1062 0 0 0
2.09887 -0.81637 3.94878 0 0 0
1.8314 -1.82795 3.43973 0 0 0
2.04009 -0.724608 3.82844 0 0 0
2.23278 -2.20884 4.16618 0 0 0
2.19952 -2.13108 4.05026 0 0 0
1.40953 1.96289 2.51371 0 0 0
1.6128 1.50888 2.86671 0 0 0
1.70784 1.4955 2.86228 0 0 0
2.4258 1.12963 3.94254 0 0 0
1.73437 1.83909 2.76313 0 0 0
1.6854 2.04373 2.66551 0 0 0
2.67343 0.833589 4.20854 0 0 0
2.785 0.893953 4.25943 0 0 0
2.98449 0.171591 4.57372 0 0 0
2.58689 1.52384 3.94631 0 0 0
2.58689 1.52384 3.94631 0 0 0
2.73769 1.10781 4.16593 0 0 0
2.73769 1.10781 4.16593 0 0 0
3.04488 0.374949 4.62214 0 0 0
2.6746 0.356819 4.05865 0 0 0
2.9685 0.55214 4.46266 0 0 0
2.83804 0.592648 4.26968 0 0 0
2.77373 1.16532 4.15692 0 0 0
2.57371 0.957502 3.85302 0 0 0
2.66444 1.27018 3.9861 0 0 0
2.74372 1.09993 4.10162 0 0 0
2.81435 0.959814 4.16728 0 0 0
2.92269 0.789195 4.31799 0 0 0
2.78985 1.0099 4.11701 0 0 0
2.82112 0.912092 4.12315 0 0 0
2.87305 0.751146 4.19722 0 0 0
2.79847 0.983778 4.06225 0 0 0
2.78644 1.07968 4.04509 0 0 0
3.25136 0.363267 4.70475 0 0 0
2.59968 1.89231 3.75828 0 0 0
2.83629 1.15689 4.09972 0 0 0
2.44952 2.09998 3.54348 0 0 0
2.90716 0.801081 4.2034 0 0 0
2.9181 1.07383 4.2094 0 0 0
2.7244 1.30022 3.93262 0 0 0
2.44253 2.12685 3.52289 0 0 0
2.52462 2.13306 3.63162 0 0 0
2.68835 1.56132 3.86472 0 0 0
2.84492 0.983777 4.09216 0 0 0
2.61809 1.61354 3.76484 0 0 0
2.72646 1.47252 3.91345 0 0 0
2.61094 1.6444 3.74455 0 0 0
2.83289 1.1066 4.06173 0 0 0
2.51453 1.97739 3.60432 0 0 0
2.74455 1.4551 3.92832 0 0 0
2.89948 1.17236 4.1308 0 0 0
2.92118 1.02436 4.16111 0 0 0
2.92118 1.02436 4.16111 0 0 0
3.03616 0.755542 4.31832 0 0 0
2.76526 0.703185 3.93133 0 0 0
2.31088 2.37537 3.28122 0 0 0
2.86648 1.02689 4.06819 0 0 0
2.86648 1.02689 4.06819 0 0 0
2.53902 2.1115 3.59295 0 0 0
2.95887 0.836214 4.1875 0 0 0
2.768 0.781201 3.90874 0 0 0
2.87352 1.15527 4.06543 0 0 0
2.54134 2.05989 3.58209 0 0 0
2.47195 2.11622 3.48346 0 0 0
2.4534 2.11816 3.45016 0 0 0
2.45023 2.16034 3.44557 0 0 0
2.6943 2.35252 3.77983 0 0 0
2.43239 2.12438 3.41092 0 0 0
2.52685 2.00073 3.54687 0 0 0
2.83916 1.49891 3.98052 0 0 0
2.90957 1.16198 4.0845 0 0 0
2.35379 2.3713 3.28586 0 0 0
2.94722 1.16802 4.10179 0 0 0
2.35552 2.31808 3.27117 0 0 0
2.47744 2.07575 3.43897 0 0 0
3.39525 0.578135 4.71085 0 0 0
2.33905 2.31798 3.22788 0 0 0
3.02497 1.08065 4.15945 0 0 0
3.16883 0.72731 4.35096 0 0 0
2.86842 1.86904 3.90844 0 0 0
3.07102 1.07431 4.18035 0 0 0
2.75583 2.04409 3.74062 0 0 0
3.22614 0.78121 4.37301 0 0 0
3.42766 0.674377 4.63362 0 0 0
2.96595 1.5296 3.9911 0 0 0
3.39386 0.756182 4.54483 0 0 0
3.00388 1.75873 4.00899 0 0 0
2.89303 1.76343 3.86801 0 0 0
2.83564 2.06057 3.77985 0 0 0
2.83829 1.92797 3.77167 0 0 0
2.67822 2.45947 3.44148 0 0 0
2.89431 2.27536 3.64262 0 0 0
3.75328 2.66011 4.48451 0 0 0
3.77831 2.66279 4.48351 0 0 0
3.59358 2.89938 4.22653 0 0 0
4.5404e+07 -3.20277e+07 5.35563e+07 0 0 0
3.61998 2.84447 4.2549 0 0 0
3.61998 2.84447 4.2549 0 0 0
4.49565e+07 -3.01855e+07 5.26641e+07 0 0 0
4.61043e+07 -3.18251e+07 5.39315e+07 0 0 0
4.52045e+07 -3.14097e+07 5.26844e+07 0 0 0
2.82491e+07 -1.52926e+07 3.25052e+07 0 0 0
4.48827e+07 -3.08876e+07 5.16273e+07 0 0 0
4.17456e+07 -2.96119e+07 4.76278e+07 0 0 0
4.17456e+07 -2.96119e+07 4.76278e+07 0 0 0
4.65832e+07 -3.08285e+07 5.29182e+07 0 0 0
-1.69849e+07 8.44812e+06 -1.87609e+07 0 0 0
-1.69849e+07 8.44812e+06 -1.87609e+07 0 0 0
-1.78614e+07 7.58459e+06 -1.95273e+07 0 0 0
-1.77451e+07 6.52447e+06 -1.93693e+07 0 0 0
-1.70754e+07 8.51692e+06 -1.86401e+07 0 0 0
-1.85664e+07 7.41142e+06 -2.0175e+07 0 0 0
-1.85664e+07 7.41142e+06 -2.0175e+07 0 0 0
2.04787e+07 -8.95167e+06 2.21222e+07 0 0 0
-1.80641e+07 8.47369e+06 -1.93525e+07 0 0 0
5.22251 3.26239 5.53719 0 0 0
-1.55225e+07 3.32642e+06 -1.63321e+07 0 0 0
-1.54827e+07 3.31878e+06 -1.62416e+07 0 0 0
-1.06218 1.34641 1.352 100 93 83
-1.52728 1.94551 2.00999 188 179 172
-1.26935 0.0677212 1.72694 220 226 238
-1.25689 0.288587 1.71639 88 86 74
-1.01937 1.21803 1.40764 130 130 128
-1.01937 1.21803 1.40764 130 130 128
-1.24138 0.363812 1.71836 108 112 115
-1.02884 1.16835 1.43548 200 195 192
-0.990104 1.37453 1.38209 118 119 113
-0.988693 1.36677 1.38263 110 111 105
-1.02384 1.17263 1.43843 205 204 199
-1.18075 0.563731 1.67121 125 122 115
-1.2496 -0.0201832 1.77091 220 226 238
-1.74795 0.0672213 2.48218 222 226 238
-1.17597 0.571404 1.67114 122 122 112
-1.13557 0.777574 1.62063 212 212 210
-1.07418 1.0653 1.54183 245 246 241
-1.1856 0.262295 1.71868 118 120 119
-1.08216 0.976258 1.57025 220 216 213
-1.1735 0.404138 1.70552 87 87 85
-1.07504 0.984175 1.57074 216 213 208
-1.07504 0.984175 1.57074 216 213 208
-1.6511 0.534257 2.42965 24 24 22
-1.07368 0.937871 1.5877 225 216 211
-1.69271 0.547939 2.53233 30 32 29
-1.1319 0.565884 1.69454 157 152 148
-1.16838 0.193224 1.74986 112 112 112
-1.14513 0.306842 1.71554 44 45 39
-1.1305 0.495923 1.71284 120 124 127
-1.16696 0.0560937 1.77523 218 224 236
-0.922755 1.38605 1.40809 145 143 146
-1.13944 0.271992 1.74228 122 126 127
-1.27775 -0.164729 1.95438 215 221 233
-1.11671 0.498824 1.71804 127 133 133
-1.11319 0.458177 1.73332 12 17 11
-0.92895 1.2077 1.4505 213 214 209
-1.10445 0.49949 1.72493 131 133 132
-1.10594 0.405036 1.73745 25 27 24
-0.983037 1.16679 1.5458 108 105 96
-0.926811 1.20782 1.47299 128 119 112
-1.69298 0.68472 2.46618 130 131 135
-1.0923 0.356724 1.76193 44 46 45
-1.09258 0.43204 1.76319 33 34 29
-1.03613 0.670159 1.69164 15 18 11
-0.906612 1.21277 1.48018 178 173 170
-1.06138 0.539776 1.73866 176 176 176
-1.63074 1.06483 2.52901 157 159 158
-1.01683 0.739476 1.67311 160 162 161
-0.942627 1.17619 1.56833 210 209 205
-0.995557 0.823118 1.65804 221 221 219
-0.878254 1.26466 1.4631 215 214 209
-1.24458 1.71677 2.07782 223 224 219
-1.04461 0.620391 1.76062 221 221 219
-0.921545 1.1858 1.5611 214 213 208
-1.04795 0.193021 1.9627 206 207 202
-1.3997 0.284056 2.69065 207 208 203
-1.02602 0.160994 1.97357 205 204 199
-1.31148 0.757141 2.53558 142 146 147
-0.969226 0.203453 1.993 202 198 189
-0.956871 0.160953 1.99808 197 190 180
-0.957258 0.209128 2.00471 201 201 193
-1.28316 0.220801 2.73032 119 119 111
-0.927585 0.163866 2.00731 155 157 156
-0.907319 0.224991 2.01915 118 112 100
-0.892821 0.135122 2.00807 212 211 207
-1.1468 0.303766 2.77575 210 207 200
-0.817159 0.146632 2.04149 210 207 200
-0.810733 0.237755 2.06343 209 209 199
-1.08899 0.255148 2.7982 207 204 197
-0.804428 0.18698 2.06733 207 204 197
-0.674969 0.657237 2.00387 194 194 194
-0.668117 0.664781 2.00496 200 200 198
-0.654604 0.7003 1.97873 218 218 216
-0.695594 0.263677 2.12379 152 151 149
-0.831177 0.822712 2.57826 178 178 178
-0.649917 0.642906 2.01659 178 178 178
-0.632459 0.730738 1.99446 226 226 224
-0.649744 0.45915 2.08997 27 29 24
-0.84107 0.54102 2.78506 40 42 37
-0.664805 -0.0218149 2.22192 210 209 205
-0.633046 0.172858 2.12979 211 210 206
-0.76997 0.78588 2.59917 147 147 147
-0.64813 0.0495332 2.19275 213 212 208
-0.626787 0.173334 2.1337 213 209 206
-0.622094 0.155018 2.13874 208 207 203
-0.552556 0.175487 2.13081 212 211 207
-0.341526 -1.95437 3.36751 30 23 15
-0.0919008 -1.56875 3.0789 27 27 19
-0.0131838 -1.48786 3.21516 26 25 21
-0.0154799 -1.54225 3.32567 26 25 21
-0.00529268 -1.16387 3.0989 63 62 57
-0.00491235 -1.67416 3.07241 231 223 220
-0.00310661 -1.49487 3.21754 20 24 23
0.011114 -1.75643 3.0051 35 31 30
0.0224816 -1.37692 3.21345 145 140 134
0.0226229 -1.32763 3.18162 66 58 55
0.0236645 -1.4127 3.20567 87 82 78
0.0437931 -1.43823 3.23734 56 59 52
0.0441827 -1.80365 3.03584 109 115 115
0.0441827 -1.80365 3.03584 109 115 115
0.0485595 -1.23602 3.16631 81 78 71
0.0850962 -1.28937 3.21575 56 63 56
0.125003 -1.44831 3.29776 27 29 26
0.124603 -1.76797 3.19527 90 91 83
0.13196 -1.22466 3.21575 68 68 58
0.133324 -1.2999 3.24561 74 74 64
0.152308 -1.40214 3.29083 87 82 76
0.161988 -1.49033 3.38095 87 84 77
0.155773 -1.77953 3.20951 93 90 83
0.161372 -1.23551 3.24584 62 65 58
0.178262 -1.39012 3.30997 56 56 54
0.190403 -1.25335 3.53175 68 69 63
0.194458 -1.24307 3.26692 58 51 45
0.196878 -1.31191 3.2952 73 70 65
0.204026 -1.46433 3.35444 72 68 57
0.215015 -1.3819 3.38107 73 72 68
0.222415 -1.24063 3.28539 71 72 66
0.223598 -1.2781 3.30043 70 73 64
0.206211 -0.690466 3.03428 203 202 197
0.232214 -1.42716 3.36025 64 65 57
0.241693 -1.84357 3.29036 99 97 85
0.247541 -1.39789 3.35409 91 86 80
0.323273 -1.82823 3.34096 120 113 103
0.323273 -1.82823 3.34096 120 113 103
0.332711 -1.86066 3.3554 122 115 107
0.343322 -1.93281 3.31699 118 111 101
0.367626 -1.88714 3.54594 120 111 102
0.397458 -1.47196 3.48428 19 19 11
0.389861 -1.88063 3.56604 120 116 107
0.426179 -1.87366 3.57713 114 110 99
0.427087 -0.931312 3.36866 169 162 152
0.445443 -1.90117 3.425 115 111 102
0.505355 -1.04314 3.65019 165 158 148
0.50053 -1.80927 3.45011 103 98 94
0.52189 -1.83459 3.54312 81 82 76
0.529858 -1.29555 3.51533 160 153 143
0.503061 -0.803503 3.31811 145 137 126
0.503061 -0.803503 3.31811 145 137 126
0.538888 -1.30652 3.51987 159 150 141
0.560578 -1.22679 3.50532 154 149 143
0.531646 -0.997846 3.31312 146 141 135
0.579294 -1.36478 3.56772 148 148 140
0.579294 -1.36478 3.56772 148 148 140
0.562719 -0.942337 3.43813 104 94 84
0.627708 -1.85178 3.64473 47 39 36
0.629316 -1.95978 3.5267 75 77 72
0.629316 -1.95978 3.5267 75 77 72
0.597965 -0.732779 3.3298 140 143 136
0.662852 -1.41158 3.63103 126 122 113
0.656257 -1.41171 3.62974 126 122 113
0.60762 -0.819046 3.35159 114 115 107
0.659993 -1.35108 3.5816 103 104 98
0.658723 -1.81216 3.55644 28 30 25
0.667136 -1.1603 3.58817 114 115 109
0.676819 -1.29681 3.60951 119 116 109
0.676819 -1.29681 3.60951 119 116 109
0.669124 -0.781306 3.46594 122 121 116
0.669124 -0.781306 3.46594 122 121 116
0.711673 -2.03749 3.71173 64 65 60
0.711673 -2.03749 3.71173 64 65 60
0.741431 -1.83861 3.68621 120 119 114
0.740437 -1.95972 3.5902 58 60 57
0.740437 -1.95972 3.5902 58 60 57
0.784475 -1.85382 3.66411 148 149 141
0.784475 -1.85382 3.66411 148 149 141
0.819244 -1.50005 3.7683 107 108 102
0.819244 -1.50005 3.7683 107 108 102
0.806016 -1.37032 3.69533 113 115 110
0.840107 -1.80673 3.68354 102 103 95
0.845855 -1.84631 3.68604 87 88 80
0.853697 -0.894507 3.60057 118 117 112
0.912559 -1.81471 3.74366 96 97 91
0.923934 -1.99367 3.75739 45 49 48
0.951422 -1.18493 3.75485 102 103 97
0.991604 -1.33248 3.77957 124 121 112
0.997325 -1.37199 3.84561 124 121 112
1.00811 -1.45663 3.87926 113 114 108
1.01697 -1.45806 3.89125 121 122 116
1.03076 -1.21981 3.81254 110 107 100
1.06523 -1.49333 3.92896 105 108 101
1.04407 -1.2572 3.83947 113 115 110
1.04063 -1.20679 3.82173 132 129 122
1.05254 -1.34635 3.76524 129 130 124
1.13911 -0.778304 3.8054 115 105 95
1.20893 -1.3779 3.98833 119 109 99
0.95854 1.4615 3.16259 133 109 85
1.13201 -0.667972 3.69388 128 122 110
1.2181 -1.34537 3.97373 118 109 100
1.23327 -1.35834 3.99753 119 111 100
1.10809 -0.415557 3.56318 128 122 110
1.22003 -1.22623 3.94311 107 100 90
1.22003 -1.22623 3.94311 107 100 90
1.22064 -0.835959 3.82766 108 99 90
1.16312 0.349115 3.31497 101 94 86
1.20409 0.357296 3.36367 0 0 0
1.32269 -0.201368 3.67097 0 0 0
1.44673 -2.04929 3.92485 0 0 0
1.28568 0.557808 3.38354 0 0 0
1.49245 -0.952115 3.92785 0 0 0
1.25395 0.792352 3.27017 0 0 0
1.72563 -1.62022 3.9018 0 0 0
1.72013 -1.56867 3.8807 0 0 0
1.75315 -1.514 3.89077 0 0 0
1.76709 -1.58606 3.91902 0 0 0
1.81383 -0.844503 3.77867 0 0 0
1.94444 -2.04061 3.91845 0 0 0
1.95347 -2.04554 3.92433 0 0 0
1.97938 -1.99591 3.96362 0 0 0
2.1998 -1.85203 4.30504 0 0 0
2.10323 -1.57644 4.11341 0 0 0
2.03356 -2.04262 3.96386 0 0 0
2.03356 -2.04262 3.96386 0 0 0
2.18301 -1.52641 4.13895 0 0 0
2.12064 -1.84237 3.99884 0 0 0
2.14771 -1.88584 4.04563 0 0 0
2.24146 -1.57039 4.1888 0 0 0
2.18368 -1.83447 4.0233 0 0 0
1.92663 0.590681 3.42917 0 0 0
2.2546 0.731243 3.92671 0 0 0
2.25766 0.703836 3.91977 0 0 0
2.17516 1.15213 3.7414 0 0 0
2.72794 0.862264 4.66906 0 0 0
2.42624 1.26325 4.07712 0 0 0
2.38681 0.598293 3.99854 0 0 0
2.48689 0.724841 4.06278 0 0 0
2.50236 1.36749 4.06713 0 0 0
2.50134 0.69307 4.05073 0 0 0
2.50781 1.43057 4.04853 0 0 0
2.40276 0.724448 3.83765 0 0 0
2.43008 1.13337 3.88708 0 0 0
2.49222 1.56981 3.97958 0 0 0
2.44212 1.75872 3.86094 0 0 0
2.32943 2.1396 3.64937 0 0 0
2.65931 0.793932 4.14843 0 0 0
2.5139 0.734011 3.90259 0 0 0
2.59395 0.905955 3.9996 0 0 0
2.6368 0.922833 4.05887 0 0 0
2.70694 0.619334 4.15162 0 0 0
2.73697 0.632071 4.1978 0 0 0
2.88588 0.3343 4.41919 0 0 0
2.72917 0.752405 4.17343 0 0 0
2.71645 0.867157 4.14225 0 0 0
2.58139 1.19641 3.92579 0 0 0
2.66804 1.02707 4.05377 0 0 0
2.4028 1.85144 3.59837 0 0 0
2.63146 1.3049 3.93745 0 0 0
2.28296 2.16217 3.39538 0 0 0
2.52435 1.66064 3.74008 0 0 0
2.6716 1.31102 3.95799 0 0 0
2.71023 1.2339 3.9968 0 0 0
2.57984 1.19814 3.75455 0 0 0
2.65267 1.44253 3.88565 0 0 0
2.82803 0.826394 4.13405 0 0 0
2.40917 2.08197 3.51692 0 0 0
2.3797 2.1501 3.46946 0 0 0
2.8403 0.629944 4.14112 0 0 0
2.41119 2.12073 3.50367 0 0 0
2.85454 0.844759 4.14217 0 0 0
2.8601 0.828475 4.15011 0 0 0
2.41367 2.13169 3.49588 0 0 0
2.72493 1.1999 3.9443 0 0 0
3.08611 0.350282 4.46584 0 0 0
2.89772 0.682476 4.19096 0 0 0
2.80109 1.00311 4.04812 0 0 0
2.72402 0.710625 3.91939 0 0 0
2.65971 1.42578 3.83867 0 0 0
2.44756 2.09395 3.52147 0 0 0
2.53136 1.87405 3.63927 0 0 0
2.84799 0.938866 4.0942 0 0 0
2.8266 1.0563 4.06283 0 0 0
2.61809 1.56752 3.76254 0 0 0
2.83499 0.990315 4.05862 0 0 0
2.47571 2.04924 3.53665 0 0 0
2.64246 1.59786 3.75825 0 0 0
2.72568 1.45107 3.86324 0 0 0
2.81055 1.23866 3.97624 0 0 0
2.45506 2.07565 3.46982 0 0 0
2.88944 0.94113 4.08363 0 0 0
2.6232 1.73873 3.69905 0 0 0
2.94165 0.92828 4.12077 0 0 0
2.96348 0.871001 4.14643 0 0 0
2.96348 0.871001 4.14643 0 0 0
2.52752 2.06842 3.52836 0 0 0
2.95393 0.952562 4.12091 0 0 0
2.68183 1.64919 3.74073 0 0 0
2.99695 0.875764 4.16704 0 0 0
2.36801 2.21065 3.29116 0 0 0
2.33937 2.30313 3.23881 0 0 0
3.28815 0.490586 4.53327 0 0 0
3.23769 0.559913 4.45924 0 0 0
2.93599 1.25324 4.02984 0 0 0
2.82824 1.06367 3.86291 0 0 0
2.82103 1.55264 3.86554 0 0 0
3.16242 0.786978 4.30614 0 0 0
3.02735 1.24842 4.10899 0 0 0
2.99903 1.35236 4.06126 0 0 0
2.51811 2.13788 3.40624 0 0 0
2.51811 2.13788 3.40624 0 0 0
2.92057 1.22434 3.94628 0 0 0
2.87813 1.19568 3.84897 0 0 0
3.21915 0.750881 4.34228 0 0 0
2.94155 0.966357 3.92664 0 0 0
2.93922 1.56121 3.95351 0 0 0
2.9582 1.48399 3.97636 0 0 0
3.24719 0.696197 4.3394 0 0 0
3.24719 0.696197 4.3394 0 0 0
2.80271 1.93305 3.7436 0 0 0
2.87136 1.74575 3.83248 0 0 0
2.88036 1.79039 3.78752 0 0 0
2.63907 2.16532 3.46797 0 0 0
2.75333 2.2431 3.48557 0 0 0
-1.02716 1.31226 1.35729 128 128 126
-1.05177 1.17286 1.40656 42 37 34
-1.01468 1.21872 1.39679 215 214 209
-0.994222 1.3182 1.37647 151 151 151
-1.10839 0.762495 1.59296 200 199 195
-1.55419 0.0421684 2.74797 213 220 228
-1.21722 0.0476091 1.73463 220 227 235
-1.14671 0.3703 1.69533 179 180 175
-1.17084 0.174049 1.73756 220 227 235
-0.883551 1.22086 1.47398 45 47 42
-1.06585 0.0569652 1.81937 217 214 209
-1.00221 0.200697 1.93983 205 201 192
-2.10276 2.16201 7.5082 21 23 18
-0.887839 0.157455 1.92717 212 209 200
-0.878677 0.132922 1.99827 145 135 126
-0.826993 0.217061 1.99807 217 214 207
-0.652088 0.428516 2.072 209 206 199
-0.630639 0.406668 2.09342 210 209 204
-0.297579 1.12655 1.65102 10 15 9
-0.303586 0.84617 1.7312 164 164 156
-0.262371 1.43121 1.56969 10 12 9
-0.27462 0.922922 1.72428 189 186 179
-0.362602 -1.97215 2.7948 71 54 46
-0.0261456 1.29073 1.77955 30 31 26
0.149873 -1.52895 3.37508 113 106 96
0.174898 -1.16439 3.27409 23 24 19
-0.0868548 -2.09184 2.9796 109 105 94
-0.0316432 -1.92247 2.65037 112 108 96
0.16508 -1.95214 3.24969 72 62 53
0.40619 -1.8878 3.48332 81 80 75
0.614615 -1.11505 3.89785 148 142 128
0.465656 -0.968409 3.38326 169 163 149
0.515192 -0.885407 3.34728 138 134 125
1.4312 -1.84886 3.99993 105 101 90
1.40852 -2.02451 3.97765 113 109 100
1.65739 -1.7454 3.81955 110 106 94
2.75896 0.643042 4.2431 0 0 0
2.60896 1.69826 3.82583 0 0 0
2.77546 0.650194 3.9359 0 0 0
4.13868e+09 -9.84344e+08 -5.86948e+09 69 66 61
4.09625e+09 -1.00589e+09 -5.86726e+09 26 27 21
4.097e+09 -9.62726e+08 -5.88752e+09 67 68 62
4.097e+09 -9.62726e+08 -5.88752e+09 67 68 62
-1.72623e-11 5.99542e-12 2.57326e-11 21 23 18
-3.86719 0.719515 6.28073 153 153 153
-1.39422e-11 3.96272e-12 2.29779e-11 96 101 104
-1.31454 1.54541 2.44459 220 221 216
127.191 -32.8824 -267.26 207 207 199
-1.91904 0.474408 5.97813 210 209 204
-0.687652 1.33592 3.41057 227 227 225
-0.667817 1.33918 3.42531 226 227 222
-0.624615 1.34189 3.4593 227 228 223
-0.581541 1.45415 3.41967 220 221 216
-0.581541 1.45415 3.41967 220 221 216
-0.530517 1.38989 3.50865 233 232 227
-0.153171 1.21122 2.08716 152 149 144
-0.420597 1.34725 3.63248 162 163 157
-0.0767425 1.2171 2.12927 161 162 154
0.133174 -1.39865 3.21628 61 61 53
0.160237 -1.4702 3.3865 63 64 56
0.172864 -1.42805 3.34949 101 101 91
0.201197 -1.96053 3.50784 102 93 84
0.254824 -1.69152 3.13972 107 103 94
0.277941 -1.82583 3.11075 106 101 95
0.390434 -1.99004 3.58239 122 118 107
0.413827 -1.50276 3.49959 18 19 13
0.476255 -1.94703 3.55671 113 109 98
0.533803 -1.99462 3.63613 86 85 80
0.544345 -1.93098 3.58614 82 81 77
0.55489 -1.67535 3.28481 44 46 43
0.907609 -1.42611 3.707 107 106 102
0.8637 -2.00063 3.72771 48 53 49
0.960733 -1.64774 3.47623 91 91 83
1.12825 -1.54574 3.9094 102 95 85
1.13006 -1.20648 3.66261 118 110 99
1.6209 1.38509 2.9137 0 0 0
2.32393 0.746761 3.97762 0 0 0
3.19755 0.893308 4.97226 0 0 0
2.79484 0.341749 4.08982 0 0 0
-1.72459 0.0103691 2.97111 219 226 234
-2.1866 -0.164317 12.3327 137 130 120
1.8652e+09 -1.21187e+09 -6.45987e+09 209 206 199
-1.42048 0.621579 3.01959 208 205 196
3.27936e+09 -6.12564e+08 -5.36849e+09 217 214 207
1.18101e+09 -3.88004e+08 -6.25587e+09 219 216 209
0.233529 -1.95285 3.43812 118 111 101
0.393161 -2.3281 3.94619 116 109 99
0.413731 -1.91408 3.53854 81 80 75
0.429472 -2.03954 3.5465 77 76 71
1.20367 -1.44485 3.84841 123 116 106
1.16723 -1.96048 4.13351 29 31 26
2.00208e+07 4.76521e+06 -1.30415e+08 0 0 0
-1.96725 0.424684 2.44029 72 67 61
-1.98652 0.150465 2.47777 73 71 59
21.56 -4.93368 -22.4081 96 101 97
-1.01077e+08 2.38611e+07 1.40404e+08 102 99 94
-92.5605 20.6144 99.6099 131 117 116
-1.1385e+09 3.44544e+08 1.61087e+09 216 218 215
-3.7007e+09 4.15567e+08 5.08775e+09 222 228 240
-4.07826e+09 9.41009e+08 5.45105e+09 159 162 151
-4.11291e+09 9.42746e+08 5.41114e+09 159 162 151
-32.3396 8.04705 37.476 143 147 132
-1.73266 0.220479 2.55192 214 216 215
6.19923 -1.98372 -7.0522 218 217 215
-1.40852 0.286791 2.62176 184 182 183
-1.39181 0.283238 2.62765 186 184 185
-4.22149e+09 1.63202e+09 7.42264e+09 40 40 38
-0.217312 -1.19703 1.67577 38 35 30
0.570214 1.72341 7.45999 214 210 207
0.570214 1.72341 7.45999 214 210 207
0.476737 -0.107742 0.139455 214 215 209
-0.618741 -1.91806 3.16987 17 23 11
0.314463 -0.334319 0.665679 83 83 75
-0.54413 -1.97111 3.34778 38 34 23
4.52284e+08 1.33322e+08 -1.72661e+09 45 43 31
-0.332473 -1.64034 3.38842 71 71 63
8.01286e+08 1.89369e+08 -2.83886e+09 99 104 100
-0.298395 -2.40628 3.52075 46 42 31
-0.0288238 -1.94778 4.55708 87 80 72
0.137644 -1.46379 3.36964 87 80 72
0.208905 -2.09737 3.5581 17 19 16
0.250101 -1.41738 3.37725 66 69 60
0.234917 -2.13521 3.50568 86 92 82
0.286035 -1.17774 3.36205 205 206 200
0.361484 -1.88525 3.56211 72 73 65
0.366154 -1.96438 3.57996 64 59 55
0.445736 -1.39193 3.46482 115 102 94
0.410306 -1.36722 3.45751 115 102 94
0.497601 -2.06263 3.65097 25 28 21
0.497601 -2.06263 3.65097 25 28 21
0.545149 -1.13803 3.45235 211 210 206
0.59351 -1.86938 3.6047 162 158 146
0.60192 -0.831309 3.42594 21 22 17
0.632313 -1.20146 3.51207 188 182 170
0.658446 -2.04517 3.70396 136 132 123
0.937653 -2.47368 3.91631 79 80 75
0.779304 -2.03033 3.7425 114 111 104
0.779304 -2.03033 3.7425 114 111 104
0.832493 -2.54795 3.87798 79 80 75
0.784038 -1.82913 3.68781 125 126 120
0.868194 -2.51501 3.88708 85 74 70
0.826095 -1.82157 3.70618 111 112 106
0.82956 -1.50972 3.74157 142 142 132
0.861267 -1.81749 3.72162 108 109 103
0.962842 -2.46781 3.91836 122 123 117
0.915887 -1.86375 3.75923 116 117 111
0.994727 -2.45574 3.92908 98 99 93
1.03555 -2.53411 3.96071 88 90 79
1.00628 -1.28832 3.71953 135 130 124
0.981861 -1.80918 3.77367 110 111 105
1.03413 -1.19005 3.71254 115 103 91
1.08862 -2.53563 3.98398 99 99 91
1.0546 -1.29932 3.74564 141 142 136
1.06476 -1.79714 3.80271 125 121 110
1.23318 -1.21869 3.77879 132 124 113
1.55351 -2.31744 4.03491 0 0 0
2.03493 -2.6393 4.30952 0 0 0
2.04711 -2.68373 4.32272 0 0 0
2.04711 -2.68373 4.32272 0 0 0
1.78524 -2.10586 4.06009 0 0 0
2.06259 -2.6338 4.31843 0 0 0
2.15545 -2.6617 4.35692 0 0 0
1.87456 -2.0521 4.15311 0 0 0
2.19309 -2.67272 4.37235 0 0 0
1.93711 -2.03951 4.17679 0 0 0
2.05075 -1.6986 4.08405 0 0 0
2.04411 -2.0175 4.21722 0 0 0
2.06062 -2.17668 4.25657 0 0 0
2.06062 -2.17668 4.25657 0 0 0
2.16182 -2.27049 4.21137 0 0 0
2.13387 0.671124 3.7591 0 0 0
2.18243 0.699753 3.77688 0 0 0
2.1635 0.683641 3.71693 0 0 0
2.21016 0.605805 3.77697 0 0 0
2.34599 0.608588 3.81254 0 0 0
2.53905 0.710843 3.88255 0 0 0
2.59562 0.823979 3.87887 0 0 0
2.80825 0.827799 3.87736 0 0 0
2.82885 1.05627 3.8418 0 0 0
2.85315 1.03367 3.85457 0 0 0
-2.461e+07 8.38469e+06 3.67013e+07 21 23 18
-1.44754e+07 3.31113e+06 2.17573e+07 130 131 133
-4.59927e+06 1.66685e+06 6.97682e+06 28 30 27
-1.60411e+07 2.51793e+06 2.62579e+07 109 105 104
-3.67331 0.830125 7.7737 206 203 196
-0.46702 2.04387 4.45717 177 176 171
2.01793e+07 3.63856e+06 1.02931e+07 120 117 108
1.02317e+07 1.7409e+07 -2.6393e+07 116 112 103
0.59106 -1.84185 3.57504 43 43 41
0.868717 -1.9841 3.71125 48 53 49
1.06764 -1.80411 3.81571 97 98 92
5.5961 5.49879 12.529 0 0 0
2.02609 -1.4559 4.01751 0 0 0
1.43745 1.91669 2.81202 0 0 0
1.9922 -1.81629 3.92566 0 0 0
-4.56641 5.67632 9.96161 209 208 203
-5.09292 1.8994 16.1604 216 213 204
2.03692e+08 3.28857e+08 -6.29582e+08 20 22 17
3.42562e+07 6.55545e+07 -1.08413e+08 6 22 12
-2.26195 2.74471 -5.59026 32 34 31
1.00034 -0.621425 2.32838 0 0 0
-6.86591e+08 1.05663e+08 7.25234e+08 119 118 113
-2.95108 0.682797 3.60665 97 96 91
-4.24957 0.468495 5.0752 197 203 199
-2.0232e+09 4.68184e+08 2.19184e+09 216 218 215
-2.41766 0.691543 3.17801 216 218 215
-12.6075 5.38488 16.934 232 232 230
-12.9453 4.89212 18.0184 197 197 197
-13.191 5.17861 19.5847 185 185 185
-0.797151 0.232532 2.06377 198 198 200
-0.756899 0.234035 2.02446 203 201 202
0.176574 -1.62124 3.42459 87 88 80
0.480552 -1.84819 3.52992 71 72 66
1.60227 -1.22266 3.69426 0 0 0
1.48012e+07 -3.29082e+06 -2.38349e+07 0 0 0
1.32708 2.05516 2.78176 0 0 0
1.94694 -1.93668 3.88818 0 0 0
1.03592 -0.50147 1.12269 0 0 0
1.50561 1.56306 2.972 0 0 0
1.53297 1.58268 2.98147 0 0 0
1.17427 -0.659028 1.33508 0 0 0
1.6459 1.62393 3.02906 0 0 0
1.69068 1.63025 3.04563 0 0 0
1.7811 1.98045 3.00494 0 0 0
2.33032 0.786241 3.80685 0 0 0
2.4146 0.726822 3.85158 0 0 0
3.06871 1.20978 4.43202 0 0 0
-2.7159 1.77616 1.29479 88 84 75
-2.7159 1.77616 1.29479 88 84 75
-3.42082 -5.42337 2.48182 130 146 146
-3.32972 -5.51873 2.54896 164 177 186
-3.21501 -5.33944 2.57328 37 38 30
-3.25025 -5.70822 2.62584 164 174 184
-3.24013 -5.64741 2.62041 163 173 183
-3.2296 -5.75534 2.64204 166 174 185
-2.46971 -4.31766 3.38768 165 173 184
-3.19447 -5.60577 2.63549 165 173 184
-2.37248 1.37076 1.52349 62 66 51
-3.08275 -5.75726 2.72129 163 171 182
-3.07 -5.84074 2.73995 162 172 182
-3.05056 -5.85066 2.75168 161 171 181
-2.46132 0.0992265 1.72225 188 185 176
-2.38535 0.37157 1.70511 197 190 180
-2.44486 -0.198543 1.78294 185 181 170
-2.83041 -5.02456 2.7202 21 26 19
-2.92319 -5.7164 2.79242 165 171 183
-2.92319 -5.7164 2.79242 165 171 183
-2.37718 0.0149909 1.77829 194 187 177
-2.31028 0.50075 1.7226 94 84 72
-2.829 -5.41908 2.78825 36 29 36
-2.29949 0.3396 1.75559 91 83 70
-2.29949 0.3396 1.75559 91 83 70
-2.31974 0.0792065 1.79668 187 183 172
-2.76641 -5.38293 2.81302 25 24 20
-2.60855 -4.20515 2.68544 92 102 93
-2.68952 -4.88717 2.76784 103 99 98
-2.67575 -4.82911 2.76594 15 24 21
-2.3099 -0.047335 1.82105 171 165 153
-2.18799 0.91092 1.706 206 203 198
-2.66946 -4.89962 2.77968 29 34 27
-2.22602 0.511831 1.76248 198 195 186
-2.65436 -4.97262 2.80019 17 18 12
-2.65668 -5.0191 2.80697 17 20 13
-2.29833 -0.340981 1.89903 184 180 169
-2.64337 -4.92722 2.79716 25 31 21
-2.19117 0.491597 1.78116 201 197 186
-2.5467 -4.59607 2.78652 27 29 18
-2.1728 0.454648 1.79714 208 203 197
-2.16604 0.389811 1.81098 207 204 197
-2.13921 0.522829 1.8021 201 194 184
-2.123 0.660596 1.78434 213 212 207
-2.123 0.660596 1.78434 213 212 207
-2.00522 1.66663 1.65529 102 95 85
-2.12406 0.46226 1.82186 206 203 194
-2.37458 -3.75496 2.73425 184 190 202
-1.98291 1.67883 1.66377 117 123 113
-1.31486 0.112409 3.36498 199 186 180
-2.17773 -0.376619 1.96457 199 186 180
-2.09789 0.455261 1.8379 203 200 191
-1.96422 1.60964 1.68717 122 125 114
-1.95527 1.67656 1.68059 108 108 98
-2.16247 -0.410197 1.97696 201 193 182
-2.05261 0.723679 1.80731 203 199 190
-1.94564 1.73509 1.67234 116 118 107
-2.0911 0.315106 1.86869 205 202 195
-1.94214 1.69377 1.68476 119 120 112
-1.95448 1.58346 1.69838 81 81 73
-2.2936 -3.62239 2.7535 185 191 203
-1.95961 1.48621 1.71414 123 123 115
-2.1198 -0.0311676 1.91207 209 202 194
-2.00996 0.942505 1.79252 179 179 167
-1.96098 1.40246 1.7299 122 123 115
-2.25606 -3.54087 2.75848 184 192 203
-2.24305 -3.43226 2.74648 190 196 208
-1.93683 1.46085 1.73403 107 104 95
-1.94017 1.42047 1.73779 87 82 76
-2.00034 0.804992 1.82152 182 183 169
-1.9477 1.19896 1.77941 67 65 52
-2.04606 0.217188 1.91302 207 205 193
-2.04606 0.217188 1.91302 207 205 193
-2.07334 0.0198479 1.92227 207 204 195
-1.94569 1.08601 1.80046 81 79 67
-1.9602 0.903015 1.82745 90 81 72
-1.96298 0.827204 1.84133 73 67 53
-1.91609 1.20149 1.79441 83 80 73
-1.95792 0.693571 1.87194 91 85 71
-1.97145 0.485223 1.90314 181 177 168
-2.02519 -0.015802 1.95723 209 206 197
-1.95465 0.459312 1.9189 118 127 110
-1.95696 0.436376 1.92154 185 196 179
-1.95696 0.436376 1.92154 185 196 179
-1.95974 0.351884 1.93471 187 184 177
-1.93886 0.4054 1.9354 86 80 66
-1.93054 0.456317 1.93299 82 79 62
-1.94756 0.15721 1.97987 181 174 166
-1.88253 0.83292 1.88179 94 92 80
-1.82432 1.2348 1.83336 69 61 50
-1.94224 -0.555416 2.1208 201 199 187
-1.72953 0.679884 1.98821 68 69 55
-1.65272 0.204865 2.11715 109 103 89
-1.58189 0.945129 2.03641 116 116 108
-1.62351 0.172623 2.1369 82 76 62
-1.24137 -2.94653 2.83599 71 72 66
-1.24137 -2.94653 2.83599 71 72 66
-1.09489 -2.8287 2.88807 43 39 36
-1.03122 -1.27557 2.64754 116 105 101
-1.01513 -3.31702 3.06812 55 54 52
-1.01513 -3.31702 3.06812 55 54 52
-0.963257 -1.2973 2.69175 193 192 187
-0.963257 -1.2973 2.69175 193 192 187
-0.978635 -3.26374 3.07498 178 157 166
-0.93048 -1.56561 2.74112 188 192 178
-0.900134 -2.65629 2.95242 33 30 23
-0.852786 -3.33726 3.14971 28 30 17
-0.849089 -2.77606 2.99794 41 38 33
-0.824527 -3.31209 3.15521 83 84 68
-0.823067 -2.61582 2.98196 69 70 62
-0.789273 -3.26456 3.1668 34 30 19
-0.705407 -2.83457 3.07372 105 110 106
-0.661516 -1.87747 2.94317 26 31 25
-0.649438 -2.82264 3.10036 27 28 22
-0.649438 -2.82264 3.10036 27 28 22
-0.641971 -2.57457 3.06308 16 21 15
-0.599573 -2.5657 3.08166 8 10 5
-0.601048 -1.54684 2.89165 211 208 201
-0.609431 2.00775 2.25148 28 31 24
-0.579812 -1.64783 2.93178 189 185 182
-0.578372 -1.77884 2.95404 179 177 182
-0.57104 -1.73406 2.95202 129 125 122
-0.57104 -1.73406 2.95202 129 125 122
-0.565831 -2.2677 3.05896 70 66 63
-0.560409 -2.11097 3.04318 47 47 39
-0.528551 -3.14255 3.27255 42 38 29
-0.548559 -2.61631 3.1152 18 24 12
-0.548559 -2.61631 3.1152 18 24 12
-0.541289 1.4363 2.4023 159 160 155
-0.490092 -3.18595 3.29897 66 65 63
-0.509683 -2.31981 3.09491 33 41 30
-0.509683 -2.31981 3.09491 33 41 30
-0.527033 1.80935 2.3474 214 213 208
-0.50638 1.44513 2.42786 160 162 159
-0.509857 1.79522 2.36104 212 212 204
-0.508867 1.82499 2.35649 215 215 207
-0.488896 0.749724 2.57102 168 172 173
-0.501573 1.72831 2.3779 185 186 181
-0.490716 1.44261 2.43777 130 132 129
-0.475294 1.04191 2.52116 205 204 209
-0.479701 1.41254 2.4497 193 192 190
-0.438814 -2.73778 3.18911 150 149 144
-0.477415 1.62615 2.41156 32 33 27
-0.46585 1.00135 2.53617 180 178 181
-0.46585 1.00135 2.53617 180 178 181
-0.451115 0.536996 2.62965 21 27 13
-0.46416 1.39001 2.46287 179 180 175
-0.439306 0.896894 2.57055 45 46 30
-0.425735 0.360507 2.6801 35 35 23
-0.425735 0.360507 2.6801 35 35 23
-0.379364 -1.86494 3.1205 49 41 30
-0.445006 1.58763 2.43916 29 34 30
-0.376818 -1.07489 2.97984 203 202 198
-0.398415 -0.0760818 2.77437 209 210 204
-0.398415 -0.0760818 2.77437 209 210 204
-0.370316 -2.37087 3.18452 69 69 69
-0.372025 -1.20604 3.00054 13 24 16
-0.363 -1.33819 3.03078 207 207 199
-0.363 -1.33819 3.03078 207 207 199
-0.358931 -2.29497 3.17892 52 49 42
-0.35911 -1.4022 3.04392 213 210 205
-0.360879 -1.06174 2.98571 205 204 200
-0.351389 -2.56451 3.22184 62 68 64
-0.351389 -2.56451 3.22184 62 68 64
-0.353674 -0.970557 2.9621 212 211 206
-0.353674 -0.970557 2.9621 212 211 206
-0.324852 -2.3902 3.21657 78 84 74
-0.321943 -1.23892 3.03771 167 167 157
-0.321861 -1.21 3.03279 106 119 109
-0.308386 -2.47981 3.23803 33 35 24
-0.308386 -2.47981 3.23803 33 35 24
-0.354722 0.351207 2.71428 39 40 34
-0.346185 0.405635 2.71185 28 29 21
-0.385471 2.00374 2.38428 32 33 27
-0.283724 -1.7197 3.1412 150 147 140
-0.283724 -1.7197 3.1412 150 147 140
-0.278242 -2.0868 3.20779 35 35 25
-0.333291 0.775506 2.65551 14 16 11
-0.317368 0.259723 2.7561 41 42 28
-0.259961 -2.20564 3.2262 33 33 21
-0.237537 -1.78302 3.18498 48 51 42
-0.282433 0.263136 2.7784 62 62 54
-0.219604 -1.76591 3.19153 44 25 21
-0.233965 -1.21507 3.07609 168 169 161
-0.213859 -2.46898 3.29015 56 58 47
-0.235582 -1.16709 3.06358 36 44 33
-0.233319 -1.16653 3.06699 31 39 28
-0.20792 -1.77382 3.19931 36 16 9
-0.224381 -1.34722 3.09976 211 210 205
-0.240299 -0.57492 2.96164 29 31 18
-0.223998 -1.18829 3.07739 134 142 129
-0.242311 -0.392338 2.92854 172 149 141
-0.210122 -1.30359 3.10219 208 207 202
-0.210122 -1.30359 3.10219 208 207 202
-0.207128 -1.32384 3.10603 212 211 206
-0.194003 -1.49621 3.14715 197 196 192
-0.178283 -1.81766 3.22089 95 97 86
-0.170095 -1.79542 3.22117 187 174 165
-0.205338 -0.573031 2.98248 67 61 49
-0.187421 -0.902727 3.05398 215 212 205
-0.154279 -2.03883 3.26467 17 20 13
-0.173498 -1.15174 3.10779 40 53 44
-0.152883 -1.81656 3.23529 192 183 174
-0.150556 -1.72407 3.22946 177 180 173
-0.145688 -2.34829 3.30473 63 65 54
-0.164705 -1.17453 3.11479 141 143 132
-0.143456 -1.69739 3.22911 153 155 150
-0.143456 -1.69739 3.22911 153 155 150
-0.157365 -1.28218 3.13542 209 208 203
-0.158126 -1.23939 3.12776 201 201 193
-0.132858 -1.72016 3.23777 179 179 171
-0.132858 -1.72016 3.23777 179 179 171
-0.175315 -0.547378 2.99232 75 72 63
-0.0926238 -2.70937 3.4528 105 106 100
-0.126271 -2.12312 3.27939 13 16 7
-0.0886527 -2.3266 3.3308 23 26 15
-0.0974584 -1.01946 3.12143 199 198 194
-0.0974584 -1.01946 3.12143 199 198 194
-0.0711137 -1.58288 3.24212 184 183 178
-0.0562947 -1.95716 3.30457 36 27 20
0.000753634 -2.63851 3.48665 40 42 31
-0.00826371 -2.33301 3.37709 14 17 8
-0.000278465 -1.65677 3.29121 184 184 174
0.0178553 -1.41171 3.2538 204 201 196
0.0307307 -1.58191 3.29273 143 125 111
0.0282146 -1.30849 3.23753 211 210 205
0.0658146 -2.13851 3.39217 193 190 183
0.0411036 -1.41182 3.26413 200 199 194
0.0678072 -2.00415 3.36596 193 190 183
0.104297 -1.99626 3.38248 190 190 182
0.109708 -1.57203 3.32614 184 184 176
0.128864 -1.99267 3.39322 191 191 183
0.154164 -1.3911 3.31537 198 197 193
0.162089 -1.52942 3.34677 121 121 111
0.171549 -1.33619 3.3134 206 206 198
0.181558 -1.32099 3.31556 208 207 202
0.202543 -1.21857 3.3099 210 209 204
0.21736 -1.46792 3.36156 167 172 165
0.222399 -1.40459 3.35063 186 182 179
0.228573 -1.38017 3.3509 191 190 186
0.24354 -1.54718 3.38939 184 184 176
0.257901 -1.4053 3.36936 173 169 166
0.264671 -1.49533 3.38975 188 185 176
0.253537 -1.26332 3.3392 210 209 204
0.251951 -1.00693 3.28627 23 18 14
0.307639 -2.02185 3.48605 194 194 186
0.288326 -1.40612 3.38512 161 160 158
0.475842 -2.63541 3.71537 177 170 160
0.359613 -0.973846 3.33582 40 25 22
0.359613 -0.973846 3.33582 40 25 22
0.440887 -1.52221 3.48127 184 181 172
0.542321 -2.60428 3.74137 174 174 164
0.560282 -1.44414 3.52219 186 186 174
0.517595 -0.833527 3.3787 202 201 197
0.532425 -0.701412 3.36304 211 210 205
0.557071 -0.871591 3.40336 188 189 184
0.598523 -1.13546 3.48539 213 210 205
0.623741 -1.41116 3.54943 187 187 179
0.617388 -1.2263 3.51051 202 201 196
0.637339 -1.36991 3.54828 184 185 177
0.648207 -1.44528 3.56754 188 185 178
0.597409 -0.868839 3.42375 183 182 180
0.689795 -1.88375 3.64587 191 190 185
0.651906 -1.1744 3.51699 207 206 202
0.677826 -1.45078 3.58413 181 181 173
0.682232 -1.19943 3.53656 202 201 197
0.812826 -2.53056 3.85967 170 170 160
0.703888 -1.22506 3.55127 196 195 191
0.677762 -0.949459 3.47709 165 168 159
0.718818 -1.30371 3.57546 185 186 178
0.718818 -1.30371 3.57546 185 186 178
0.730955 -1.37825 3.59592 190 187 180
0.834236 -2.49249 3.86485 64 66 55
0.707528 -0.932083 3.49784 159 160 152
0.702478 -0.848391 3.47372 177 176 172
0.732078 -1.89005 2.196 198 198 190
0.746601 -0.975338 3.52394 199 199 191
0.941792 -2.93038 4.02311 10 15 9
0.743888 -0.940491 3.51993 175 176 168
0.84598 -2.0243 3.74162 187 187 177
0.762274 -0.897393 3.52138 125 135 126
0.921325 -2.51069 3.90785 53 53 45
0.888231 -1.94179 3.75266 188 187 182
0.967276 -1.79164 3.7673 72 78 64
1.07431 -2.38741 3.96252 51 51 39
1.03248 -1.82694 3.80185 65 69 55
1.01674 -1.43775 3.74587 32 34 21
1.0138 -1.32973 3.72268 33 36 25
1.03683 -1.32328 3.73513 25 27 16
1.04456 -1.2235 3.71786 197 172 165
1.07757 -1.31348 3.75368 21 22 14
1.09066 -1.35621 3.76751 21 24 17
1.10143 -1.36726 3.77597 21 24 15
1.09115 -1.18489 3.73351 52 29 23
1.06494 -0.937109 3.6743 211 208 203
1.16397 -1.80678 3.86298 89 80 65
1.09171 -1.11678 3.72034 188 187 182
1.13377 -1.33199 3.78333 16 19 12
1.13377 -1.33199 3.78333 16 19 12
1.1313 -1.2055 3.75679 52 38 25
1.13992 -1.27056 3.77505 26 29 20
1.13873 -1.2183 3.7649 43 40 25
1.14672 -1.28558 3.78108 30 34 20
1.16145 -1.24162 3.77929 22 28 16
1.22267 -1.7286 3.87795 162 159 150
1.26204 -1.71405 3.89485 159 155 146
1.12949 -0.585585 3.63494 210 207 202
1.27456 -1.21323 3.83053 124 124 116
1.2378 -0.826276 3.73339 125 118 108
1.2355 -0.739711 3.71625 144 137 127
1.4078 -1.46132 2.64816 120 117 110
1.24371 -0.753611 3.72375 116 113 106
1.11999 0.374829 3.43198 32 34 29
1.14766 0.426886 3.43581 31 33 28
1.31219 -0.758843 3.75519 130 132 121
1.52107 -1.85103 3.99292 172 154 144
1.67929 -2.20289 4.13056 44 47 38
1.61657 -1.62715 4.00395 157 154 145
1.59964 -1.17823 3.87336 133 127 115
1.71069 -1.6603 4.03561 179 176 169
1.62551 -0.934802 3.8428 130 128 116
1.77838 -1.95112 4.13418 120 114 100
1.72401 -1.35691 3.99096 74 74 62
1.87107 -2.24337 4.23804 99 95 84
1.94481 -2.34462 4.34596 101 103 92
1.9545 -2.23285 4.28182 91 93 82
2.01659 -2.21574 4.31294 81 83 72
1.94369 -1.54924 4.15713 104 104 94
2.06416 -2.20025 4.33615 90 91 83
2.03651 -2.02007 4.29 107 108 100
1.90264 -1.12599 4.06118 65 61 50
2.0429 -1.88811 4.26426 91 92 84
2.05128 -1.87608 4.26676 85 85 75
1.96162 -0.851968 4.00884 109 109 97
1.99248 -0.958668 4.02251 99 92 82
2.04604 -0.573626 4.06267 117 107 95
1.68908 1.51876 3.42709 38 31 21
1.68908 1.51876 3.42709 38 31 21
2.097 -0.733532 4.12033 113 103 91
2.2203 -1.27785 4.29505 100 94 82
2.26608 -1.3892 4.33328 89 81 70
1.57819 1.22019 4.22449 114 104 92
1.78624 1.20418 3.58358 114 108 96
2.35265 -1.77597 4.44119 75 75 65
2.25171 -1.15755 4.30148 110 86 62
1.65409 1.99594 3.37705 122 108 95
1.88639 0.787585 3.73065 122 116 104
1.91654 0.683143 3.7818 121 113 102
1.63298 2.21449 3.30446 114 108 96
2.3573 -1.55204 4.40399 83 71 57
2.20018 -0.675402 4.18254 89 85 76
2.20018 -0.675402 4.18254 89 85 76
1.93778 0.666612 3.79334 113 107 93
1.94053 0.660692 3.79812 115 109 95
1.94053 0.660692 3.79812 115 109 95
1.6832 2.03834 3.38398 115 107 94
1.91886 0.815214 3.7668 112 108 97
1.8543 1.14537 3.67679 125 112 103
1.96319 0.629251 3.80465 112 93 78
1.94511 0.71046 3.80039 116 105 87
1.87401 1.10179 3.68817 118 112 100
1.95885 0.695948 3.80909 141 108 73
1.95885 0.695948 3.80909 141 108 73
2.42748 -1.67698 4.46484 69 71 60
2.38869 -1.46259 4.40741 78 75 68
1.97154 0.673362 3.81448 126 91 61
1.96562 0.713069 3.81112 120 94 71
1.95455 0.792396 3.79887 98 80 66
1.87879 1.28406 3.67916 128 98 70
2.00969 0.678628 3.82958 89 86 77
2.00624 0.718917 3.83713 0 0 0
2.03964 0.63577 3.84372 0 0 0
2.03135 0.677039 3.845 0 0 0
2.50549 -1.67804 4.51109 0 0 0
2.05491 0.612589 3.84463 0 0 0
2.09982 0.57677 3.87634 0 0 0
2.08586 0.690429 3.87117 0 0 0
2.07811 0.72809 3.87394 0 0 0
2.11085 0.64477 3.8754 0 0 0
1.94747 0.789256 4.19254 0 0 0
2.0941 0.7301 3.87945 0 0 0
2.13903 0.731402 3.9116 0 0 0
2.15211 0.739299 3.9212 0 0 0
2.20799 0.5947 3.91873 0 0 0
2.26808 0.628719 3.95143 0 0 0
2.17297 1.06086 3.8735 0 0 0
2.26601 0.717098 3.98563 0 0 0
2.26825 0.743526 3.99781 0 0 0
2.26825 0.743526 3.99781 0 0 0
2.31677 0.680965 3.99261 0 0 0
2.32864 0.806482 4.07155 0 0 0
2.36639 0.76412 4.10237 0 0 0
2.37276 0.765075 4.11022 0 0 0
2.37547 0.766336 4.12044 0 0 0
2.37423 0.780242 4.12709 0 0 0
2.38221 0.770157 4.13442 0 0 0
2.36322 0.825282 4.13021 0 0 0
2.3568 1.16264 3.95655 0 0 0
2.3568 1.16264 3.95655 0 0 0
2.35994 0.992353 4.07296 0 0 0
2.40781 0.775281 4.16691 0 0 0
2.40781 0.775281 4.16691 0 0 0
2.35963 1.00067 4.09201 0 0 0
2.3549 0.914801 4.15884 0 0 0
2.40665 0.778715 4.18433 0 0 0
2.35538 1.02761 4.10691 0 0 0
2.41176 0.780647 4.1929 0 0 0
2.41176 0.780647 4.1929 0 0 0
2.54497 0.497461 4.17707 0 0 0
2.37046 1.32523 3.89425 0 0 0
2.41055 1.18457 3.94998 0 0 0
-312552 40218.8 508982 0 0 0
2.30637 1.83306 3.7199 0 0 0
2.60694 0.640296 4.08867 0 0 0
2.45504 1.31001 3.91837 0 0 0
2.578 0.724263 4.12017 0 0 0
2.60499 0.666858 4.11249 0 0 0
2.43093 1.52707 3.82511 0 0 0
2.61923 0.651982 4.12084 0 0 0
2.61782 0.983132 3.93242 0 0 0
