ply
format ascii 1.0 
element vertex 1367
property float32 x 
property float32 y 
property float32 z
property uchar red  
property uchar green
property uchar blue
element face 0
property list uchar int vertex_indices
end_header
0.320033 -4.30809 4.36515 75 74 69
0.338864 -5.64367 4.60991 100 96 85
0.331973 -4.61646 4.42859 66 66 56
0.33026 -3.91784 4.23845 73 69 60
0.320241 -3.85277 4.17253 73 69 60
0.396222 -5.84528 4.69134 104 100 91
0.496713 -5.86802 4.75832 120 116 107
0.506955 -6.14975 4.7801 118 111 101
0.480776 -3.82834 4.30382 25 24 20
0.529215 -5.87061 4.69811 114 110 101
0.521712 -4.80178 4.59976 56 55 50
0.536945 -6.01381 4.70161 118 109 100
0.536945 -6.01381 4.70161 118 109 100
0.522609 -3.20322 4.15251 169 162 152
0.619516 -3.34098 4.24959 161 157 146
0.717182 -5.64153 4.72648 82 81 77
0.619004 -2.80706 4.03761 112 108 99
0.736946 -4.76245 4.78588 139 135 124
0.736946 -4.76245 4.78588 139 135 124
0.636721 -3.08064 4.13083 130 127 118
0.732514 -5.58036 4.76961 79 75 72
0.644932 -3.10936 4.13878 124 120 111
0.757344 -5.8421 4.77692 69 70 65
0.799418 -6.40088 4.97915 76 77 72
0.742625 -4.55775 4.66604 149 142 134
0.764662 -4.65472 4.76278 149 142 134
0.772344 -4.77651 4.80816 129 125 116
0.772344 -4.77651 4.80816 129 125 116
0.662714 -3.17014 4.13411 104 94 84
0.757946 -4.40345 4.67993 134 130 121
0.741442 -4.30398 4.63001 134 135 127
0.783965 -4.60628 4.69291 123 114 105
0.783227 -5.46426 4.69949 69 55 52
0.806996 -4.57489 4.76727 141 132 123
0.712578 -3.06698 4.25973 140 141 135
0.864541 -6.42074 5.02586 69 70 65
0.78593 -4.06697 4.56332 94 96 91
0.829772 -4.88962 4.77566 99 99 91
0.800999 -4.18253 4.63624 112 113 108
0.828226 -4.43475 4.73616 95 98 91
0.828226 -4.43475 4.73616 95 98 91
0.848655 -5.62953 4.86518 100 87 81
0.865749 -5.62184 4.87723 148 141 131
0.863441 -5.9651 4.82248 70 71 66
0.857798 -5.95936 4.81653 70 71 66
0.911639 -5.64076 4.91163 125 126 118
0.894491 -4.64985 4.79953 112 112 104
0.811366 -3.26918 4.2875 108 111 104
0.790971 -2.99735 4.18102 126 125 120
0.820176 -3.37746 4.30163 113 115 110
0.818826 -3.40008 4.2792 99 101 96
0.967317 -5.73969 5.01398 103 102 97
0.856495 -3.46001 4.33816 122 123 117
1.02515 -5.76907 5.06626 108 107 102
0.923609 -3.24644 4.42111 99 98 93
0.927633 -3.26143 4.4363 99 98 93
1.06085 -4.99355 5.04368 109 111 106
1.04485 -5.80505 4.90873 93 82 76
1.06557 -4.90891 5.03864 107 106 102
1.14637 -6.27984 5.20839 48 53 49
0.991043 -3.27145 4.50666 118 117 112
1.09146 -5.45399 4.85614 108 108 100
1.08058 -5.75522 4.88913 100 100 92
1.13709 -5.6307 4.94609 108 109 104
1.17012 -5.03001 5.13367 128 129 123
1.12762 -4.28796 4.82513 106 107 101
1.18435 -4.67045 5.02715 97 98 92
1.20017 -4.63669 5.04349 114 117 108
1.13328 -4.35579 4.81025 135 135 125
1.18467 -4.2656 4.90353 102 101 97
1.22133 -5.4949 4.98412 85 85 75
1.17878 -3.82849 4.79108 105 106 100
1.21448 -4.27263 4.92139 112 113 107
1.22735 -4.3622 4.96604 105 106 100
1.15899 -3.67424 4.67781 113 114 106
1.19605 -3.97242 4.82269 123 124 118
1.22935 -4.1926 4.91059 137 138 132
1.29829 -4.83406 5.15395 100 101 95
1.24877 -3.99261 4.86303 104 103 98
1.19972 -3.52178 4.65953 104 106 101
1.30121 -4.44189 5.03308 119 120 114
1.43672 -6.36002 5.41599 108 108 100
1.32507 -5.54504 4.97817 101 101 93
1.32507 -5.54504 4.97817 101 101 93
1.37791 -5.47737 5.03059 80 77 68
1.44813 -5.80214 5.32508 93 93 81
1.49599 -5.81756 5.35892 107 97 85
1.1779 -1.92049 4.17291 123 117 105
1.53489 -5.95681 5.43009 111 103 90
1.40917 -4.4927 4.90218 114 107 97
1.49893 -4.78114 5.28177 115 107 96
1.48376 -4.65028 5.22832 124 115 106
1.47124 -4.43451 5.16041 118 110 99
1.44413 -5.36476 5.05332 110 101 92
1.10788 -0.250195 3.86651 131 122 113
1.55886 -5.88221 5.43557 101 97 85
1.54642 -4.93308 5.36402 105 98 88
1.51193 -4.65727 5.24265 97 87 78
1.12408 -0.296003 3.89123 128 120 109
2.11026 -9.76468 7.28112 86 83 74
1.4076 -3.28502 4.75443 117 111 99
2.16645 -9.86134 7.3134 94 92 80
1.61711 -5.87514 5.45797 108 102 90
1.4885 -3.96562 5.01546 115 109 97
1.49102 -3.97676 5.02325 115 109 97
1.49102 -3.97676 5.02325 115 109 97
1.47863 -3.22584 4.78789 124 116 105
0.871091 2.26026 2.81981 99 99 91
2.31493 -9.86317 7.44471 78 78 68
2.31493 -9.86317 7.44471 78 78 68
1.72496 -6.58855 5.49638 104 100 88
1.57532 -3.56369 4.96534 111 104 94
1.1683 -0.234183 3.64773 100 96 87
1.74031 -4.75549 5.42052 117 113 101
1.17782 -0.395053 3.66428 85 86 81
1.69147 -5.95154 5.22678 100 98 86
1.73593 -5.87846 5.40433 111 107 96
1.80168 -5.38789 5.5577 0 0 0
1.42603 -1.87976 4.3294 0 0 0
2.50639 -9.94142 7.56877 0 0 0
1.65868 -3.73331 4.96903 0 0 0
1.63445 -3.74484 4.88305 0 0 0
1.42274 -1.64278 4.23396 0 0 0
2.5491 -10.0182 7.58655 0 0 0
1.71135 -4.17048 5.08211 0 0 0
1.34166 -1.02296 3.97692 0 0 0
1.65089 -3.56352 4.88732 0 0 0
2.59603 -9.98351 7.63436 0 0 0
2.59603 -9.98351 7.63436 0 0 0
1.37473 -1.09775 4.00021 0 0 0
1.29606 -0.407281 3.74188 0 0 0
1.3321 -0.609434 3.83158 0 0 0
1.7055 -3.48968 4.90026 0 0 0
0.948498 2.20854 2.7229 0 0 0
1.72415 -3.5758 4.93631 0 0 0
2.6205 -9.88936 7.48638 0 0 0
0.956817 2.1959 2.7324 0 0 0
1.73053 -3.50862 4.92281 0 0 0
1.134 1.0953 3.22265 0 0 0
1.15907 0.876322 3.287 0 0 0
1.18855 0.740969 3.35964 0 0 0
1.71513 -3.32521 4.83569 0 0 0
1.82322 -4.6639 5.13254 0 0 0
1.1231 1.23748 3.15005 0 0 0
1.07046 1.6531 2.99043 0 0 0
1.72383 -3.37023 4.80213 0 0 0
1.04752 1.85407 2.91434 0 0 0
1.94495 -6.58495 5.3993 0 0 0
1.93835 -6.46249 5.36433 0 0 0
1.02418 2.07448 2.83136 0 0 0
1.03148 2.04136 2.84823 0 0 0
1.94562 -5.84183 5.32112 0 0 0
1.98142 -5.42616 5.38425 0 0 0
1.78345 -3.07672 4.62654 0 0 0
2.01588 -5.84558 5.12493 0 0 0
2.0269 -5.45725 5.12262 0 0 0
2.05543 -5.1966 5.18716 0 0 0
2.0419 -5.96028 5.14339 0 0 0
2.01415 -4.88516 5.07876 0 0 0
2.36157 -7.24652 5.94513 0 0 0
2.08015 -5.30897 5.19272 0 0 0
2.05143 -5.77103 5.10174 0 0 0
1.81096 -3.47986 4.47657 0 0 0
1.04921 2.52517 2.56432 0 0 0
1.86705 -3.25061 4.51368 0 0 0
2.25239 -5.38562 5.36709 0 0 0
3.06063 -9.57951 7.13616 0 0 0
1.24924 1.3157 2.86074 0 0 0
1.24163 1.40959 2.82869 0 0 0
1.25086 1.39116 2.83295 0 0 0
2.38464 -6.22445 5.38801 0 0 0
1.22476 1.44205 2.7764 0 0 0
2.37874 -5.16054 5.38143 0 0 0
1.15333 2.13182 2.58133 0 0 0
3.26827 -9.74866 7.29426 0 0 0
2.46511 -5.99748 5.46335 0 0 0
1.10587 2.46181 2.45342 0 0 0
1.16878 2.1044 2.58904 0 0 0
1.10524 2.44678 2.43412 0 0 0
1.16573 2.19812 2.55771 0 0 0
3.38145 -9.75365 7.41223 0 0 0
2.48999 -5.1473 5.43677 0 0 0
2.45303 -5.79236 5.27432 0 0 0
2.55272 -5.91199 5.42973 0 0 0
1.52198 1.84387 3.20214 0 0 0
1.52198 1.84387 3.20214 0 0 0
1.44793 1.26512 3.06552 0 0 0
2.56499 -6.24304 5.33072 0 0 0
2.45207 -5.97756 5.15415 0 0 0
2.66065 -6.25717 5.56823 0 0 0
2.32633 -3.15571 4.84588 0 0 0
1.39032 -3.45889 2.89191 0 0 0
2.25121 -2.91222 4.67786 0 0 0
2.78076 -6.85344 5.7478 0 0 0
2.72757 -6.59714 5.56599 0 0 0
1.30087 2.5311 2.57505 0 0 0
1.29601 1.53489 2.63632 0 0 0
1.64026 1.70394 3.05462 0 0 0
2.3532 0.722331 4.25143 0 0 0
1.62955 2.29542 2.88943 0 0 0
1.5592 2.63571 2.74635 0 0 0
2.64154 0.111371 4.62644 0 0 0
2.74749 0.201914 4.67893 0 0 0
3.11332 -1.26721 5.30766 0 0 0
2.45836 1.40226 4.17558 0 0 0
2.45836 1.40226 4.17558 0 0 0
2.66885 0.612602 4.52285 0 0 0
2.66885 0.612602 4.52285 0 0 0
3.09217 -0.89455 5.2284 0 0 0
2.77822 -0.678366 4.71657 0 0 0
2.9924 -0.505258 5.01211 0 0 0
2.85646 -0.335366 4.78741 0 0 0
2.6991 0.71871 4.50664 0 0 0
2.57219 0.514159 4.28976 0 0 0
2.53414 0.979566 4.23063 0 0 0
2.64684 0.650537 4.41343 0 0 0
2.7486 0.383216 4.53963 0 0 0
2.91503 -0.0157273 4.80048 0 0 0
2.71368 0.488418 4.4676 0 0 0
2.76821 0.312378 4.51434 0 0 0
2.85836 -0.00940381 4.65758 0 0 0
2.73052 0.460676 4.42431 0 0 0
2.69775 0.636353 4.37261 0 0 0
3.3205 -0.955966 5.35883 0 0 0
2.4322 2.07665 3.92067 0 0 0
2.77896 0.72695 4.47949 0 0 0
2.1902 2.43293 3.54799 0 0 0
2.88289 0.0841269 4.65135 0 0 0
2.87055 0.540796 4.61812 0 0 0
2.59084 1.05297 4.17856 0 0 0
2.17918 2.47645 3.51898 0 0 0
2.32755 2.49211 3.73432 0 0 0
2.5737 1.50349 4.12643 0 0 0
2.77878 0.452491 4.46299 0 0 0
2.42796 1.62081 3.90499 0 0 0
2.62529 1.33686 4.20299 0 0 0
2.4155 1.67676 3.87509 0 0 0
2.73995 0.679568 4.3878 0 0 0
2.26713 2.23403 3.63812 0 0 0
2.64667 1.30133 4.22581 0 0 0
2.84298 0.743325 4.51867 0 0 0
2.89175 0.468035 4.59568 0 0 0
2.89175 0.468035 4.59568 0 0 0
3.05131 -0.0772611 4.84204 0 0 0
2.80914 0.0403371 4.47856 0 0 0
2.03255 2.90447 3.23363 0 0 0
2.79264 0.538048 4.4275 0 0 0
2.79264 0.538048 4.4275 0 0 0
2.35122 2.47914 3.71262 0 0 0
2.93106 0.152857 4.63188 0 0 0
2.64213 0.780393 4.28248 0 0 0
2.77163 0.765391 4.38196 0 0 0
2.36371 2.40553 3.71799 0 0 0
2.2923 2.5241 3.60515 0 0 0
2.27578 2.53846 3.57212 0 0 0
2.26617 2.60384 3.55696 0 0 0
2.48012 2.80303 3.88502 0 0 0
2.25755 2.56242 3.53379 0 0 0
2.27645 2.29127 3.5802 0 0 0
2.73613 1.36328 4.28123 0 0 0
2.80734 0.77203 4.40496 0 0 0
2.14818 2.96988 3.34885 0 0 0
2.84474 0.778118 4.42615 0 0 0
2.15985 2.89926 3.34994 0 0 0
2.22234 2.4341 3.45819 0 0 0
3.44028 -0.548362 5.32917 0 0 0
2.06809 2.8458 3.20159 0 0 0
2.94484 0.608053 4.52738 0 0 0
3.18054 -0.100234 4.87908 0 0 0
2.70862 2.01047 4.12134 0 0 0
2.9948 0.589474 4.55873 0 0 0
2.57756 2.34495 3.9076 0 0 0
3.22865 -0.00742842 4.89146 0 0 0
3.47232 -0.342077 5.24388 0 0 0
2.79002 1.43041 4.2051 0 0 0
3.43139 -0.15699 5.13446 0 0 0
2.86654 1.80245 4.27455 0 0 0
2.67162 1.84609 4.00389 0 0 0
2.65645 2.36579 3.95662 0 0 0
2.58828 2.13302 3.85794 0 0 0
2.45993 3.09538 3.53686 0 0 0
2.70412 2.77252 3.80859 0 0 0
3.43696 3.11442 4.59964 0 0 0
3.46422 3.1236 4.60518 0 0 0
3.25554 3.5567 4.29115 0 0 0
9.84407e+07 -1.69914e+08 1.30079e+08 0 0 0
3.29098 3.46926 4.3351 0 0 0
3.29098 3.46926 4.3351 0 0 0
1.00274e+08 -1.66416e+08 1.31632e+08 0 0 0
9.98054e+07 -1.69039e+08 1.30791e+08 0 0 0
9.89567e+07 -1.68366e+08 1.29243e+08 0 0 0
1.12763e+08 -1.59211e+08 1.45666e+08 0 0 0
9.98828e+07 -1.68214e+08 1.28799e+08 0 0 0
9.93865e+07 -1.71217e+08 1.27206e+08 0 0 0
9.93865e+07 -1.71217e+08 1.27206e+08 0 0 0
1.0234e+08 -1.6683e+08 1.30346e+08 0 0 0
-3.99918e+08 5.2598e+08 -4.96988e+08 0 0 0
-3.99918e+08 5.2598e+08 -4.96988e+08 0 0 0
-4.31415e+08 5.05824e+08 -5.30341e+08 0 0 0
-4.47856e+08 4.76292e+08 -5.49222e+08 0 0 0
-4.16349e+08 5.469e+08 -5.1147e+08 0 0 0
-4.49583e+08 5.0437e+08 -5.49258e+08 0 0 0
-4.49583e+08 5.0437e+08 -5.49258e+08 0 0 0
7.85847e+07 -9.37303e+07 9.55122e+07 0 0 0
-4.30814e+08 5.38538e+08 -5.19425e+08 0 0 0
4.76262 3.8022 5.6691 0 0 0
-1.21421e+08 9.28487e+07 -1.43512e+08 0 0 0
-1.21325e+08 9.26766e+07 -1.42981e+08 0 0 0
-0.918949 1.83263 1.36983 100 93 83
-1.29423 2.58578 1.99547 188 179 172
-1.80825 -0.696651 2.86762 220 226 238
-1.1947 -0.0676501 1.91291 88 86 74
-0.888235 1.61351 1.43915 130 130 128
-0.888235 1.61351 1.43915 130 130 128
-1.17053 0.0704809 1.90045 108 112 115
-0.90012 1.52693 1.47385 200 195 192
-0.850316 1.86131 1.39318 118 119 113
-0.84963 1.84935 1.39464 110 111 105
-0.895111 1.53254 1.47609 205 204 199
-1.09129 0.445087 1.81273 125 122 115
-1.21964 -0.676276 2.02848 220 226 238
-1.59812 -0.713304 2.66383 222 226 238
-1.08577 0.458541 1.81102 122 122 112
-1.02861 0.830735 1.72329 212 212 210
-0.947871 1.33008 1.59751 245 246 241
-1.12448 -0.117131 1.91428 118 120 119
-0.961882 1.17657 1.63926 220 216 213
-1.0986 0.148028 1.87511 87 87 85
-0.954458 1.18906 1.63819 216 213 208
-0.954458 1.18906 1.63819 216 213 208
-1.54309 0.140477 2.6678 24 24 22
-0.956572 1.1076 1.66214 225 216 211
-1.58218 0.130254 2.78214 30 32 29
-1.04178 0.440249 1.83314 157 152 148
-1.11321 -0.256949 1.95951 112 112 112
-1.0796 -0.0334373 1.90093 44 45 39
-1.04654 0.310292 1.86425 120 124 127
-1.12513 -0.527317 2.01249 218 224 236
-0.788118 1.86747 1.41487 145 143 146
-1.07618 -0.106871 1.93515 122 126 127
-1.25614 -1.0249 2.25963 215 221 233
-1.03245 0.313582 1.86832 127 133 133
-1.03235 0.235842 1.89132 12 17 11
-0.804812 1.57961 1.47927 213 214 209
-1.02011 0.312361 1.87475 131 133 132
-1.03 0.138656 1.90439 25 27 24
-0.855207 1.48695 1.58302 108 105 96
-0.802367 1.57256 1.5018 128 119 112
-3.09934 0.718997 4.70369 130 131 135
-1.01999 0.0426092 1.93785 44 46 45
-0.601616 2.11813 7.05944 33 34 29
-0.939791 0.621434 1.80789 15 18 11
-0.783425 1.57723 1.50753 178 173 170
-0.973917 0.378786 1.87993 176 176 176
-3.05613 1.34536 5.04792 157 159 158
-0.916151 0.745912 1.77664 160 162 161
-0.816948 1.49314 1.60265 210 209 205
-0.88972 0.891678 1.74706 221 221 219
-0.754672 1.66237 1.48274 215 214 209
-1.05693 2.20612 2.08056 223 224 219
-0.949928 0.512531 1.88823 221 221 219
-0.797239 1.50994 1.59328 214 213 208
-0.98385 -0.327096 2.1806 206 207 202
-1.29307 -0.404338 2.94456 207 208 203
-0.964548 -0.390901 2.19765 205 204 199
-1.23088 0.51733 2.81956 142 146 147
-0.904117 -0.317128 2.2075 202 198 189
-0.89527 -0.398657 2.22106 197 190 180
-0.891479 -0.310308 2.21837 201 201 193
-1.1759 -0.530672 2.97521 119 119 111
-0.865869 -0.396056 2.22929 155 157 156
-0.84086 -0.285264 2.22883 118 112 100
-0.833859 -0.450468 2.23478 212 211 207
-1.05918 -0.401147 3.06487 210 207 200
-0.757725 -0.439375 2.26608 210 207 200
-0.744623 -0.275826 2.27068 209 209 199
-0.998153 -0.4957 3.07484 207 204 197
-0.741786 -0.371889 2.28514 207 204 197
-0.592111 0.494247 2.12279 194 194 194
-0.585268 0.506831 2.12225 200 200 198
-0.571327 0.576059 2.08779 218 218 216
-0.630297 -0.247455 2.32758 152 151 149
-0.786771 0.642736 2.95486 178 178 178
-0.569195 0.465311 2.13813 178 178 178
-0.549073 0.622861 2.09834 226 226 224
-0.576676 0.118783 2.2505 27 29 24
-0.802805 0.0325462 3.23131 40 42 37
-0.614241 -0.821843 2.49653 210 209 205
-0.574658 -0.418639 2.35206 211 210 206
-0.733509 0.57161 3.01332 147 147 147
-0.59431 -0.673794 2.44725 213 212 208
-0.568483 -0.419027 2.3561 213 209 206
-0.564821 -0.45519 2.36559 208 207 203
-0.49664 -0.413962 2.3516 212 211 207
-0.327009 -5.82098 4.54108 30 23 15
-0.0428689 -4.6614 4.01556 27 27 19
0.0493439 -4.49876 4.15523 26 25 21
0.0143249 -4.85051 4.48788 26 25 21
0.0540914 -3.63303 3.87559 63 62 57
0.0566422 -4.95224 4.05904 231 223 220
0.0608148 -4.51876 4.16189 20 24 23
0.0743 -5.15857 4.0105 35 31 30
0.0886028 -4.21119 4.10639 145 140 134
0.0876642 -4.07397 4.04612 66 58 55
0.0900895 -4.30108 4.1123 87 82 78
0.113599 -4.3802 4.16432 56 59 52
0.114091 -5.30522 4.07357 109 115 115
0.114091 -5.30522 4.07357 109 115 115
0.115127 -3.83886 3.9904 81 78 71
0.157218 -3.99306 4.07601 56 63 56
0.206466 -4.43281 4.24858 27 29 26
0.210994 -5.26665 4.2677 90 91 83
0.207854 -3.83298 4.05126 68 68 58
0.21156 -4.03253 4.11937 74 74 64
0.236003 -4.31273 4.22183 87 82 76
0.231712 -4.73068 4.52709 87 84 77
0.248056 -5.30704 4.29367 93 90 83
0.241155 -3.87212 4.09408 62 65 58
0.265218 -4.29009 4.24193 56 56 54
0.137498 -1.98161 2.19561 68 69 63
0.278347 -3.90066 4.12528 58 51 45
0.283551 -4.08564 4.19075 73 70 65
0.2973 -4.5018 4.33306 72 68 57
0.27906 -4.40088 4.47373 73 72 68
0.309572 -3.9028 4.14867 71 72 66
0.312359 -4.0028 4.18358 70 73 64
0.271654 -2.50687 3.62954 203 202 197
0.328072 -4.40825 4.32503 64 65 57
0.352911 -5.52617 4.436 99 97 85
0.344205 -4.33009 4.3042 91 86 80
0.449761 -5.50912 4.50105 120 113 103
0.449761 -5.50912 4.50105 120 113 103
0.46286 -5.60855 4.53709 122 115 107
0.478627 -5.80657 4.52477 118 111 101
0.498503 -5.62085 4.69721 120 111 102
0.519837 -4.58381 4.51404 19 19 11
0.534738 -5.5788 4.67725 120 116 107
0.57443 -5.56278 4.68884 114 110 99
0.521944 -3.19041 4.13366 169 162 152
0.601133 -5.76431 4.65938 115 111 102
0.320201 -1.84814 2.34615 165 158 148
0.660934 -5.51392 4.64934 103 98 94
0.679014 -5.47591 4.66352 81 82 76
0.659549 -4.14698 4.48085 160 153 143
0.595718 -2.87738 4.02611 145 137 126
0.595718 -2.87738 4.02611 145 137 126
0.670561 -4.17757 4.49248 159 150 141
0.689066 -3.97082 4.439 154 149 143
0.638526 -3.33617 4.10168 146 141 135
0.721281 -4.3488 4.58333 148 148 140
0.721281 -4.3488 4.58333 148 148 140
0.669588 -3.33347 4.32941 104 94 84
0.802227 -5.51653 4.76124 47 39 36
0.829701 -5.99784 4.84371 75 77 72
0.829701 -5.99784 4.84371 75 77 72
0.69289 -2.72419 4.01906 140 143 136
0.809991 -4.51622 4.71404 126 122 113
0.813824 -4.5011 4.69117 126 122 113
0.709523 -2.93123 4.08015 114 115 107
0.807524 -4.38999 4.66063 103 104 98
0.851776 -5.58003 4.80555 28 30 25
0.795151 -3.92645 4.62988 114 115 109
0.827101 -4.19669 4.61181 119 116 109
0.827101 -4.19669 4.61181 119 116 109
0.783259 -2.98049 4.37347 122 121 116
0.783259 -2.98049 4.37347 122 121 116
0.920297 -5.9296 4.8381 64 65 60
0.920297 -5.9296 4.8381 64 65 60
0.934511 -5.48926 4.80754 120 119 114
0.96628 -6.03656 4.94037 58 60 57
0.96628 -6.03656 4.94037 58 60 57
1.00912 -5.75631 4.98331 148 149 141
1.00912 -5.75631 4.98331 148 149 141
1.0127 -4.80382 4.92854 107 108 102
1.0127 -4.80382 4.92854 107 108 102
0.982436 -4.42935 4.76638 113 115 110
1.0712 -5.63413 4.98886 102 103 95
1.08298 -5.75117 5.01526 87 88 80
0.987889 -3.29228 4.53972 118 117 112
1.13708 -5.49181 4.90795 96 97 91
1.17211 -5.92174 4.95032 45 49 48
1.12924 -3.98908 4.76634 102 103 97
1.17489 -4.37417 4.84119 124 121 112
1.20565 -4.5096 4.97916 124 121 112
1.22963 -4.74908 5.06865 113 114 108
1.24033 -4.75818 5.08561 121 122 116
1.22451 -4.10597 4.86365 110 107 100
1.3022 -4.87276 5.15852 105 108 101
1.24483 -4.2129 4.91751 113 115 110
1.23419 -4.07674 4.86937 132 129 122
1.21782 -4.35938 4.77374 129 130 124
1.28992 -3.03152 4.65504 115 105 95
1.45506 -4.60164 5.18919 119 109 99
0.889989 1.46663 3.17604 133 109 85
1.2665 -2.73485 4.46996 128 122 110
1.46055 -4.51073 5.15368 118 109 100
1.48065 -4.5557 5.19306 119 111 100
1.16236 -2.07507 4.05958 128 122 110
1.44448 -4.18919 5.05238 107 100 90
1.44448 -4.18919 5.05238 107 100 90
1.38765 -3.18123 4.7166 108 99 90
1.17897 -0.489352 3.66014 101 94 86
1.21935 -0.490449 3.7139 0 0 0
1.41063 -1.71256 4.2696 0 0 0
1.87078 -6.55562 5.54333 0 0 0
1.27842 -0.12426 3.67857 0 0 0
1.7131 -3.5225 4.92899 0 0 0
1.22129 0.333269 3.48394 0 0 0
2.12793 -5.31722 5.29498 0 0 0
2.10907 -5.1624 5.23684 0 0 0
2.13733 -5.01754 5.22369 0 0 0
2.17185 -5.23335 5.3046 0 0 0
2.06025 -3.23762 4.7364 0 0 0
2.42198 -6.32529 5.29115 0 0 0
2.53698 -6.65495 5.6339 0 0 0
2.31165 -5.78517 4.96515 0 0 0
2.80316 -6.24344 6.06768 0 0 0
2.59423 -5.33489 5.61209 0 0 0
2.38176 -5.90832 4.98347 0 0 0
2.64392 -6.68167 5.70282 0 0 0
2.68171 -5.21554 5.6297 0 0 0
2.59687 -5.8142 5.34486 0 0 0
2.74707 -6.24527 5.73189 0 0 0
2.76998 -5.37079 5.7342 0 0 0
2.67678 -5.81498 5.38785 0 0 0
1.9135 -0.0800144 3.77813 0 0 0
2.22547 0.0144252 4.30249 0 0 0
2.23378 -0.033738 4.30545 0 0 0
2.06825 0.824094 3.95098 0 0 0
2.62611 -0.0298833 4.99233 0 0 0
2.29676 0.911195 4.28948 0 0 0
2.38873 -0.2574 4.44706 0 0 0
2.46611 -0.0410425 4.48041 0 0 0
2.35271 1.09013 4.2541 0 0 0
2.48453 -0.0677314 4.48067 0 0 0
2.34537 1.20321 4.21315 0 0 0
2.3507 0.0676015 4.12834 0 0 0
2.32516 0.749011 4.13912 0 0 0
2.30428 1.45243 4.09586 0 0 0
2.22264 1.78826 3.91313 0 0 0
2.05504 2.42675 3.58719 0 0 0
2.61202 0.0890139 4.53716 0 0 0
2.48822 0.153812 4.30714 0 0 0
2.49184 0.27198 4.27986 0 0 0
2.57667 0.329429 4.41818 0 0 0
2.58624 -0.287111 4.41902 0 0 0
2.74871 -0.257046 4.69618 0 0 0
2.98668 -0.922024 5.09469 0 0 0
2.71323 -0.0261143 4.62244 0 0 0
2.67258 0.198514 4.54077 0 0 0
2.46491 0.847465 4.17761 0 0 0
2.58703 0.515265 4.38021 0 0 0
2.16736 2.0179 3.62005 0 0 0
2.49196 1.03327 4.15729 0 0 0
2.00618 2.54115 3.32944 0 0 0
2.31787 1.67782 3.83059 0 0 0
2.5302 1.03992 4.1804 0 0 0
2.58499 0.897424 4.25166 0 0 0
2.50986 0.965686 4.09244 0 0 0
2.48401 1.28466 4.05925 0 0 0
2.79996 0.124595 4.56542 0 0 0
2.13533 2.39312 3.47951 0 0 0
2.09723 2.50668 3.41343 0 0 0
2.86197 -0.248467 4.65449 0 0 0
2.13126 2.45429 3.4574 0 0 0
2.82263 0.158311 4.56939 0 0 0
2.83245 0.125573 4.58515 0 0 0
2.13161 2.47351 3.44706 0 0 0
2.60759 0.855526 4.21162 0 0 0
3.20427 -0.90992 5.17269 0 0 0
2.90952 -0.163881 4.69479 0 0 0
2.7297 0.476148 4.40171 0 0 0
2.60218 0.60384 4.2755 0 0 0
2.4946 1.27188 4.01807 0 0 0
2.16887 2.41255 3.48449 0 0 0
2.2854 2.04691 3.66826 0 0 0
2.79383 0.344773 4.4819 0 0 0
2.74385 0.566462 4.4012 0 0 0
2.42594 1.52669 3.89158 0 0 0
2.76795 0.450039 4.42248 0 0 0
2.20236 2.34329 3.51362 0 0 0
2.44328 1.57979 3.8799 0 0 0
2.55497 1.30838 4.04324 0 0 0
2.68574 0.915151 4.24217 0 0 0
2.17815 2.40364 3.43907 0 0 0
2.83848 0.349612 4.47869 0 0 0
2.39758 1.823 3.77599 0 0 0
2.89422 0.319071 4.5271 0 0 0
2.93163 0.205398 4.58026 0 0 0
2.93163 0.205398 4.58026 0 0 0
2.24747 2.37849 3.50585 0 0 0
2.90071 0.364523 4.519 0 0 0
2.47183 1.66985 3.8515 0 0 0
2.96588 0.207532 4.6055 0 0 0
2.07536 2.65384 3.22424 0 0 0
2.03491 2.80197 3.14987 0 0 0
3.38466 -0.645351 5.21159 0 0 0
3.31266 -0.493869 5.09619 0 0 0
2.81044 0.926222 4.3099 0 0 0
2.51155 1.72739 4.12471 0 0 0
2.6281 1.48013 4.02423 0 0 0
3.16629 -0.00399308 4.81725 0 0 0
2.90475 0.895445 4.40609 0 0 0
2.85141 1.08833 4.31572 0 0 0
2.22584 2.5224 3.3673 0 0 0
2.22584 2.5224 3.3673 0 0 0
2.79053 0.854307 4.21393 0 0 0
2.89023 0.963157 4.36517 0 0 0
3.23793 -0.0847326 4.88109 0 0 0
3.01321 0.51942 4.52599 0 0 0
2.74423 1.4698 4.12662 0 0 0
2.77998 1.33653 4.17747 0 0 0
3.2843 -0.188089 4.906 0 0 0
3.2843 -0.188089 4.906 0 0 0
2.53332 2.12253 3.7844 0 0 0
2.63694 1.80608 3.93588 0 0 0
2.63873 1.8877 3.88159 0 0 0
2.33431 2.55219 3.4328 0 0 0
2.42757 2.67038 3.44212 0 0 0
-0.875943 1.74805 1.36467 128 128 126
-0.909784 1.52451 1.43327 42 37 34
-0.872931 1.5969 1.41672 215 214 209
-0.846594 1.75163 1.38291 151 151 151
-0.999785 0.811176 1.68987 200 199 195
-1.40344 -0.790193 2.7368 213 220 228
-1.18893 -0.539185 1.98465 220 227 235
-1.0784 0.0896788 1.87194 179 180 175
-1.12535 -0.292845 1.95891 220 227 235
-0.756713 1.57861 1.49354 45 47 42
-1.03163 -0.545122 2.07033 217 214 209
-0.950054 -0.306136 2.16988 205 201 192
-1.78715 1.22564 8.06878 21 23 18
-0.841071 -0.382284 2.16155 212 209 200
-0.832811 -0.453093 2.24541 145 135 126
-0.837043 -0.39738 2.82507 217 214 207
-0.589274 0.0785441 2.25478 209 206 199
-0.569794 0.032142 2.28265 210 209 204
-0.243999 1.39064 1.69229 10 15 9
-0.25468 0.913923 1.81787 164 164 156
-0.209343 1.86633 1.57354 10 12 9
-0.226797 1.0429 1.79889 189 186 179
-0.340374 -5.53592 3.6891 71 54 46
-0.000416376 1.61924 1.80396 30 31 26
0.206048 -4.74348 4.47312 113 106 96
0.251982 -3.74596 4.13585 23 24 19
-0.0178389 -5.89014 3.95041 109 105 94
0.00805089 -5.61379 3.66854 112 108 96
0.260855 -5.92267 4.4809 72 62 53
0.540261 -5.64708 4.62744 81 80 75
0.266558 -2.39076 3.05206 148 142 128
0.565841 -3.29459 4.18543 169 163 149
0.614145 -3.08247 4.10871 138 134 125
1.79303 -5.88985 5.43953 105 101 90
1.79976 -6.40843 5.51401 113 109 100
2.05065 -5.55896 5.17518 110 106 94
2.75097 -0.207518 4.70701 0 0 0
2.39475 1.74366 3.92456 0 0 0
2.67309 0.449928 4.4045 0 0 0
8.41712e+09 9.3734e+08 -1.39761e+10 69 66 61
3.6975e+09 5.87557e+08 -6.18901e+09 26 27 21
6.79885e+09 9.80657e+08 -1.13151e+10 67 68 62
6.79885e+09 9.80657e+08 -1.13151e+10 67 68 62
-1.58509e-12 2.04975e-13 2.77632e-12 21 23 18
-3.58194 -0.838832 6.85387 153 153 153
-1.22423e-12 -6.36794e-14 2.3774e-12 96 101 104
-2.69689 1.92554 5.52364 220 221 216
3.89074e+09 9.08278e+08 -9.69814e+09 207 207 199
-1.73901 -1.1866 6.56112 210 209 204
-1.28221 1.13115 8.07672 227 227 225
-1.24467 1.11599 8.15046 226 227 222
-1.16056 1.07788 8.31893 227 228 223
-1.10237 1.09601 8.44587 220 221 216
-1.10237 1.09601 8.44587 220 221 216
-0.979129 1.00043 8.70495 233 232 227
-2.5916 2.16608 4.95229 152 149 144
-0.734818 0.848907 9.26451 162 163 157
-2.54917 2.20243 4.85255 161 162 154
0.106627 -2.13595 2.06281 61 61 53
0.238883 -4.71032 4.55134 63 64 56
-0.00197269 -4.34482 4.5204 101 101 91
0.305857 -5.75236 4.62482 102 93 84
0.180669 -2.52561 2.0905 107 103 94
0.196156 -2.70046 2.09623 106 101 95
0.532736 -5.79981 4.69316 122 118 107
0.525334 -4.73212 4.59868 18 19 13
0.646175 -5.6528 4.69673 113 109 98
0.706377 -5.81317 4.75912 86 85 80
0.722632 -5.63575 4.72554 82 81 77
0.366553 -2.60778 2.24724 44 46 43
1.00668 -4.63106 4.79012 107 106 102
1.11027 -5.8974 4.91057 48 53 49
0.652868 -2.79589 2.54032 91 91 83
1.37503 -5.00364 5.14152 102 95 85
0.804099 -2.4264 2.82037 118 110 99
1.04746 0.985887 2.08453 0 0 0
2.24241 0.00292719 4.2618 0 0 0
3.06505 -0.0759879 5.30804 0 0 0
2.89193 -0.445677 4.69851 0 0 0
-2.44444 -0.138715 5.98203 219 226 234
-0.408581 1.52996 8.32502 137 130 120
2.33316e+09 1.94242e+09 -6.14826e+09 209 206 199
-1.41428 0.0895133 3.82524 208 205 196
2.29686e+09 2.01716e+09 -5.63367e+09 217 214 207
7.40361e+08 1.6083e+09 -6.14323e+09 219 216 209
0.340222 -5.65123 4.55448 118 111 101
0.0049115 -3.6843 2.78866 116 109 99
0.526267 -5.73355 4.66805 81 80 75
0.599032 -5.86048 4.68361 77 76 71
1.36376 -4.65873 4.96356 123 116 106
0.648394 -3.64739 3.29378 29 31 26
2.0505e+08 8.6081e+08 -1.28508e+09 0 0 0
-3.36114 0.273207 4.46058 72 67 61
-3.22297 -0.861723 4.35968 73 71 59
16.2541 6.18386 -20.7323 96 101 97
-2.26342e+08 -4.90082e+07 3.8044e+08 102 99 94
-86.7273 6.28801 108.169 131 117 116
-1.0133e+09 -2.86633e+08 1.75176e+09 216 218 215
-3.46563e+09 -5.99959e+08 5.25065e+09 222 228 240
-3.91949e+09 -5.48472e+08 5.68263e+09 159 162 151
-4.27451e+09 -3.4775e+07 6.12351e+09 159 162 151
-30.3247 2.85521 40.7116 143 147 132
-2.96718 -0.345888 4.60988 214 216 215
6.53056 -1.63568 -8.60892 218 217 215
-2.6056 0.0724922 4.92616 184 182 183
-2.58296 0.0649613 4.94218 186 184 185
-4.18345e+09 4.34477e+08 7.7525e+09 40 40 38
-0.187147 -3.12601 2.05577 38 35 30
0.239499 -0.824965 0.859248 214 210 207
0.239499 -0.824965 0.859248 214 210 207
0.195455 -1.15046 1.11155 214 215 209
-0.939916 -5.65391 4.04745 17 23 11
0.186389 -1.48737 1.33866 83 83 75
-0.569379 -5.86367 4.52901 38 34 23
9.25642e+08 2.39327e+09 -6.21906e+09 45 43 31
-0.357876 -5.23686 4.68564 71 71 63
4.71151e+08 1.01308e+09 -2.74443e+09 99 104 100
-0.224492 -6.74331 4.62419 46 42 31
0.314162 -3.24543 3.08437 87 80 72
0.182372 -4.71993 4.5773 87 80 72
0.358681 -6.04259 4.64743 17 19 16
0.0774413 -4.32342 4.55742 66 69 60
0.41788 -6.0359 4.63933 86 92 82
0.337321 -4.11759 4.62656 205 206 200
0.497155 -5.59231 4.66805 72 73 65
0.518679 -5.7541 4.67886 64 59 55
0.325063 -4.30321 4.64521 115 102 94
0.502632 -4.49175 4.63635 115 102 94
0.698258 -5.97486 4.75187 25 28 21
0.698258 -5.97486 4.75187 25 28 21
0.646693 -3.97448 4.62507 211 210 206
0.772681 -5.53326 4.72887 162 158 146
0.703512 -3.28156 4.59499 21 22 17
0.752218 -4.10194 4.65152 188 182 170
0.879476 -5.93983 4.80934 136 132 123
1.65847 -7.17978 5.04326 79 80 75
1.01501 -5.91258 4.85284 114 111 104
1.01501 -5.91258 4.85284 114 111 104
1.0717 -6.86939 4.84797 79 80 75
0.998819 -5.47238 4.83112 125 126 120
1.10981 -6.80683 4.86232 85 74 70
1.05157 -5.45611 4.85319 111 112 106
0.996109 -4.79133 4.84404 142 142 132
1.09357 -5.46182 4.8635 108 109 103
1.21386 -6.73112 4.91075 122 123 117
1.14672 -5.55499 4.87582 116 117 111
1.24932 -6.71462 4.92793 98 99 93
1.29969 -6.88994 4.96355 88 90 79
0.974186 -4.11884 4.92196 135 130 124
1.21766 -5.44118 4.89475 110 111 105
0.942376 -3.86358 4.92493 115 103 91
1.35644 -6.90744 4.99504 99 99 91
1.04396 -4.15499 4.94909 141 142 136
1.31092 -5.42251 4.92811 125 121 110
1.38593 -4.14198 4.77324 132 124 113
2.22348 -6.51819 5.41279 0 0 0
2.91241 -6.90333 5.95582 0 0 0
2.94393 -6.98646 5.98158 0 0 0
2.94393 -6.98646 5.98158 0 0 0
2.42562 -6.03209 5.43665 0 0 0
2.94316 -6.88848 5.96884 0 0 0
3.06367 -6.93216 6.03077 0 0 0
2.46764 -5.98851 5.28696 0 0 0
3.11233 -6.94885 6.05546 0 0 0
2.54075 -5.97691 5.30985 0 0 0
2.58459 -5.16608 5.41408 0 0 0
2.66969 -5.97867 5.39218 0 0 0
2.75306 -6.38591 5.49396 0 0 0
2.75306 -6.38591 5.49396 0 0 0
2.95604 -6.28236 5.72151 0 0 0
1.72168 1.08205 4.29765 0 0 0
1.77035 1.13226 4.30032 0 0 0
1.98793 0.0332295 3.66986 0 0 0
1.8261 0.923279 4.32677 0 0 0
2.16727 0.336272 4.17166 0 0 0
2.18953 1.03677 4.37643 0 0 0
2.30527 0.98822 4.11551 0 0 0
2.82922 0.283197 4.39597 0 0 0
2.82589 0.724034 4.33679 0 0 0
2.86106 0.681282 4.36965 0 0 0
-1.10036e+09 -8.35155e+07 1.9351e+09 21 23 18
-137.31 -16.5495 242.264 130 131 133
1.31531e+08 1.79418e+07 -2.36109e+08 28 30 27
-3.29175e+09 -1.03529e+09 6.33165e+09 109 105 104
-3.39221 -1.15464 8.53435 206 203 196
-0.384973 2.45032 4.8656 177 176 171
-7.96973e+08 -2.07669e+09 -7.08723e+08 120 117 108
683591 4.44457e+08 -2.85841e+08 116 112 103
0.75275 -5.48898 4.71325 43 43 41
1.08916 -5.94265 4.93174 48 53 49
1.3193 -5.59585 5.05799 97 98 92
5.3316 5.47234 13.1396 0 0 0
2.47253 -5.1966 5.37194 0 0 0
1.39545 3.01097 3.04938 0 0 0
2.46303 -6.03706 5.28436 0 0 0
-3.25366 5.08952 8.56738 209 208 203
-4.98848 -2.58432 19.3114 216 213 204
3.51291e+07 6.90122e+08 -4.53748e+08 20 22 17
9.02813e+07 5.91419e+08 -2.68575e+08 6 22 12
-1.66204 4.80773 -4.14045 32 34 31
1.14453 -2.11101 2.92147 0 0 0
-5.49192e+09 -3.06987e+08 6.73866e+09 119 118 113
-2.72497 0.0544334 3.89648 97 96 91
-3.90658 -0.782147 5.47131 197 203 199
-3.93862e+09 3.24318e+08 4.94015e+09 216 218 215
-2.23072 0.202292 3.43197 216 218 215
-10.0098 3.51843 15.6212 232 232 230
-10.5418 2.53019 17.0694 197 197 197
-10.4148 2.47235 18.0127 185 185 185
-0.697341 -0.278854 2.20731 198 198 200
-0.660093 -0.264044 2.16464 203 201 202
0.26211 -4.92931 4.52224 87 88 80
0.637375 -5.49792 4.65176 71 72 66
1.89587 -4.24238 4.77006 0 0 0
3.79227e+08 1.36703e+08 -3.40554e+08 0 0 0
1.21548 3.16384 3.09788 0 0 0
2.45137 -6.3496 5.20558 0 0 0
0.953351 -1.04557 0.892098 0 0 0
1.34382 2.65838 3.24176 0 0 0
1.36716 2.67895 3.23972 0 0 0
1.05683 -1.29894 1.04573 0 0 0
1.46055 2.71813 3.24288 0 0 0
1.49689 2.72425 3.24353 0 0 0
1.58276 3.06204 3.14298 0 0 0
2.0002 1.52334 3.99172 0 0 0
2.07685 1.42448 4.04824 0 0 0
2.96142 0.757533 4.77991 0 0 0
-4.88419 2.97264 3.13355 88 84 75
-4.88419 2.97264 3.13355 88 84 75
-2.19305 -12.6019 3.61996 130 146 146
-2.13208 -13.8896 3.2637 164 177 186
-2.09052 -13.4433 3.3124 37 38 30
-1.92106 -14.5039 3.30723 164 174 184
-1.94372 -14.3308 3.31153 163 173 183
-1.86693 -14.6567 3.31432 166 174 185
-1.59965 -10.045 4.97074 165 173 184
-1.90972 -14.2386 3.3318 165 173 184
-4.39843 2.21248 3.25329 62 66 51
-1.5263 -14.0734 3.77336 163 171 182
-1.46429 -14.3144 3.77653 162 172 182
-1.5769 -15.0737 3.4044 161 171 181
-3.94775 -0.321511 3.25962 188 185 176
-3.98965 0.232592 3.27764 197 190 180
-3.80055 -0.938914 3.27027 185 181 170
-1.64554 -12.1994 3.85997 21 26 19
-1.49116 -14.7599 3.46392 165 171 183
-1.49116 -14.7599 3.46392 165 171 183
-3.82543 -0.501879 3.29342 194 187 177
-3.96985 0.487691 3.30841 94 84 72
-1.54832 -13.9361 3.50498 36 29 36
-3.88907 0.160871 3.31444 91 83 70
-3.87066 0.19361 3.35663 91 83 70
-3.79567 -0.370387 3.31654 187 183 172
-1.28299 -13.5252 3.8848 25 24 20
-1.97865 -10.6014 3.58641 92 102 93
-1.68565 -12.4743 3.56548 103 99 98
-1.70222 -12.3171 3.57259 15 24 21
-3.7284 -0.640258 3.31934 171 165 153
-4.01537 1.32403 3.36389 206 203 198
-1.65256 -12.5222 3.5747 29 34 27
-3.88983 0.505266 3.34137 198 195 186
-1.39069 -12.4446 3.92326 17 18 12
-1.56486 -12.8756 3.58309 17 20 13
-3.58224 -1.27378 3.35236 184 180 169
-1.60261 -12.6174 3.58712 25 31 21
-3.84521 0.458309 3.35304 201 197 186
-1.67478 -11.7269 3.62503 27 29 18
-3.79627 0.417216 3.39715 208 203 197
-3.76017 0.286259 3.40198 207 204 197
-3.80667 0.521762 3.37375 201 194 184
-3.85055 0.798679 3.37582 213 212 207
-3.85055 0.798679 3.37582 213 212 207
-4.16542 2.78501 3.39017 102 95 85
-3.76462 0.397911 3.3827 206 203 194
-1.9432 -9.5007 3.69917 184 190 202
-4.14881 2.80908 3.39794 117 123 113
-2.48349 -0.553688 5.48998 199 186 180
-3.44156 -1.35305 3.40083 199 186 180
-3.73499 0.383018 3.3953 203 200 191
-4.10141 2.67566 3.40884 122 125 114
-4.12081 2.80428 3.41173 108 108 98
-3.4102 -1.42554 3.40632 201 193 182
-3.80705 0.922517 3.40145 203 199 190
-4.13279 2.92626 3.41795 116 118 107
-3.65071 0.124223 3.44123 205 202 195
-4.11519 2.83737 3.41719 119 120 112
-4.08076 2.62465 3.41516 81 81 73
-1.91799 -9.18409 3.73633 185 191 203
-4.04092 2.44452 3.42454 123 123 115
-3.52148 -0.584417 3.44143 209 202 194
-3.86001 1.36105 3.41691 179 179 167
-4.01015 2.27215 3.41978 122 123 115
-1.91766 -8.98396 3.75251 184 192 203
-1.96272 -8.70175 3.75668 190 196 208
-4.01113 2.38521 3.43068 107 104 95
-3.99726 2.30708 3.42836 87 82 76
-3.78336 1.10151 3.44056 182 183 169
-3.90919 1.86982 3.43738 67 65 52
-3.57444 -0.116151 3.42927 207 205 193
-3.57444 -0.116151 3.42927 207 205 193
-3.49703 -0.480736 3.45411 207 204 195
-3.8541 1.65481 3.45022 81 79 67
-3.79245 1.27919 3.44116 90 81 72
-3.76169 1.12578 3.44374 73 67 53
-3.87875 1.87461 3.44947 83 80 73
-3.69701 0.852651 3.45389 91 85 71
-3.60651 0.459423 3.48547 181 177 168
-3.44703 -0.602069 3.43392 209 206 197
-3.58893 0.375047 3.4648 118 127 110
-3.56942 0.357116 3.49582 185 196 179
-3.56942 0.357116 3.49582 185 196 179
-3.53292 0.187115 3.50003 187 184 177
-3.54835 0.263404 3.47136 86 80 66
-3.56254 0.366102 3.47643 82 79 62
-3.42885 -0.213807 3.5227 181 174 166
-3.68251 1.13404 3.47746 94 92 80
-3.80143 1.94008 3.48406 69 61 50
-3.07954 -1.70584 3.59029 201 199 187
-3.45628 0.814564 3.54667 68 69 55
-3.15584 -0.175833 3.59802 109 103 89
-3.42377 1.3427 3.62553 116 116 108
-3.10938 -0.246995 3.61047 82 76 62
-0.999488 -7.67557 3.81695 71 72 66
-0.999488 -7.67557 3.81695 71 72 66
-0.883224 -7.42037 3.88287 43 39 36
-1.69628 -3.58419 3.8642 116 105 101
-0.444903 -8.85379 4.01454 55 54 52
-0.444903 -8.85379 4.01454 55 54 52
-1.60607 -3.61635 3.92063 193 192 187
-1.60607 -3.61635 3.92063 193 192 187
-0.43109 -8.72114 4.02783 178 157 166
-1.41167 -4.30252 3.91121 188 192 178
-0.739521 -7.0337 3.96721 33 30 23
-0.217567 -8.97131 4.09204 28 30 17
-0.603488 -7.35707 3.99406 41 38 33
-0.195926 -8.91243 4.09976 83 84 68
-0.673628 -6.9148 4.00856 69 70 62
-0.177824 -8.80081 4.11888 34 30 19
-0.379085 -7.56209 4.05908 105 110 106
-0.89316 -5.15107 4.0663 26 31 25
-0.312176 -7.5528 4.08736 27 28 22
-0.312176 -7.5528 4.08736 27 28 22
-0.459336 -6.89817 4.08402 16 21 15
-0.428048 -6.83218 4.10428 8 10 5
-1.02063 -4.32307 4.05179 211 208 201
-2.9117 3.51643 3.88736 28 31 24
-0.937099 -4.56339 4.08578 189 185 182
-0.859312 -4.88359 4.08912 179 177 182
-0.868356 -4.80551 4.08965 129 125 122
-0.868356 -4.80551 4.08965 129 125 122
-0.545335 -6.12781 4.13382 70 66 63
-0.620099 -5.7795 4.13597 47 47 39
0.0900359 -8.53527 4.25585 42 38 29
-0.337675 -6.96484 4.12682 18 24 12
-0.309617 -7.04197 4.12983 18 24 12
-2.56413 2.36947 3.95991 159 160 155
0.168608 -8.66494 4.27615 66 65 63
-0.433241 -6.31022 4.15485 33 41 30
-0.433241 -6.31022 4.15485 33 41 30
-2.72914 3.1199 3.95486 214 213 208
-2.52642 2.37187 3.99127 160 162 159
-2.70389 3.09131 3.96579 212 212 204
-2.71707 3.15061 3.96531 215 215 207
-2.15597 0.915936 4.04273 168 172 173
-2.66274 2.9574 3.97337 185 186 181
-2.5081 2.36619 4.00009 130 132 129
-2.29062 1.53528 4.03006 205 204 209
-2.48467 2.31659 4.00295 193 192 190
-0.125523 -7.30764 4.1771 150 149 144
-2.58375 2.73932 3.99727 32 33 27
-2.25934 1.44867 4.03975 180 178 181
-2.25934 1.44867 4.03975 180 178 181
-2.00244 0.455913 4.07125 21 27 13
-2.45308 2.25766 4.01691 179 180 175
-2.17623 1.22653 4.05919 45 46 30
-1.87953 0.066871 4.09834 35 35 23
-1.87953 0.066871 4.09834 35 35 23
-0.535971 -5.21742 4.25113 49 41 30
-2.5297 2.66011 4.01852 29 34 30
-1.02349 -3.19039 4.24518 203 202 198
-1.61098 -0.908565 4.1342 209 210 204
-1.61098 -0.908565 4.1342 209 210 204
-0.214582 -6.49991 4.24094 69 69 69
-0.929837 -3.57114 4.21424 13 24 16
-0.849059 -3.83352 4.26292 207 207 199
-0.849059 -3.83352 4.26292 207 207 199
-0.25226 -6.2818 4.25382 52 49 42
-0.795406 -4.05698 4.23247 213 210 205
-1.00193 -3.22338 4.21889 205 204 200
-0.0729308 -6.99845 4.24952 62 68 64
-0.0729308 -6.99845 4.24952 62 68 64
-1.04738 -3.00175 4.20463 212 211 206
-1.04738 -3.00175 4.20463 212 211 206
-0.138422 -6.57551 4.27295 78 84 74
-0.857989 -3.59572 4.28631 167 167 157
-0.864998 -3.59216 4.24626 106 119 109
-0.0708496 -6.77698 4.28758 33 35 24
-0.0708496 -6.77698 4.28758 33 35 24
-1.79321 0.0425283 4.12724 39 40 34
-1.81234 0.160145 4.13227 28 29 21
-2.66849 3.49982 4.01169 32 33 27
-0.504174 -4.87122 4.2888 150 147 140
-0.504174 -4.87122 4.2888 150 147 140
-0.264494 -5.81698 4.30937 35 35 25
-1.99332 0.959811 4.12445 14 16 11
-1.69996 -0.165356 4.15691 41 42 28
-0.171189 -6.09721 4.32118 33 33 21
-0.410725 -4.99689 4.36015 48 51 42
-1.66506 -0.147036 4.17898 62 62 54
-0.392464 -5.00795 4.33532 44 25 21
-0.762408 -3.56208 4.32047 168 169 161
0.0549154 -6.7956 4.34603 56 58 47
-0.782433 -3.50526 4.2802 36 44 33
-0.779579 -3.50558 4.28416 31 39 28
-0.37207 -5.03197 4.34228 36 16 9
-0.669482 -3.89734 4.31806 211 210 205
-1.13808 -2.08745 4.25564 29 31 18
-0.766098 -3.50017 4.32402 134 142 129
-1.24564 -1.66091 4.24611 172 149 141
-0.667134 -3.84723 4.30149 208 207 202
-0.678272 -3.79049 4.32945 208 207 202
-0.661853 -3.84345 4.32846 212 211 206
-0.527653 -4.332 4.32299 197 196 192
-0.309943 -5.11211 4.38678 95 97 86
-0.308675 -5.09833 4.36128 187 174 165
-1.09703 -2.08751 4.27636 67 61 49
-0.881241 -2.87478 4.30617 215 212 205
-0.138526 -5.68632 4.39816 17 20 13
-0.721103 -3.42569 4.3718 40 53 44
-0.27606 -5.12317 4.3994 192 183 174
-0.332678 -4.88442 4.41054 177 180 173
0.0708705 -6.50653 4.37761 63 65 54
-0.690393 -3.53681 4.33201 141 143 132
-0.33972 -4.82136 4.41263 153 155 150
-0.33972 -4.82136 4.41263 153 155 150
-0.620653 -3.755 4.37674 209 208 203
-0.647649 -3.65077 4.37348 201 201 193
-0.311746 -4.90993 4.38857 179 179 171
-0.311746 -4.90993 4.38857 179 179 171
-1.07485 -2.03297 4.28872 75 72 63
0.389563 -7.53987 4.48784 105 106 100
-0.0418829 -5.95174 4.37408 13 16 7
0.132823 -6.46958 4.40521 23 26 15
-0.699434 -3.17251 4.35746 199 198 194
-0.699434 -3.17251 4.35746 199 198 194
-0.318441 -4.54973 4.43858 184 183 178
-0.0539136 -5.5501 4.42507 36 27 20
0.512015 -7.44795 4.55748 40 42 31
0.256004 -6.54706 4.44819 14 17 8
-0.177754 -4.78533 4.44974 184 184 174
-0.309326 -4.16946 4.44163 204 201 196
-0.173086 -4.6144 4.48014 143 125 111
-0.360335 -3.91386 4.43736 211 210 205
0.228275 -6.06016 4.49076 193 190 183
-0.278659 -4.17598 4.45173 200 199 194
0.140966 -5.70427 4.47954 193 190 183
0.186733 -5.69589 4.50097 190 190 182
-0.0880586 -4.59544 4.49381 184 184 176
0.215224 -5.69156 4.50856 191 191 183
-0.1436 -4.15233 4.50545 198 197 193
-0.0441311 -4.50601 4.52118 121 121 111
-0.155887 -4.01806 4.50988 206 206 198
-0.152296 -3.98262 4.51392 208 207 202
-0.182424 -3.74507 4.52917 210 209 204
0.00531451 -4.39501 4.55388 167 172 165
-0.0312049 -4.23158 4.54758 186 182 179
-0.0509617 -4.14741 4.54368 191 190 186
0.076636 -4.57487 4.56255 184 184 176
0.0153695 -4.24214 4.56467 173 169 166
0.0703598 -4.44634 4.56871 188 185 176
-0.0946082 -3.85476 4.54425 210 209 204
-0.260344 -3.21623 4.51548 23 18 14
0.477129 -5.82156 4.60076 194 194 186
0.0446232 -4.2272 4.57505 161 160 158
1.17074 -7.61487 4.78557 177 170 160
-0.139371 -3.16549 4.56432 40 25 22
-0.139371 -3.16549 4.56432 40 25 22
0.324436 -4.56148 4.65955 184 181 172
1.22379 -7.5124 4.81143 174 174 164
0.43985 -4.41082 4.70157 186 186 174
-0.0272385 -2.83299 4.631 202 201 197
-0.091941 -2.51182 4.63015 211 210 205
0.0485387 -2.93326 4.65092 188 189 184
0.283457 -3.62802 4.69669 213 210 205
0.49611 -4.31884 4.7426 187 187 179
0.369283 -3.863 4.71222 202 201 196
0.486585 -4.21565 4.74609 184 185 177
0.560257 -4.43612 4.74872 188 185 178
0.0996414 -2.93449 4.67238 183 182 180
0.90817 -5.56472 4.78474 191 190 185
0.374512 -3.71767 4.73551 207 206 202
0.596543 -4.43495 4.77456 181 181 173
0.43843 -3.80817 4.74195 202 201 197
1.56115 -7.40522 4.94996 170 170 160
0.478185 -3.85773 4.76503 196 195 191
0.26082 -3.16195 4.70342 165 168 159
0.5589 -4.08523 4.77142 185 186 178
0.5589 -4.08523 4.77142 185 186 178
0.619244 -4.25941 4.79491 190 187 180
1.56435 -7.30684 4.96037 64 66 55
0.287733 -3.11711 4.74266 159 160 152
0.228205 -2.91678 4.71239 177 176 172
0.412206 -3.42773 4.52391 198 198 190
0.373111 -3.24906 4.75197 199 199 191
2.05407 -8.61043 5.08888 10 15 9
0.347076 -3.16304 4.75276 175 176 168
1.24141 -6.03291 4.84581 187 187 177
0.337959 -3.04242 4.77169 125 135 126
1.705 -7.38847 5.00567 53 53 45
1.22833 -5.7791 4.89281 188 187 182
1.23281 -5.39921 4.92661 72 78 64
1.83751 -7.09723 5.08171 51 51 39
1.35007 -5.51085 4.95956 65 69 55
1.05405 -4.48333 4.94725 32 34 21
0.981323 -4.21949 4.92306 33 36 25
1.00131 -4.18888 4.94883 25 27 16
0.948791 -3.94894 4.92917 197 172 165
1.05119 -4.17312 4.96977 21 22 14
1.09948 -4.28775 4.97993 21 24 17
1.13083 -4.34082 4.97712 21 24 15
0.978993 -3.84026 4.96184 52 29 23
0.771308 -3.19928 4.92616 211 208 203
1.54415 -5.54568 5.00531 89 80 65
0.938965 -3.68206 4.94317 188 187 182
1.14238 -4.23412 4.99946 16 19 12
1.14238 -4.23412 4.99946 16 19 12
1.04903 -3.90255 4.9845 52 38 25
1.10744 -4.07497 4.99729 26 29 20
1.06879 -3.93868 4.99232 43 40 25
1.12748 -4.11576 5.00224 30 34 20
1.11666 -4.00395 5.00503 22 28 16
1.55034 -5.3003 5.05491 162 159 150
1.61874 -5.32437 5.05049 159 155 146
0.618554 -2.32502 4.92221 210 207 202
1.2548 -3.95639 5.06415 124 124 116
0.929723 -2.94838 5.00044 125 118 108
0.866746 -2.72909 4.99173 144 137 127
1.05566 -3.1469 4.53119 120 117 110
0.887729 -2.7661 4.99835 116 113 106
-0.0202916 -0.00848532 4.81008 32 34 29
-0.0174852 0.110305 4.81892 31 33 28
0.984317 -2.79002 5.0309 130 132 121
1.98196 -5.58171 5.12796 172 154 144
2.47956 -6.65318 5.18588 44 47 38
1.97144 -5.02644 5.17507 157 154 145
1.63457 -3.84119 5.08618 133 127 115
2.08672 -5.07948 5.18505 179 176 169
1.48633 -3.20003 5.07887 130 128 116
2.3904 -5.89151 5.25292 120 114 100
1.92238 -4.32091 5.19015 74 74 62
2.71603 -6.71705 5.31452 99 95 84
3.0425 -7.20255 5.49494 101 103 92
2.83028 -6.72394 5.36275 91 93 82
2.90916 -6.70426 5.39848 81 83 72
2.37628 -4.89975 5.35124 104 104 94
3.01261 -6.76463 5.40865 90 91 83
2.81482 -6.18244 5.41211 107 108 100
2.03452 -3.7921 5.30967 65 61 50
2.72189 -5.80907 5.39923 91 92 84
2.72529 -5.7791 5.40361 85 85 75
1.9883 -3.18054 5.22344 109 109 97
2.0084 -3.328 5.27333 99 92 82
1.87586 -2.44534 5.39906 117 107 95
0.00591301 2.59132 4.84972 38 31 21
0.00591301 2.59132 4.84972 38 31 21
2.07035 -2.87033 5.4487 113 103 91
2.72708 -4.42372 5.55735 100 94 82
2.90598 -4.76714 5.57864 89 81 70
0.767101 2.25173 3.21812 114 104 92
0.325863 1.85784 5.01013 114 108 96
3.24772 -5.75083 5.69684 75 75 65
2.64029 -4.05681 5.6041 110 86 62
-0.317017 3.58851 4.85715 122 108 95
0.715697 0.890479 5.1559 122 116 104
0.824192 0.636883 5.21151 121 113 102
-0.470319 4.07152 4.79819 114 108 96
3.20929 -5.29381 5.61456 83 71 57
2.18617 -2.75837 5.51526 89 85 76
2.18617 -2.75837 5.51526 89 85 76
0.888032 0.603929 5.15013 113 107 93
0.868955 0.587498 5.22622 115 109 95
0.868955 0.587498 5.22622 115 109 95
-0.305605 3.67964 4.86487 115 107 94
0.743938 0.943773 5.20196 112 108 97
0.452782 1.76015 5.08256 125 112 103
0.950647 0.512456 5.15069 112 93 78
0.871026 0.70383 5.16195 116 105 87
0.509707 1.59549 5.12923 118 112 100
0.871692 0.665181 5.24255 141 108 73
0.871692 0.665181 5.24255 141 108 73
3.42615 -5.68243 5.66858 69 71 60
3.17386 -5.02862 5.65022 78 75 68
0.932735 0.614184 5.16977 126 91 61
0.897071 0.709683 5.17297 120 94 71
0.812028 0.922389 5.18669 98 80 66
0.40821 1.99238 5.13169 128 98 70
0.98253 0.626627 5.17999 89 86 77
0.95225 0.716976 5.19772 0 0 0
1.01484 0.523355 5.27828 0 0 0
0.979046 0.616157 5.28369 0 0 0
3.45371 -5.54933 5.82381 0 0 0
1.09202 0.467577 5.17772 0 0 0
1.13142 0.380262 5.31586 0 0 0
1.04219 0.642186 5.31757 0 0 0
1.00984 0.726001 5.32399 0 0 0
1.10196 0.538628 5.31986 0 0 0
1.79313 0.645973 3.63533 0 0 0
1.029 0.731699 5.32983 0 0 0
1.13496 0.739629 5.25927 0 0 0
1.10041 0.740973 5.38716 0 0 0
1.25757 0.415501 5.3786 0 0 0
1.31072 0.485082 5.43511 0 0 0
0.936998 1.47337 5.33254 0 0 0
1.25731 0.678596 5.48082 0 0 0
1.24515 0.734391 5.49898 0 0 0
1.3248 0.754807 5.32661 0 0 0
1.33752 0.597922 5.49937 0 0 0
1.28232 0.856485 5.61376 0 0 0
1.35326 0.752962 5.66021 0 0 0
1.36062 0.753002 5.67178 0 0 0
1.36508 0.752848 5.68341 0 0 0
1.50093 0.795859 5.4311 0 0 0
1.51556 0.763696 5.45226 0 0 0
1.45956 0.930344 5.41179 0 0 0
1.23387 1.86472 5.1652 0 0 0
1.23387 1.86472 5.1652 0 0 0
1.35885 1.43339 5.2865 0 0 0
1.40349 0.756565 5.75209 0 0 0
1.40349 0.756565 5.75209 0 0 0
1.34312 1.43486 5.33764 0 0 0
1.21692 1.05236 5.82323 0 0 0
1.40724 0.757492 5.76808 0 0 0
1.07938 1.29315 5.88795 0 0 0
1.41414 0.758889 5.77911 0 0 0
1.41414 0.758889 5.77911 0 0 0
1.76202 0.129052 5.7311 0 0 0
1.16676 2.23156 5.08027 0 0 0
1.24979 1.79265 5.26318 0 0 0
1.08204 1.44723 5.83255 0 0 0
0.676831 3.31827 5.08558 0 0 0
1.65844 0.488695 5.76939 0 0 0
1.33133 2.20732 5.0186 0 0 0
1.62198 0.678337 5.70363 0 0 0
1.68616 0.557479 5.68412 0 0 0
1.09434 2.66483 5.04026 0 0 0
1.71238 0.524401 5.68936 0 0 0
0.901884 1.17683 6.52102 0 0 0
0.577739 3.72962 5.09614 0 0 0
1.09236 2.71751 5.06037 0 0 0
1.81023 0.386374 5.75683 0 0 0
0.720118 3.45906 5.08599 0 0 0
0.969488 1.16654 6.4922 0 0 0
1.41162 1.06051 5.90006 0 0 0
2.05877 -0.0568419 5.80874 0 0 0
0.948752 3.0484 5.09856 0 0 0
0.946994 1.35662 6.45968 0 0 0
0.946994 1.35662 6.45968 0 0 0
1.01222 1.33022 6.39306 0 0 0
1.50512 0.940012 5.98782 0 0 0
1.3898 1.05758 6.07296 0 0 0
2.18618 1.68117 4.43977 0 0 0
1.15886 1.39631 6.15872 0 0 0
1.2246 1.47117 6.00499 0 0 0
0.949762 3.17838 5.10819 0 0 0
1.45922 1.0593 5.99226 0 0 0
1.34004 1.45099 5.92022 0 0 0
1.74864 0.730829 5.90355 0 0 0
1.77297 0.728878 5.86461 0 0 0
1.08732 1.34849 6.38277 0 0 0
0.952667 3.24975 5.14449 0 0 0
1.5606 1.48664 5.62871 0 0 0
0.669786 3.84431 5.13427 0 0 0
1.85633 0.647351 5.85543 0 0 0
1.84667 0.62603 5.89202 0 0 0
1.8871 0.547009 5.90768 0 0 0
1.32257 2.60603 5.1456 0 0 0
1.5465 1.43519 5.77199 0 0 0
0.891125 3.4851 5.15055 0 0 0
1.88515 0.644067 5.89337 0 0 0
1.52571 1.68327 5.64305 0 0 0
0.799801 3.73921 5.15651 0 0 0
1.07165 3.18827 5.18508 0 0 0
1.15163 3.04896 5.18586 0 0 0
0.743333 3.9482 5.18275 0 0 0
-0.0300324 1.3566 2.87074 156 155 150
0.65039 -5.80138 4.60746 112 105 97
2.0412 -3.34617 4.48544 0 0 0
1.38494 1.46979 2.65855 0 0 0
-7.07902 9.53952 17.9805 70 67 58
0.0584037 1.78576 2.76148 174 171 164
0.00342084 -2.51033 2.11179 80 79 74
0.632578 -5.90822 4.63635 74 75 69
1.18886 3.98856 3.90787 164 164 156
1.18886 3.98856 3.90787 164 164 156
0.304214 -2.94741 2.59402 30 32 27
1.10168 -4.31122 4.79928 111 113 102
0.327778 -2.97476 2.62978 28 30 25
2.15974 -4.03928 4.86425 0 0 0
1.49644 3.03291 2.97637 0 0 0
1.77293 -4.29384 3.81448 0 0 0
2.85425e+10 7.68496e+07 -3.26483e+10 215 216 211
5.03971 1.32973 -7.37769 33 35 34
2.80694e+09 1.90181e+09 -4.14063e+09 43 45 42
1.58649 1.96916 3.34503 0 0 0
1.65318 1.97332 3.36518 0 0 0
2.22307 0.0738734 4.35246 0 0 0
-3.77215 -0.475259 3.56379 189 185 174
-3.56027 -0.994434 3.6201 202 199 190
-3.65245 0.450125 3.61683 206 203 194
-3.55588 0.66797 3.66931 181 189 174
-3.30995 -0.258808 3.73064 178 175 166
-1.53844 -3.1167 4.54999 197 192 189
-0.97377 -4.40673 4.11482 202 199 194
-0.84796 -3.73688 5.04677 123 128 124
-0.862657 -4.77081 4.12906 95 101 99
-1.07465 -2.80922 4.92106 172 158 155
-0.562246 -5.80799 4.21098 34 36 23
0.143521 -8.46842 4.36974 66 65 63
-0.179521 -7.25339 4.19182 87 89 84
-0.133926 -7.35474 4.19618 35 36 28
-2.46547 2.59895 3.97349 122 124 123
-1.63742 1.82346 6.54833 34 36 33
-0.025418 -5.17985 5.85446 56 55 53
-0.677085 -3.86214 4.33578 211 210 205
-1.83404 2.40124 6.14644 25 26 20
-0.316742 -5.06287 4.42116 95 97 86
-1.08353 -2.10809 4.32579 69 66 49
-1.63833 0.136237 4.20462 42 45 38
-0.197714 -4.85827 4.49372 189 186 179
-1.36293 -0.0524077 4.4143 23 23 15
0.4017 -3.46401 4.65401 208 208 200
0.365241 -3.3035 4.67755 197 197 189
0.924225 -3.74 4.80917 200 199 195
3.76696 -8.67368 5.26613 93 94 88
3.75471 -8.62038 5.26638 81 82 76
3.70779 -8.36855 5.26096 74 75 67
3.23763 -6.54771 5.09328 84 84 74
3.58904 -7.36559 5.15876 106 106 98
3.9181 -6.51239 5.34785 69 66 59
-0.361693 0.798578 8.4614 0 0 0
4.45781 2.57779 1.42384 0 0 0
0.97894 3.93341 4.53219 0 0 0
0.977379 3.94567 4.53289 0 0 0
0.977379 3.94567 4.53289 0 0 0
2.06396 9.32463 -1.04052 0 0 0
4.84589 9.94479 -5.01964 0 0 0
2.98492 9.4952 -2.04895 0 0 0
1.57088 3.41796 4.5242 0 0 0
