ply
format ascii 1.0 
element vertex 1351
property float32 x 
property float32 y 
property float32 z
property uchar red  
property uchar green
property uchar blue
element face 0
property list uchar int vertex_indices
end_header
2.69656 -5.24079 6.17572 107 97 85
-1.40283e+06 415494 -3.16234e+06 123 117 105
1.59099 -3.14176 3.63129 111 103 90
2.03012 -2.96277 4.54724 114 107 97
2.48482 -3.58914 5.61558 115 107 96
2.38386 -3.35036 5.39116 124 115 106
2.32472 -3.06718 5.23517 118 110 99
2.02738 -3.78168 4.58117 110 101 92
-1.75659e+08 -1.28308e+08 -3.91492e+08 131 122 113
-1.20388e+06 2.26772e+06 -2.6817e+06 101 97 85
1.53436 -2.2741 3.44882 105 98 88
2.42757 -3.36321 5.42282 97 87 78
-2.34311e+07 -1.61519e+07 -5.17711e+07 128 120 109
1.60613 -4.11264 3.59615 86 83 74
1.56857 -1.35749 3.43094 117 111 99
1.46991e+06 -3.68522e+06 3.19583e+06 94 92 80
2.94131 -5.39259 6.43549 108 102 90
2.1938 -2.43185 4.79176 115 109 97
2.21118 -2.44828 4.82705 115 109 97
2.21118 -2.44828 4.82705 115 109 97
2.00189 -1.57922 4.23804 124 116 105
0.694305 1.97043 1.47226 99 99 91
1.63003e+06 -3.84276e+06 3.41333e+06 78 78 68
1.63003e+06 -3.84276e+06 3.41333e+06 78 78 68
3.36202 -6.88186 7.02806 104 100 88
1.63457 -1.4479 3.38797 111 104 94
1.15057 0.792044 2.36691 100 96 87
2.88551 -3.59087 5.92456 117 113 101
1.17098 0.68365 2.40181 85 86 81
2.38795 -4.45208 4.88768 100 98 86
3.09376 -5.40931 6.3539 111 107 96
1.68446 -2.4798 3.45301 0 0 0
-1.48485e+06 301044 -2.97061e+06 0 0 0
1.74074 -3.9001 3.50919 0 0 0
2.34699 -2.1644 4.67511 0 0 0
1.73723 -1.66836 3.45088 0 0 0
-1.46255e+06 141241 -2.88045e+06 0 0 0
1.76256 -3.93442 3.51203 0 0 0
1.74932 -1.88904 3.45918 0 0 0
1.71056 0.368106 3.38084 0 0 0
2.2812 -1.96914 4.50073 0 0 0
1.89955e+06 -4.0998e+06 3.70929e+06 0 0 0
1.89955e+06 -4.0998e+06 3.70929e+06 0 0 0
1.73141 0.301412 3.37318 0 0 0
-1.33724e+06 -706132 -2.57146e+06 0 0 0
1.78062 0.77356 3.40753 0 0 0
2.34147 -1.8876 4.51153 0 0 0
1.84975 3.76648 3.0486 0 0 0
2.38638 -1.9812 4.58448 0 0 0
1.79274e+06 -3.82932e+06 3.41782e+06 0 0 0
0.744828 1.91474 1.4304 0 0 0
2.37956 -1.90563 4.54806 0 0 0
0.983161 1.50327 1.87834 0 0 0
1.7962 2.45919 3.41245 0 0 0
1.06381 1.34088 2.02289 0 0 0
1.78321 -1.32148 3.4012 0 0 0
2.78676 -3.40244 5.28086 0 0 0
0.957251 1.55927 1.80999 0 0 0
0.878161 1.73183 1.65617 0 0 0
2.29657 -1.73339 4.31342 0 0 0
0.842828 1.80963 1.58501 0 0 0
3.63203 -6.81983 6.80342 0 0 0
2.00301 -3.7271 3.76323 0 0 0
0.805867 1.8923 1.50777 0 0 0
0.814714 1.88221 1.523 0 0 0
1.9591 -3.16199 3.64515 0 0 0
1.90599 -2.6904 3.5278 0 0 0
1.92269 -1.18771 3.45 0 0 0
3.364 -5.35445 5.86583 0 0 0
-1.76185e+06 2.52308e+06 -3.04294e+06 0 0 0
3.23119 -4.19504 5.60104 0 0 0
3.45137 -5.57831 5.97315 0 0 0
3.0388 -3.70085 5.26384 0 0 0
3.13075 -5.42517 5.41217 0 0 0
3.35918 -4.48548 5.77403 0 0 0
-1.75609e+06 2.70951e+06 -2.99338e+06 0 0 0
2.26622 -1.9008 3.86173 0 0 0
0.770631 2.02093 1.30356 0 0 0
2.32007 -1.65244 3.88145 0 0 0
3.70407 -4.59628 6.12372 0 0 0
5.23778e+06 -9.68354e+06 8.46661e+06 0 0 0
1.00686 1.52036 1.61024 0 0 0
2.14136 2.96202 3.13776 0 0 0
1.00034 1.55307 1.58532 0 0 0
3.35128 -4.91072 5.29998 0 0 0
1.01872 1.60632 1.60774 0 0 0
3.86226 -4.28084 6.11491 0 0 0
2.12431 3.6626 2.93305 0 0 0
1.13717e+06 -2.01244e+06 1.77142e+06 0 0 0
4.41307 -5.94011 6.87272 0 0 0
0.8002 1.9604 1.2491 0 0 0
0.876461 1.83969 1.36579 0 0 0
2.03792 4.09763 2.98721 0 0 0
0.8655 1.87443 1.33831 0 0 0
1.52837e+06 -2.60884e+06 2.34645e+06 0 0 0
4.09052 -4.31499 6.28637 0 0 0
3.04583 -3.96928 4.63281 0 0 0
4.36393 -5.58196 6.56075 0 0 0
2.26956 2.62122 3.19196 0 0 0
2.26956 2.62122 3.19196 0 0 0
1.18591 1.57725 1.77596 0 0 0
3.03295 -4.20561 4.50638 0 0 0
2.88524 -4.00713 4.29369 0 0 0
4.81184 -6.35528 7.13575 0 0 0
3.03934 -1.55074 4.48848 0 0 0
1.87897 -2.71367 2.77172 0 0 0
2.81694 -1.29586 4.15132 0 0 0
-2.10916e+06 3.00354e+06 -3.08294e+06 0 0 0
-2.06108e+06 2.88318e+06 -2.9802e+06 0 0 0
0.936023 2.04956 1.32656 0 0 0
1.32249 1.96932 1.86303 0 0 0
1.302 1.84128 1.74887 0 0 0
2.29289 1.80928 2.99901 0 0 0
1.22391 2.08595 1.57795 0 0 0
1.12306 2.18421 1.43928 0 0 0
-5.08455e+06 -2.7675e+06 -6.45062e+06 0 0 0
-2.12913e+06 -1.18963e+06 -2.63643e+06 0 0 0
3.73406 0.565445 4.6507 0 0 0
-6.52516e+08 -6.37034e+08 -8.06305e+08 0 0 0
-6.52516e+08 -6.37034e+08 -8.06305e+08 0 0 0
-2.84173e+06 -1.95563e+06 -3.504e+06 0 0 0
-2.84173e+06 -1.95563e+06 -3.504e+06 0 0 0
-1.95227e+06 -488984 -2.40223e+06 0 0 0
3.02732 0.836776 3.78848 0 0 0
-1.9599e+06 -681484 -2.39193e+06 0 0 0
3.05765 1.18744 3.75124 0 0 0
-4.41952e+06 -3.15196e+06 -5.37957e+06 0 0 0
2.70485 1.77565 3.31867 0 0 0
2.39513 1.9422 2.92875 0 0 0
2.59219 1.79461 3.16735 0 0 0
2.76732 1.65707 3.35364 0 0 0
2.39574 1.264 2.94489 0 0 0
2.42909 1.55834 2.92883 0 0 0
2.78588 1.58771 3.33724 0 0 0
2.46669 1.20853 2.94882 0 0 0
2.7047 1.66369 3.22209 0 0 0
2.63399 1.77028 3.13879 0 0 0
-1.9698e+06 -454940 -2.3273e+06 0 0 0
2.09605 2.51975 2.48587 0 0 0
-2.88707e+06 -2.00814e+06 -3.40797e+06 0 0 0
1.78449 2.52066 2.11675 0 0 0
2.97787 1.47261 3.53381 0 0 0
2.41139 1.62286 2.89043 0 0 0
2.43076 1.97864 2.88385 0 0 0
1.77054 2.53998 2.09556 0 0 0
1.88826 2.62322 2.22998 0 0 0
-1.05118e+09 -1.01707e+09 -1.23525e+09 0 0 0
2.76023 1.67183 3.26208 0 0 0
2.15647 2.22714 2.55122 0 0 0
2.39679 2.2005 2.82804 0 0 0
2.13368 2.24934 2.51843 0 0 0
2.46043 1.6865 2.89423 0 0 0
1.89138 2.46127 2.22811 0 0 0
-3.51365e+07 -3.1177e+07 -4.11352e+07 0 0 0
2.42567 1.76029 2.86918 0 0 0
-2.21275e+06 -1.34001e+06 -2.5797e+06 0 0 0
-2.21275e+06 -1.34001e+06 -2.5797e+06 0 0 0
2.45083 1.21644 2.92185 0 0 0
2.93229 1.28565 3.52122 0 0 0
1.57131 2.65239 1.83455 0 0 0
2.75299 1.72243 3.2167 0 0 0
2.75299 1.72243 3.2167 0 0 0
1.909 2.61515 2.22315 0 0 0
3.00828 1.51942 3.50471 0 0 0
2.58639 1.76616 3.84391 0 0 0
2.68924 1.8711 3.13515 0 0 0
1.93559 2.58668 2.24661 0 0 0
1.83164 2.58038 2.12566 0 0 0
1.81152 2.57237 2.09877 0 0 0
1.78829 2.5925 2.0717 0 0 0
2.81396 4.06321 3.24831 0 0 0
1.78348 2.56225 2.0612 0 0 0
1.88523 2.4753 2.1816 0 0 0
-1.18567e+08 -1.05007e+08 -1.36374e+08 0 0 0
2.72816 1.88713 3.15935 0 0 0
1.59663 2.6382 1.83809 0 0 0
2.76892 1.90233 3.18274 0 0 0
1.61945 2.61544 1.85626 0 0 0
1.80547 2.50722 2.06929 0 0 0
-2.0299e+06 -654423 -2.31372e+06 0 0 0
1.60134 2.61816 1.82516 0 0 0
2.91898 1.82351 3.31938 0 0 0
3.39843 1.43061 3.8569 0 0 0
-1.2871e+09 -1.37352e+09 -1.43627e+09 0 0 0
2.98652 1.83339 3.36778 0 0 0
2.18657 2.69269 2.45663 0 0 0
3.43107 1.51124 3.85057 0 0 0
-2.12199e+06 -772137 -2.36522e+06 0 0 0
2.48005 2.18755 2.76336 0 0 0
2.51761 1.16711 2.87313 0 0 0
-1.36785e+09 -1.33542e+09 -1.5057e+09 0 0 0
2.36315 2.43074 2.62765 0 0 0
2.27262 2.7482 2.51368 0 0 0
2.41193 2.76745 2.67979 0 0 0
1.86323 2.83651 1.99686 0 0 0
2.20138 2.88729 2.31665 0 0 0
3.05916 3.65634 3.07485 0 0 0
3.09977 3.68465 3.09721 0 0 0
2.62705 3.56512 2.60427 0 0 0
2.14483e+07 -2.35157e+07 2.12834e+07 0 0 0
2.70932 3.58204 2.68457 0 0 0
2.70932 3.58204 2.68457 0 0 0
2.2967e+07 -2.39235e+07 2.26562e+07 0 0 0
2.30965e+07 -2.47664e+07 2.27489e+07 0 0 0
2.15242e+07 -2.32625e+07 2.11364e+07 0 0 0
2.25759e+07 -1.88385e+07 2.19489e+07 0 0 0
2.18042e+07 -2.33767e+07 2.11674e+07 0 0 0
2.30014e+07 -2.55271e+07 2.21795e+07 0 0 0
1.4959e+08 2.93951e+08 1.215e+08 0 0 0
2.40511e+07 -2.48044e+07 2.3089e+07 0 0 0
-2.50173e+09 1.92546e+09 -2.35059e+09 0 0 0
-3.70384e+08 -7.06248e+08 -2.94334e+08 0 0 0
-3.17168e+09 2.06191e+09 -2.95588e+09 0 0 0
-2.74924e+09 1.53132e+09 -2.55988e+09 0 0 0
-2.52424e+09 1.95327e+09 -2.34724e+09 0 0 0
-2.86396e+09 1.7462e+09 -2.6559e+09 0 0 0
-2.86396e+09 1.7462e+09 -2.6559e+09 0 0 0
-3.12596e+07 2.10469e+07 -2.88071e+07 0 0 0
-2.60959e+09 1.89615e+09 -2.38712e+09 0 0 0
-8.05278e+08 -8.17921e+08 -7.20118e+08 0 0 0
-2.82052e+09 8.65616e+08 -2.54168e+09 0 0 0
-3.49236e+09 1.0733e+09 -3.1387e+09 0 0 0
-0.468768 1.32434 0.670596 100 93 83
-1.24993 3.56959 1.86032 188 179 172
-3.16065 0.29994 4.76146 220 226 238
-0.714613 0.414872 1.11111 88 86 74
-0.45409 1.23161 0.715292 130 130 128
-0.45409 1.23161 0.715292 130 130 128
-0.693762 0.500943 1.09628 108 112 115
-0.462827 1.19729 0.738327 200 195 192
-0.429861 1.35235 0.685524 118 119 113
-0.429349 1.34581 0.686218 110 111 105
-0.459675 1.20095 0.739417 205 204 199
-0.621556 0.704369 1.00889 125 122 115
-0.74618 0.0351182 1.21294 220 226 238
-1.59596 0.261221 2.6003 222 226 238
-0.617262 0.711806 1.00675 122 122 112
-0.565812 0.902534 0.92791 212 212 210
-0.498635 1.13774 0.823758 245 246 241
-0.658318 0.377505 1.09942 118 120 119
-0.511587 1.06775 0.856149 220 216 213
-0.634137 0.536878 1.06235 87 87 85
-0.506641 1.07429 0.854936 216 213 208
-0.506641 1.07429 0.854936 216 213 208
-1.45844 1.17338 2.4802 24 24 22
-0.509923 1.03649 0.872988 225 216 211
-1.4925 1.20741 2.58928 30 32 29
-0.587001 0.705219 1.01935 157 152 148
-0.653972 0.297967 1.13599 112 112 112
-0.622119 0.425583 1.08104 44 45 39
-0.593355 0.633965 1.0454 120 124 127
-0.668329 0.13115 1.1832 218 224 236
-0.394089 1.36605 0.699277 145 143 146
-0.622882 0.388334 1.10956 122 126 127
-0.803358 -0.156473 1.43272 215 221 233
-0.583221 0.636508 1.04685 127 133 133
-0.585151 0.594717 1.06579 12 17 11
-0.405834 1.22945 0.741031 213 214 209
-0.574551 0.637117 1.0504 131 133 132
-0.584777 0.536211 1.07673 25 27 24
-0.438726 1.21848 0.809245 108 105 96
-0.404668 1.23425 0.755287 128 119 112
-2.04267 1.56667 4.38699 130 131 135
-0.580272 0.484542 1.10361 44 46 45
-1.55336e+07 -5.93464e+06 3.20999e+07 33 34 29
-0.510705 0.800771 0.986156 15 18 11
-0.393442 1.23938 0.75894 178 173 170
-0.540724 0.678022 1.0483 176 176 176
-2.36409 2.51501 3.79423 157 159 158
-0.491892 0.863647 0.959085 160 162 161
-0.415431 1.22918 0.82136 210 209 205
-0.471628 0.938862 0.933532 221 221 219
-0.375702 1.27806 0.742636 215 214 209
-0.968588 3.16211 1.92229 223 224 219
-0.523259 0.764478 1.051 221 221 219
-0.402826 1.23419 0.81432 214 213 208
-0.570012 0.312976 1.3075 206 207 202
-1.2184 0.728791 2.88999 207 208 203
-0.556079 0.27334 1.32001 205 204 199
-1.10045 1.64412 2.62958 142 146 147
-0.50931 0.324768 1.3187 202 198 189
-0.503509 0.272504 1.3304 197 190 180
-0.499982 0.33229 1.32616 201 201 193
-1.11267 0.616277 3.01435 119 119 111
-0.481312 0.27576 1.33354 155 157 156
-0.461627 0.350664 1.32796 118 112 100
-0.457557 0.238984 1.33528 212 211 207
-0.960227 0.804878 3.09967 210 207 200
-0.401023 0.253652 1.35316 210 207 200
-0.390209 0.366486 1.35179 209 209 199
-0.911461 0.718289 3.20097 207 204 197
-0.388877 0.305122 1.36594 207 204 197
-0.27618 0.817337 1.20058 194 194 194
-0.271438 0.824944 1.19956 200 200 198
-0.262124 0.856143 1.17138 218 218 216
-0.305665 0.39955 1.38699 152 151 149
-0.58136 1.79789 2.70426 178 178 178
-0.26032 0.803439 1.21162 178 178 178
-0.246458 0.888339 1.17671 226 226 224
-0.265756 0.618003 1.30929 27 29 24
-0.597621 1.30697 3.0854 40 42 37
-0.29525 0.0466561 1.54769 210 209 205
-0.265739 0.288509 1.40794 211 210 206
-0.513888 1.73185 2.73818 147 147 147
-0.28004 0.138326 1.4979 213 212 208
-0.261158 0.289283 1.41082 213 209 206
-0.25852 0.267105 1.41962 208 207 203
-0.209118 0.289985 1.40203 212 211 207
0.0970672 -4.62814 4.36695 30 23 15
0.31816 -3.2592 3.49387 27 27 19
0.430455 -3.0708 3.64657 26 25 21
0.451333 -3.45322 4.13662 26 25 21
0.378457 -2.1233 3.14704 63 62 57
0.435039 -3.62386 3.61573 231 223 220
0.44391 -3.09491 3.65944 20 24 23
0.452099 -3.88564 3.59888 35 31 30
0.457126 -2.73928 3.5289 145 140 134
0.444258 -2.58802 3.42853 66 58 55
0.461686 -2.84211 3.55309 87 82 78
0.495947 -2.93394 3.63681 56 59 52
0.509283 -4.08469 3.7188 109 115 115
0.509283 -4.08469 3.7188 109 115 115
0.458289 -2.3341 3.31917 81 78 71
0.516992 -2.49902 3.45355 56 63 56
0.608097 -2.99549 3.7574 27 29 26
0.647513 -4.05345 3.97881 90 91 83
0.559449 -2.32527 3.39373 68 68 58
0.579613 -2.53979 3.51293 74 74 64
0.63096 -2.8581 3.70131 87 82 76
0.69019 -3.30406 4.14625 87 84 77
0.695586 -4.1136 4.02831 93 90 83
0.600557 -2.36441 3.4525 62 65 58
0.664131 -2.83156 3.7233 56 56 54
0.419612 -1.50179 2.35503 68 69 63
0.644078 -2.39443 3.49704 58 51 45
0.667206 -2.59952 3.6178 73 70 65
0.722597 -3.08348 3.89146 72 68 57
0.757528 -3.13535 4.37019 73 72 68
0.679658 -2.39556 3.52686 71 72 66
0.692218 -2.50534 3.59067 70 73 64
0.522078 -1.0593 2.70894 203 202 197
0.750043 -2.97126 3.86002 64 65 57
0.854598 -4.44084 4.30054 99 97 85
0.759564 -2.87693 3.81248 91 86 80
0.982123 -4.43798 4.40419 120 113 103
0.982123 -4.43798 4.40419 120 113 103
1.0124 -4.58709 4.4893 122 115 107
1.04324 -4.88555 4.53725 118 111 101
1.01709 -4.26319 4.36679 120 111 102
1.00541 -3.19184 4.16746 19 19 11
1.07171 -4.28332 4.40836 120 116 107
1.11784 -4.26124 4.41886 114 110 99
0.858712 -1.63743 3.37753 169 162 152
1.22335 -4.85757 4.74674 115 111 102
0.634809 -1.20127 2.38243 165 158 148
1.27289 -4.48983 4.65612 103 98 94
1.2054 -4.08135 4.29069 81 82 76
1.12349 -2.66433 4.02145 160 153 143
0.895546 -1.34094 3.19718 145 137 126
0.895546 -1.34094 3.19718 145 137 126
1.14018 -2.701 4.04543 159 150 141
1.1339 -2.46043 3.92438 154 149 143
0.97493 -1.79884 3.36991 146 141 135
1.22916 -2.90721 4.21583 148 148 140
1.22916 -2.90721 4.21583 148 148 140
1.02059 -1.686 3.48907 104 94 84
1.38937 -4.19184 4.4961 47 39 36
1.59305 -5.30078 5.16953 75 77 72
1.59305 -5.30078 5.16953 75 77 72
0.978885 -1.19417 3.16523 140 143 136
1.37623 -3.11384 4.44956 126 122 113
1.37243 -3.10022 4.41555 126 122 113
1.0175 -1.38761 3.27106 114 115 107
1.31574 -2.88229 4.22307 103 104 98
1.56076 -4.63396 4.95055 28 30 25
1.3476 -2.52612 4.435 114 115 109
1.34138 -2.72308 4.22134 119 116 109
1.34138 -2.72308 4.22134 119 116 109
1.32392 -1.665 4.43063 122 121 116
1.32392 -1.665 4.43063 122 121 116
1.46577 -4.48686 4.42565 64 65 60
1.45798 -4.47836 4.4098 64 65 60
1.54679 -4.15859 4.54555 120 119 114
1.81262 -5.41284 5.37631 58 60 57
1.81262 -5.41284 5.37631 58 60 57
1.84292 -4.95748 5.33472 148 149 141
1.84292 -4.95748 5.33472 148 149 141
1.70352 -3.51411 4.88031 107 108 102
1.70352 -3.51411 4.88031 107 108 102
1.57799 -3.01255 4.51105 113 115 110
1.90985 -4.77264 5.30473 102 103 95
1.95263 -4.96891 5.4018 87 88 80
1.54514 -1.87524 4.3832 118 117 112
1.74141 -4.0209 4.4675 96 97 91
1.81342 -4.51175 4.56919 45 49 48
1.70076 -2.47119 4.40082 102 103 97
1.78223 -2.89436 4.52676 124 121 112
1.91596 -3.12638 4.87785 124 121 112
2.0083 -3.45649 5.10563 113 114 108
2.02839 -3.46939 5.13643 121 122 116
1.85139 -2.61138 4.58015 110 107 100
2.14876 -3.6382 5.30386 105 108 101
1.9047 -2.7432 4.6927 113 115 110
1.86031 -2.5739 4.57924 132 129 122
1.79564 -2.83867 4.37925 129 130 124
1.74016 -1.39247 4.00597 115 105 95
2.31073 -3.26518 5.26986 119 109 99
0.827985 1.77529 1.88893 133 109 85
1.63791 -1.12095 3.70697 128 122 110
2.28918 -3.1401 5.17848 118 109 100
2.33651 -3.20236 5.26106 119 111 100
1.34977 -0.559994 3.02384 128 122 110
2.18334 -2.71422 4.90639 107 100 90
2.18334 -2.71422 4.90639 107 100 90
1.87825 -1.54764 4.12942 108 99 90
1.21754 0.622548 2.49394 101 94 86
1.26046 0.639404 2.54318 0 0 0
1.63499 -0.195763 3.28288 0 0 0
3.59756 -6.84691 7.10309 0 0 0
1.27981 0.900288 2.46774 0 0 0
2.35959 -1.92111 4.55039 0 0 0
1.17472 1.15757 2.24929 0 0 0
3.48911 -4.53964 5.98204 0 0 0
3.38747 -4.27649 5.79776 0 0 0
3.38085 -4.04627 5.71131 0 0 0
3.53609 -4.40949 5.97031 0 0 0
2.66675 -1.66231 4.28093 0 0 0
3.07281 -4.54017 4.52367 0 0 0
4.99525 -7.49271 7.79035 0 0 0
2.85189 -4.01547 4.14492 0 0 0
5.59202 -6.72522 8.53469 0 0 0
4.42307 -4.70784 6.74815 0 0 0
2.91442 -4.11233 4.13385 0 0 0
5.28467 -7.64514 8.04208 0 0 0
4.53465 -4.51858 6.74514 0 0 0
3.27806 -4.05254 4.59824 0 0 0
5.2612 -6.6761 7.78584 0 0 0
4.82473 -4.83497 7.09193 0 0 0
3.36641 -4.04141 4.63135 0 0 0
1.84242 0.982785 2.60019 0 0 0
2.21507 1.2452 3.07023 0 0 0
2.22998 1.21044 3.08287 0 0 0
1.91453 1.68458 2.62624 0 0 0
2.93711 1.6245 4.01237 0 0 0
2.16419 1.87831 2.91153 0 0 0
2.44068 1.09559 3.2751 0 0 0
2.49131 1.27757 3.27329 0 0 0
2.18402 1.98925 2.85719 0 0 0
2.55553 2.11275 3.53247 0 0 0
2.15739 2.04699 2.80635 0 0 0
2.56306 1.37158 3.32736 0 0 0
2.18275 1.71753 2.81739 0 0 0
2.07198 2.16072 2.67051 0 0 0
1.93662 2.29578 2.47518 0 0 0
1.69357 2.53755 2.14797 0 0 0
2.62044 2.18773 3.48324 0 0 0
2.2531 2.48727 3.19239 0 0 0
2.76108 1.67819 3.45494 0 0 0
2.53292 1.53508 3.16494 0 0 0
2.89395 1.21223 3.60483 0 0 0
2.86444 1.19941 3.56819 0 0 0
3.36289 0.799258 4.18354 0 0 0
2.7672 1.3539 3.43842 0 0 0
2.67166 1.4906 3.31174 0 0 0
2.30354 1.80942 2.84894 0 0 0
2.50541 1.65777 3.09614 0 0 0
1.82847 2.32675 2.2321 0 0 0
2.30141 1.92805 2.80726 0 0 0
1.61672 2.51205 1.96223 0 0 0
2.0176 2.20968 2.44049 0 0 0
2.34047 1.94326 2.83083 0 0 0
2.42404 1.87717 2.92043 0 0 0
2.61837 2.13138 3.19676 0 0 0
2.24677 2.0565 2.69135 0 0 0
2.81747 1.45407 3.36909 0 0 0
1.74892 2.4923 2.08907 0 0 0
1.7004 2.53004 2.02894 0 0 0
2.97073 1.20094 3.54446 0 0 0
1.73694 2.51897 2.0666 0 0 0
2.83699 1.4813 3.37111 0 0 0
2.85632 1.46295 3.39399 0 0 0
1.73444 2.52636 2.05791 0 0 0
2.44383 1.83711 2.89777 0 0 0
3.6402 0.846342 4.31536 0 0 0
3.01487 1.28483 3.5724 0 0 0
2.65481 1.64878 3.14367 0 0 0
2.28024 2.54021 3.06768 0 0 0
2.36993 2.1697 2.82415 0 0 0
1.77465 2.50861 2.09365 0 0 0
1.9288 2.37238 2.2739 0 0 0
2.75604 1.58739 3.24882 0 0 0
2.65375 1.7145 3.12782 0 0 0
2.13827 2.14762 2.51995 0 0 0
2.70102 1.64053 3.17264 0 0 0
1.81187 2.48291 2.12452 0 0 0
2.1462 2.1781 2.50686 0 0 0
2.3047 2.07361 2.68398 0 0 0
2.51484 1.89516 2.92408 0 0 0
1.77821 2.49031 2.06607 0 0 0
2.79738 1.59491 3.24978 0 0 0
2.06319 2.28724 2.39229 0 0 0
2.87288 1.59203 3.31214 0 0 0
2.94342 1.52938 3.39002 0 0 0
2.94342 1.52938 3.39002 0 0 0
1.84401 2.5057 2.11984 0 0 0
2.87041 1.62265 3.29755 0 0 0
2.15599 2.22743 2.47655 0 0 0
2.98412 1.54284 3.4184 0 0 0
1.65051 2.54965 1.89047 0 0 0
1.59894 2.6021 1.82543 0 0 0
3.80676 1.09812 4.32888 0 0 0
3.64056 1.18827 4.13647 0 0 0
2.64468 1.93858 2.996 0 0 0
2.20011 2.16868 4.05378 0 0 0
2.34555 2.18417 2.65332 0 0 0
3.28952 1.47342 3.70097 0 0 0
2.75986 1.96045 3.09644 0 0 0
2.65953 2.0541 2.97799 0 0 0
1.79768 2.54017 2.01137 0 0 0
1.79768 2.54017 2.01137 0 0 0
3.076 2.22627 3.43775 0 0 0
2.97585 2.18767 3.37026 0 0 0
3.4023 1.439 3.79684 0 0 0
3.13357 1.84739 3.50671 0 0 0
2.45885 2.2305 2.73859 0 0 0
2.53011 2.16155 2.81499 0 0 0
3.48574 1.36864 3.85869 0 0 0
3.48574 1.36864 3.85869 0 0 0
2.1455 2.48367 2.37414 0 0 0
2.29756 2.35739 2.54075 0 0 0
2.27773 2.39027 2.48644 0 0 0
1.88972 2.59106 2.06198 0 0 0
1.95479 2.67203 2.06491 0 0 0
-0.45419 1.30311 0.677268 128 128 126
-0.479435 1.20747 0.72534 42 37 34
-0.454578 1.23862 0.711441 215 214 209
-0.435379 1.30849 0.686373 151 151 151
-0.553314 0.886986 0.913207 200 199 195
-1.40524 0.0913668 3.40378 213 220 228
-0.740316 0.101681 1.20788 220 227 235
-0.628434 0.497485 1.07007 179 180 175
-0.675623 0.270273 1.15367 220 227 235
-0.379959 1.24487 0.751803 45 47 42
-0.611484 0.12611 1.23674 217 214 209
-0.541253 0.313686 1.28962 205 201 192
-2.79428 0.729842 11.8586 21 23 18
-0.462454 0.258845 1.2766 212 209 200
-0.456002 0.232414 1.34211 145 135 126
-0.972811 1.18499 4.36499 217 214 207
-0.26927 0.582576 1.30087 209 206 199
-0.256296 0.563064 1.3352 210 209 204
-0.0568015 1.18666 0.860455 10 15 9
-0.0589643 0.957412 0.953835 164 164 156
-0.0402195 1.40169 0.777272 10 12 9
-0.0417423 1.02497 0.936987 189 186 179
0.0133413 -4.50031 3.35189 71 54 46
0.100594 1.33821 0.922938 30 31 26
0.675747 -3.47275 4.30704 113 106 96
0.614151 -2.22386 3.47723 23 24 19
0.373791 -4.65005 3.51177 109 105 94
0.341174 -4.50377 3.27904 112 108 96
0.781981 -5.0491 4.53259 72 62 53
1.06289 -4.27045 4.27285 81 80 75
0.692742 -1.41594 2.81383 148 142 128
0.926335 -1.76629 3.48565 169 163 149
0.969572 -1.5929 3.42662 138 134 125
3.20682 -5.45213 6.45628 105 101 90
3.41776 -6.49373 6.93471 113 109 100
2.14503 -3.0234 3.44197 110 106 94
2.94344 1.26613 3.6875 0 0 0
2.13886 2.31937 2.57871 0 0 0
2.51183 1.57689 4.16307 0 0 0
8.50525e+09 -5.13875e+08 -1.41801e+10 69 66 61
3.71914e+09 2.00958e+07 -6.36514e+09 26 27 21
6.74993e+09 6.38149e+07 -1.15827e+10 67 68 62
6.74993e+09 6.38149e+07 -1.15827e+10 67 68 62
-3.92379e-13 3.37232e-13 6.77538e-13 21 23 18
-3.42732 1.77189 6.5739 153 153 153
-2.95071e-13 2.19326e-13 5.76069e-13 96 101 104
-2.08751 2.64085 4.01786 220 221 216
3.53635e+09 5.24306e+08 -1.00049e+10 207 207 199
-1.55338 1.46617 7.27391 210 209 204
-0.819508 1.91871 5.77966 227 227 225
-0.787604 1.90932 5.82031 226 227 222
-1.02544e+06 6.50096e+07 6.13857e+07 227 228 223
787403 7.08858e+07 6.08718e+07 220 221 216
787403 7.08858e+07 6.08718e+07 220 221 216
1.57608e+06 6.70037e+07 6.11982e+07 233 232 227
-1.19663 2.35627 4.92031 152 149 144
-0.363777 1.7302 6.41696 162 163 157
-1.1269 2.35415 4.93388 161 162 154
0.363802 -1.74586 2.20354 61 61 53
0.687335 -3.27792 4.14113 63 64 56
0.513186 -2.72104 4.46973 101 101 91
0.7945 -4.50826 4.35814 102 93 84
0.446949 -2.1484 2.16331 107 103 94
0.463189 -2.33856 2.15286 106 101 95
1.07234 -4.55235 4.44911 122 118 107
1.00506 -3.29185 4.19269 18 19 13
1.17915 -4.30983 4.38019 113 109 98
1.26883 -4.55899 4.52063 86 85 80
1.26113 -4.27803 4.40025 82 81 77
0.676103 -2.1254 2.26677 44 46 43
1.60804 -3.20779 4.52538 107 106 102
1.67656 -4.48456 4.5472 48 53 49
1.02725 -2.17233 2.50255 91 91 83
2.00259 -3.42494 4.74004 102 95 85
1.21144 -1.60575 2.72803 118 110 99
1.4567 1.9927 2.07049 0 0 0
2.50292 1.41125 3.42138 0 0 0
3.4148 1.70078 4.30373 0 0 0
3.21265 0.811746 3.84721 0 0 0
-1.9246 0.662474 4.80924 219 226 234
-1.1455e+06 8.57186e+06 7.15079e+06 137 130 120
2.67015e+09 1.76407e+09 -6.27086e+09 209 206 199
-1.09454 1.44189 3.67501 208 205 196
1.85032e+09 1.5862e+09 -6.01259e+09 217 214 207
1.8506e+09 1.17048e+09 -6.12328e+09 219 216 209
0.839882 -4.37263 4.26672 118 111 101
0.385574 -3.02299 2.66985 116 109 99
1.01018 -4.4821 4.38495 81 80 75
1.11437 -4.6165 4.44983 77 76 71
1.98565 -3.1222 4.64955 123 116 106
1.10768 -2.65851 3.04727 29 31 26
6.62399e+08 1.00228e+09 -2.12778e+09 0 0 0
-2.7398 1.29658 3.6739 72 67 61
-2.72277 0.811003 3.70311 73 71 59
9.69365 5.99019 -15.4918 96 101 97
-2.4134e+08 -1.31557e+08 5.61568e+08 102 99 94
-55.8428 34.7379 75.0238 131 117 116
-6.23114e+08 -4.46207e+08 1.91249e+09 216 218 215
-3.43635e+09 3.17256e+08 5.41167e+09 222 228 240
-3.22044e+09 -9.11895e+08 6.1342e+09 159 162 151
-4.30843e+09 3.24125e+08 6.4094e+09 159 162 151
-20.2062 14.0051 29.4299 143 147 132
-2.39309 0.924634 3.85559 214 216 215
6.39579 -5.80955 -9.69159 218 217 215
-1.97476 1.05976 4.04551 184 182 183
-1.95141 1.05147 4.05885 186 184 185
-3.46794e+09 -5.3115e+08 8.42143e+09 40 40 38
0.0321227 -1.56343 1.08204 38 35 30
0.67137 0.69985 -1.86424 214 210 207
0.67137 0.69985 -1.86424 214 210 207
0.488684 0.493555 -1.16969 214 215 209
-0.33591 -4.1449 3.84219 17 23 11
0.369161 0.208348 -0.600965 83 83 75
-0.180629 -4.67366 4.37559 38 34 23
1.47855e+08 2.68127e+09 -6.3079e+09 45 43 31
0.0758605 -3.86539 4.46232 71 71 63
1.23252e+08 1.15678e+09 -2.79586e+09 99 104 100
0.239643 -5.79648 4.57659 46 42 31
0.594693 -2.69 3.41803 87 80 72
0.644696 -3.25701 4.1985 87 80 72
0.898419 -4.8642 4.45082 17 19 16
0.592811 -2.6636 4.49715 66 69 60
0.944686 -4.76502 4.35398 86 92 82
0.79848 -2.55508 4.1554 205 206 200
1.04073 -4.29438 4.40319 72 73 65
1.07662 -4.49645 4.44102 64 59 55
1.01875 -3.08107 4.40902 115 102 94
0.990006 -2.97991 4.20414 115 102 94
1.30122 -4.76568 4.5482 25 28 21
1.30122 -4.76568 4.5482 25 28 21
1.11154 -2.38355 4.0756 211 210 206
1.33035 -4.11951 4.33224 162 158 146
1.09336 -1.57264 3.74196 21 22 17
1.23409 -2.52487 4.12306 188 182 170
1.51884 -4.71922 4.60827 136 132 123
1.76365 -5.85146 4.73681 79 80 75
1.68255 -4.68396 4.65505 114 111 104
1.68255 -4.68396 4.65505 114 111 104
1.8388 -6.04519 4.86943 79 80 75
1.59782 -4.09452 4.46017 125 126 120
1.88482 -5.96317 4.88101 85 74 70
1.65305 -4.07804 4.47508 111 112 106
1.52234 -3.33475 4.59661 142 142 132
1.68428 -4.03702 4.43558 108 109 103
2.01861 -5.8648 4.93528 122 123 117
1.81446 -4.23574 4.63039 116 117 111
2.06494 -5.84309 4.95537 98 99 93
2.14941 -6.08348 5.02705 88 90 79
1.73323 -2.88746 4.51564 135 130 124
1.89047 -4.09181 4.63325 110 111 105
1.76029 -2.66587 4.49646 115 103 91
2.22935 -6.10996 5.07217 99 99 91
1.79818 -2.92718 4.52539 141 142 136
2.03242 -4.02408 4.68695 125 121 110
1.95459 -2.62598 4.31142 132 124 113
3.14712 -5.40027 5.2096 0 0 0
4.03043 -5.92793 5.82466 0 0 0
4.08135 -6.03911 5.86456 0 0 0
4.08135 -6.03911 5.86456 0 0 0
3.33456 -4.76691 5.1404 0 0 0
4.06632 -5.9103 5.83315 0 0 0
4.22188 -5.97519 5.89628 0 0 0
3.51174 -4.80148 5.19142 0 0 0
4.28471 -6.00018 5.92133 0 0 0
3.20223 -4.19444 4.54457 0 0 0
3.41425 -3.73538 4.98277 0 0 0
3.7511 -4.73167 5.25947 0 0 0
3.89681 -5.16597 5.38751 0 0 0
3.89681 -5.16597 5.38751 0 0 0
3.98997 -5.1459 5.44015 0 0 0
1.39512 1.44364 5.0742 0 0 0
1.84489 2.05241 4.13058 0 0 0
2.25426 1.2698 3.1482 0 0 0
1.52742 1.35869 5.01077 0 0 0
2.16729 2.36603 3.43494 0 0 0
1.96014 1.63083 4.69245 0 0 0
2.26708 2.50281 3.14662 0 0 0
3.00194 1.61768 3.4866 0 0 0
2.95337 1.97868 3.4046 0 0 0
2.98931 1.94828 3.4269 0 0 0
-9.06929e+08 -1.16611e+08 2.04509e+09 21 23 18
-4.16532e+07 -4.999e+06 8.68803e+07 130 131 133
-2.44409e+08 -4.10465e+07 5.67937e+08 28 30 27
-2.96703e+09 -4.73374e+08 6.60111e+09 109 105 104
-3.15242 2.15816 8.47889 206 203 196
0.278018 2.33862 5.43634 177 176 171
-1.55387e+08 -2.19381e+09 -8.64312e+08 120 117 108
-4.08712e+08 3.45324e+09 -2.57117e+09 116 112 103
1.28423 -4.10633 4.35748 43 43 41
1.63457 -4.39205 4.45028 48 53 49
1.91005 -4.01919 4.59307 97 98 92
6.08426 9.26858 10.3426 0 0 0
3.09746 -3.39344 4.72596 0 0 0
2.21184 2.48544 3.24465 0 0 0
2.94954 -4.0695 4.46602 0 0 0
-1.89174e+09 3.31273e+08 2.89864e+09 209 208 203
-1.78536e+09 -1.58609e+09 6.17061e+09 216 213 204
3.01715e+07 4.71935e+09 -3.39721e+09 20 22 17
1.17947e+08 8.59224e+08 -4.08726e+08 6 22 12
-1.90289 4.28529 -4.54487 32 34 31
1.82436 -1.25249 2.93954 0 0 0
-4.60386e+09 3.82976e+07 7.48438e+09 119 118 113
-2.26179 1.36871 3.2389 97 96 91
-3.07407 1.11143 4.42924 197 203 199
-3.02277e+09 -5.1003e+07 5.61479e+09 216 218 215
-1.92204 1.38268 2.93253 216 218 215
-1.31587e+09 -3.49409e+08 2.18048e+09 232 232 230
-8.76661e+08 -3.36367e+08 1.57001e+09 197 197 197
-7.18128e+08 -3.01379e+08 1.40604e+09 185 185 185
-0.748429 0.587827 2.16715 198 198 200
-0.715565 0.587824 2.12904 203 201 202
0.747752 -3.6854 4.36249 87 88 80
1.1782 -4.12476 4.29439 71 72 66
2.52859 -2.75855 4.32956 0 0 0
2.09933e+09 1.09027e+08 -1.74803e+09 0 0 0
2.24684 2.47859 3.21313 0 0 0
3.00458 -4.43278 4.28756 0 0 0
1.41253 -1.40266 1.6754 0 0 0
2.02167 2.48822 3.43263 0 0 0
2.04303 2.48929 3.41395 0 0 0
1.50005 -1.58389 1.6544 0 0 0
2.12106 2.48794 3.34326 0 0 0
2.14963 2.4863 3.31561 0 0 0
2.25321 2.47704 3.20641 0 0 0
2.21089 2.44314 3.30215 0 0 0
2.22156 2.44747 3.28506 0 0 0
3.29526 2.27084 3.98306 0 0 0
-2.08269 2.52121 4.79598 88 84 75
-2.08269 2.52121 4.79598 88 84 75
-6.20285 -28.4528 1.41795 130 146 146
-31.4555 -153.676 -24.3461 164 177 186
3.46875e+06 2.09138e+07 3.7816e+06 37 38 30
1.19494e+06 6.62718e+06 1.2366e+06 164 174 184
2.19608e+06 1.22726e+07 2.28867e+06 163 173 183
-1.56183e+06 -8.88946e+06 -1.62859e+06 166 174 185
-2.01552 -12.4052 5.39785 165 173 184
1.87436e+06 1.07221e+07 1.9927e+06 165 173 184
-1.9417 2.21638 4.77025 62 66 51
-7.39509 -48.651 -0.660787 163 171 182
-7.87755 -54.314 -1.24692 162 172 182
-4.90423e+06 -3.27395e+07 -5.50459e+06 161 171 181
-2.11544 0.977694 4.53497 188 185 176
-2.03683 1.28374 4.59976 197 190 180
-2.14342 0.606261 4.46496 185 181 170
-4.45073 -25.2013 1.94498 21 26 19
-1.86887e+06 -1.29611e+07 -2.23158e+06 165 171 183
-1.86887e+06 -1.29611e+07 -2.23158e+06 165 171 183
-2.07124 0.871179 4.52606 194 187 177
-1.97792 1.41619 4.63758 94 84 72
-31.3853 -205.197 -31.665 36 29 36
-1.9866 1.24404 4.60575 91 83 70
-1.94675 1.252 4.66006 91 83 70
-2.02591 0.946976 4.54997 187 183 172
-5.27182 -37.3664 0.629955 25 24 20
-4.83988 -20.99 0.939043 92 102 93
-8.70772 -49.5126 -4.03831 103 99 98
-8.0932 -45.2454 -3.27693 15 24 21
-2.03453 0.78742 4.51856 171 165 153
-1.85899 1.81964 4.74272 206 203 198
-8.80363 -51.1258 -4.29499 29 34 27
-1.9254 1.42435 4.65069 198 195 186
-4.09805 -25.9825 1.88342 17 18 12
-10.4599 -64.9639 -6.66453 17 20 13
-2.0616 0.384283 4.45956 184 180 169
-9.0771 -54.5054 -4.84673 25 31 21
-1.90621 1.39992 4.64931 201 197 186
-6.14267 -33.829 -1.20563 27 29 18
-1.86478 1.36872 4.69052 208 203 197
-1.86325 1.29965 4.68169 207 204 197
-1.8713 1.43206 4.66299 201 194 184
-1.85152 1.57175 4.69011 213 212 207
-1.85152 1.57175 4.69011 213 212 207
-1.72789 2.45089 4.85801 102 95 85
-1.86633 1.36757 4.65421 206 203 194
-3.55532 -14.4478 2.20109 184 190 202
-1.71554 2.46053 4.86208 117 123 113
-1.94386 0.364773 4.52076 199 186 180
-1.97956 0.32794 4.46727 199 186 180
-1.85023 1.35932 4.65767 203 200 191
-1.70856 2.40724 4.85614 122 125 114
-1.70086 2.45846 4.86671 108 108 98
-1.97245 0.278509 4.4594 201 193 182
-1.80487 1.63191 4.71016 203 199 190
-1.69231 2.51115 4.8743 116 118 107
-1.81989 1.21156 4.68418 205 202 195
-1.69322 2.47121 4.87091 119 120 112
-1.70439 2.38658 4.85477 81 81 73
-3.25654 -13.0653 2.47177 185 191 203
-1.70994 2.31427 4.84255 123 123 115
-1.85497 0.808207 4.62035 209 202 194
-1.76715 1.83574 4.7548 179 179 167
-1.71594 2.24088 4.83001 122 123 115
-3.11079 -12.2606 2.62136 184 192 203
-2.99399 -11.1938 2.80222 190 196 208
-1.69988 2.28804 4.84292 107 104 95
-1.70362 2.2555 4.83567 87 82 76
-1.7552 1.71336 4.75162 182 183 169
-1.71775 2.06651 4.80525 67 65 52
-1.83462 1.08704 4.62007 207 205 193
-1.83462 1.08704 4.62007 207 205 193
-1.82351 0.867819 4.63045 207 204 195
-1.71744 1.9707 4.79357 81 79 67
-1.73966 1.79708 4.75669 90 81 72
-1.74461 1.7273 4.7451 73 67 53
-1.69966 2.06859 4.80951 83 80 73
-1.74854 1.59422 4.72496 91 85 71
-1.74014 1.38848 4.7266 181 177 168
-1.83943 0.804547 4.56485 209 206 197
-1.75912 1.35245 4.68448 118 127 110
-1.73242 1.33452 4.72295 185 196 179
-1.73242 1.33452 4.72295 185 196 179
-1.73541 1.24301 4.71146 187 184 177
-1.75229 1.2932 4.67532 86 80 66
-1.74389 1.34731 4.68817 82 79 62
-1.73237 1.01894 4.6868 181 174 166
-1.69597 1.72956 4.75744 94 92 80
-1.64594 2.09739 4.8259 69 61 50
-1.75595 0.0661605 4.5606 201 199 187
-1.60737 1.57359 4.75337 68 69 55
-1.5714 1.04615 4.67642 109 103 89
-1.50862 1.82085 4.83237 116 116 108
-1.55236 1.00486 4.67321 82 76 62
-1.12783 -8.59123 3.0157 71 72 66
-1.12783 -8.59123 3.0157 71 72 66
-0.892226 -7.95277 3.17811 43 39 36
-1.03493 -1.59838 4.28669 116 105 101
-0.546791 -12.6505 2.53675 55 54 52
-0.546791 -12.6505 2.53675 55 54 52
-0.925355 -1.59599 4.39071 193 192 187
-0.925355 -1.59599 4.39071 193 192 187
-0.48983 -12.1304 2.63374 178 157 166
-0.890486 -2.42222 4.15981 188 192 178
-0.608773 -7.05622 3.39271 33 30 23
-0.133162 -13.386 2.49253 28 30 17
-0.48154 -7.8623 3.27317 41 38 33
-0.0832822 -13.1395 2.53554 83 84 68
-0.491427 -6.71 3.51136 69 70 62
-0.030763 -12.6803 2.63124 34 30 19
-0.200817 -8.397 3.22417 105 110 106
-0.48891 -3.59792 4.04791 26 31 25
-0.100027 -8.39147 3.24748 27 28 22
-0.100027 -8.39147 3.24748 27 28 22
-0.208436 -6.80943 3.51324 16 21 15
-0.144562 -6.7036 3.55743 8 10 5
-0.50771 -2.51895 4.20985 211 208 201
-1.02667 2.77581 4.94096 28 31 24
-0.451652 -2.73652 4.23154 189 185 182
-0.412969 -3.17059 4.15551 179 177 182
-0.414485 -3.14196 4.13139 129 125 122
-0.414485 -3.14196 4.13139 129 125 122
-0.207108 -4.75842 4.05207 70 66 63
-0.261536 -4.62277 3.92431 47 47 39
0.452755 -11.0253 3.15387 42 38 29
-0.0334385 -7.04276 3.51791 18 24 12
-0.028029 -7.14102 3.48786 18 24 12
-0.931884 2.31127 4.9128 159 160 155
0.551849 -10.0539 3.63532 66 65 63
-0.0448615 -4.74965 4.26633 33 41 30
-0.0984304 -5.60754 3.76774 33 41 30
-0.916321 2.58325 5.03723 214 213 208
-0.867408 2.28463 5.01661 160 162 159
-0.904842 2.57204 5.03974 212 212 204
-0.949618 2.63204 4.95314 215 215 207
-0.788523 1.60783 4.92553 168 172 173
-0.893785 2.52005 5.03594 185 186 181
-0.857312 2.28209 5.01958 130 132 129
-0.810111 1.91089 4.97009 205 204 209
-0.850204 2.25889 5.01313 193 192 190
0.235543 -7.9232 3.4105 150 149 144
-0.864635 2.43381 5.04287 32 33 27
-0.799384 1.86964 4.9676 180 178 181
-0.799384 1.86964 4.9676 180 178 181
-0.737199 1.37145 4.89668 21 27 13
-0.835899 2.2356 5.01832 179 180 175
-0.770039 1.76204 4.95734 45 46 30
-0.695391 1.15804 4.87303 35 35 23
-0.695391 1.15804 4.87303 35 35 23
-0.112732 -3.703 4.1564 49 41 30
-0.841365 2.40033 5.0457 29 34 30
-0.35108 -1.3653 4.54796 203 202 198
-0.609913 0.566796 4.78833 209 210 204
-0.609913 0.566796 4.78833 209 210 204
0.163746 -6.0205 3.76589 69 69 69
-0.338376 -1.64108 4.46336 13 24 16
-0.265044 -1.98198 4.46898 207 207 199
-0.258939 -1.95391 4.49485 207 207 199
0.130135 -5.48946 3.89019 52 49 42
-0.262964 -2.17594 4.38689 213 210 205
-0.367159 -1.28547 4.52568 205 204 200
0.314559 -7.12455 3.59138 62 68 64
0.314559 -7.12455 3.59138 62 68 64
-0.383373 -1.08012 4.54743 212 211 206
-0.383373 -1.08012 4.54743 212 211 206
0.258584 -6.19045 3.76507 78 84 74
-0.244434 -1.76564 4.50854 167 167 157
-0.281253 -1.66439 4.47798 106 119 109
0.299923 -5.95539 3.98373 33 35 24
0.299923 -5.95539 3.98373 33 35 24
-0.640111 1.14243 4.87997 39 40 34
-0.640847 1.20718 4.89377 28 29 21
-0.843219 2.71892 5.08943 32 33 27
-0.0474218 -3.2158 4.25274 150 147 140
-0.0474218 -3.2158 4.25274 150 147 140
0.150787 -4.71329 4.03217 35 35 25
-0.680441 1.62735 4.96158 14 16 11
-0.596696 1.02178 4.87349 41 42 28
0.238307 -5.08699 4.02458 33 33 21
0.0597022 -3.32505 4.35873 48 51 42
-0.571403 1.03063 4.88059 62 62 54
0.0627355 -3.42221 4.25245 44 25 21
-0.150704 -1.75287 4.52035 168 169 161
0.503097 -6.64167 3.76719 56 58 47
-0.196425 -1.58659 4.50423 36 44 33
-0.194674 -1.58304 4.50768 31 39 28
0.0831323 -3.45915 4.25098 36 16 9
-0.102151 -2.0715 4.47285 211 210 205
-0.367513 -0.290851 4.70423 29 31 18
-0.148329 -1.65767 4.54831 134 142 129
-0.411575 0.0391498 4.75398 172 149 141
-0.0864657 -1.68935 4.71341 208 207 202
-0.0984691 -1.93708 4.51136 208 207 202
-0.0897831 -1.98554 4.50388 212 211 206
-0.0211779 -2.53913 4.37815 197 196 192
0.158199 -3.44792 4.37364 95 97 86
0.187185 -2.86649 4.7743 187 174 165
-0.334594 -0.291522 4.71444 67 61 49
-0.22642 -0.970132 4.62079 215 212 205
0.295248 -4.2483 4.26138 17 20 13
-0.0913357 -1.61057 4.5861 40 53 44
0.194017 -3.46513 4.38015 192 183 174
0.149159 -3.20369 4.39428 177 180 173
0.533296 -6.02073 3.88777 63 65 54
-0.0728257 -1.36529 4.81281 141 143 132
0.165416 -3.11242 4.4453 153 155 150
0.14874 -3.13401 4.40281 153 155 150
-0.0334414 -1.96187 4.52211 209 208 203
-0.0459977 -1.8282 4.55445 201 201 193
0.194992 -2.70377 4.78076 179 179 171
0.159197 -3.30115 4.30702 179 179 171
-0.311924 -0.249692 4.72605 75 72 63
0.99281 -8.61438 3.60788 105 106 100
0.419641 -5.01776 4.02003 13 16 7
0.587843 -5.58569 4.08683 23 26 15
-0.0917821 -1.2616 4.59897 199 198 194
-0.0917821 -1.2616 4.59897 199 198 194
0.194077 -2.82023 4.45354 184 183 178
0.414331 -4.30154 4.1699 36 27 20
1.03659 -7.37432 4.05124 40 42 31
0.784385 -6.20851 3.89048 14 17 8
0.310651 -3.15198 4.3619 184 184 174
0.207784 -2.36032 4.47418 204 201 196
0.334631 -2.89878 4.45977 143 125 111
0.172171 -2.06115 4.51532 211 210 205
0.753704 -5.25768 4.06753 193 190 183
0.237934 -2.3714 4.47689 200 199 194
0.650099 -4.61874 4.15182 193 190 183
0.676752 -4.45646 4.22064 190 190 182
0.414023 -2.9138 4.41768 184 184 176
0.739265 -4.6085 4.17015 191 191 183
0.374639 -2.3593 4.50499 198 197 193
0.463992 -2.80554 4.44945 121 121 111
0.367822 -2.20153 4.52994 206 206 198
0.37284 -2.1614 4.5378 208 207 202
0.379247 -1.94274 4.59247 210 209 204
0.528749 -2.67904 4.49934 167 172 165
0.502336 -2.49992 4.51633 186 182 179
0.470861 -2.37118 4.52348 191 190 186
0.589657 -2.91039 4.45555 184 184 176
0.547868 -2.51409 4.5218 173 169 166
0.585588 -2.74506 4.48192 188 185 176
0.434269 -2.02335 4.57183 210 209 204
0.330997 -1.43592 4.63712 23 18 14
1.05777 -4.86575 4.18864 194 194 186
0.564871 -2.47472 4.52406 161 160 158
2.1594 -8.74015 3.85578 177 170 160
0.439629 -1.38136 4.66388 40 25 22
0.439629 -1.38136 4.66388 40 25 22
0.856696 -2.9316 4.50337 184 181 172
2.30834 -8.78979 3.83867 174 174 164
0.972182 -2.74611 4.53715 186 186 174
0.531995 -1.00875 4.75239 202 201 197
0.479526 -0.707556 4.79527 211 210 205
0.597684 -1.10671 4.74597 188 189 184
0.81414 -1.84576 4.64706 213 210 205
1.03946 -2.65228 4.58427 187 187 179
0.898403 -2.1142 4.61108 202 201 196
1.02717 -2.52434 4.6031 184 185 177
1.1039 -2.81178 4.54079 188 185 178
0.64611 -1.116 4.75502 183 182 180
1.56596 -4.48343 4.3498 191 190 185
0.905368 -1.93655 4.67587 207 206 202
1.1499 -2.81056 4.58028 181 181 173
0.966154 -2.05599 4.63257 202 201 197
2.81781 -8.57456 3.97663 170 170 160
1.0114 -2.10398 4.66718 196 195 191
0.789501 -1.36052 4.70127 165 168 159
1.09564 -2.39801 4.59191 185 186 178
1.09564 -2.39801 4.59191 185 186 178
1.16694 -2.59107 4.619 190 187 180
2.79349 -8.306 4.01872 64 66 55
0.8169 -1.30137 4.76428 159 160 152
0.760885 -1.11611 4.75003 177 176 172
1.00446 -2.31218 3.57577 198 198 190
0.887407 -1.44988 4.69538 199 199 191
4.35433 -13.1121 3.61251 10 15 9
0.871092 -1.36127 4.73887 175 176 168
1.96908 -5.17831 4.28961 187 187 177
0.865018 -1.23535 4.78811 125 135 126
3.04174 -8.56318 4.02216 53 53 45
1.95221 -4.86038 4.36422 188 187 182
1.93715 -4.24867 4.46577 72 78 64
3.14852 -7.81342 4.17235 51 51 39
2.08457 -4.42682 4.45927 65 69 55
1.64028 -2.90932 4.65592 32 34 21
1.53713 -2.56484 4.67349 33 36 25
1.56009 -2.5316 4.70393 25 27 16
1.48411 -2.23491 4.72132 197 172 165
1.61096 -2.51588 4.71655 21 22 14
1.67135 -2.66168 4.70371 21 24 17
1.70437 -2.72467 4.68622 21 24 15
1.5111 -2.11548 4.76018 52 29 23
1.2727 -1.41428 4.83119 211 208 203
2.26518 -4.38497 4.48667 89 80 65
1.45719 -1.93109 4.76601 188 187 182
1.7115 -2.59746 4.72096 16 19 12
1.7115 -2.59746 4.72096 16 19 12
1.58642 -2.19169 4.7617 52 38 25
1.66079 -2.40003 4.74377 26 29 20
1.60973 -2.23551 4.76148 43 40 25
1.6851 -2.45069 4.74018 30 34 20
1.66393 -2.31537 4.75744 22 28 16
2.27178 -4.07625 4.55586 162 159 150
2.31393 -4.03828 4.55596 159 155 146
1.10308 -0.591523 4.93201 210 207 202
1.80138 -2.26799 4.79334 124 124 116
1.40719 -1.17234 4.89149 125 118 108
1.33829 -0.961899 4.91398 144 137 127
1.57513 -1.55815 4.09324 120 117 110
1.35928 -0.997354 4.91283 116 113 106
0.585519 1.08045 5.11163 32 34 29
0.588753 1.1504 5.12472 31 33 28
1.44806 -1.02298 4.92188 130 132 121
2.8133 -4.53635 4.50125 172 154 144
3.64818 -6.38231 4.30425 44 47 38
2.67903 -3.65987 4.63774 157 154 145
2.12459 -2.09438 4.75579 133 127 115
2.8147 -3.74191 4.6179 179 176 169
1.91174 -1.40175 4.83972 130 128 116
3.4073 -5.13029 4.50732 120 114 100
2.48927 -2.68646 4.75029 74 74 62
4.2217 -6.94886 4.35989 99 95 84
4.93184 -8.1664 4.41523 101 103 92
4.40813 -7.00821 4.39881 91 93 82
4.52823 -6.99576 4.43541 81 83 72
3.10307 -3.50579 4.7619 104 104 94
4.48854 -6.80532 4.42215 90 91 83
4.10778 -5.79751 4.56519 107 108 100
2.51744 -2.05859 4.8999 65 61 50
3.82572 -5.05732 4.62841 91 92 84
3.81943 -5.00419 4.63767 85 85 75
2.27137 -1.27311 4.942 109 109 97
2.41043 -1.54383 4.91245 99 92 82
2.17667 -0.688974 5.10674 117 107 95
0.615192 2.38788 5.268 38 31 21
0.615192 2.38788 5.268 38 31 21
2.40205 -1.08768 5.09104 113 103 91
3.57 -3.32819 4.60158 100 94 82
3.55228 -3.27078 4.98189 89 81 70
1.04886 2.70512 3.21268 114 104 92
0.816582 2.06254 5.29752 114 108 96
4.37836 -4.96702 4.85772 75 75 65
3.5217 -2.94765 4.68172 110 86 62
0.446792 2.77604 5.32648 122 108 95
1.09169 1.58849 5.2863 122 116 104
1.184 1.44819 5.26811 121 113 102
0.369163 2.9553 5.3181 114 108 96
3.96219 -3.97259 4.94412 83 71 57
2.62696 -1.11871 5.08365 89 85 76
2.62696 -1.11871 5.08365 89 85 76
1.22524 1.42879 5.23342 113 107 93
1.20988 1.42384 5.29271 115 109 95
1.20988 1.42384 5.29271 115 109 95
0.454633 2.81135 5.33009 115 107 94
1.38615e+06 1.04839e+06 -5.63319e+06 112 108 97
0.916974 2.00175 5.27884 125 112 103
1.27039 1.38105 5.22091 112 93 78
1.21171 1.48205 5.24753 116 105 87
0.94193 1.93645 5.33564 118 112 100
1.21052 1.46516 5.30707 141 108 73
1.21052 1.46516 5.30707 141 108 73
4.35097 -4.62191 4.92312 69 71 60
3.8993 -3.65741 5.00363 78 75 68
1.25798 1.43437 5.23747 126 91 61
1.23131 1.48474 5.24838 120 94 71
1.18532 1.58445 5.24484 98 80 66
0.874637 2.11732 5.36585 128 98 70
1.29578 1.44109 5.2295 89 86 77
1.27128 1.48959 5.25338 0 0 0
1.31315 1.39428 5.29788 0 0 0
1.2872 1.44161 5.31255 0 0 0
4.57207 -4.70436 4.9927 0 0 0
1.38049 1.35577 5.19624 0 0 0
1.39313 1.32606 5.2959 0 0 0
1.33007 1.4587 5.32437 0 0 0
1.30723 1.4999 5.33874 0 0 0
-6.59639e+08 -1.64305e+08 1.26637e+09 0 0 0
1.76319 1.63301 3.92777 0 0 0
1.32034 1.50386 5.33884 0 0 0
1.41005 1.49748 5.25283 0 0 0
1.36894 1.51199 5.36509 0 0 0
1.47784 1.35209 5.31513 0 0 0
1.51202 1.3905 5.3474 0 0 0
1.24017 1.88514 5.36801 0 0 0
-7.51805e+06 -2.51906e+06 2.02442e+07 0 0 0
-1.76093e+07 -6.19488e+06 4.7518e+07 0 0 0
1.54001 1.49784 5.29733 0 0 0
1.53257 1.44169 5.39617 0 0 0
729104 303660 -1.88106e+06 0 0 0
1.55193 1.4772 5.57781 0 0 0
1.55591 1.47558 5.58959 0 0 0
1.55882 1.47411 5.59955 0 0 0
1.59772 1.49901 5.50435 0 0 0
1.60827 1.48443 5.51466 0 0 0
1.56602 1.55203 5.51412 0 0 0
1.3491 2.05672 5.36767 0 0 0
1.3491 2.05672 5.36767 0 0 0
1.42401 1.76449 5.56678 0 0 0
1.57981 1.46892 5.66115 0 0 0
1.57981 1.46892 5.66115 0 0 0
1.40641 1.75879 5.62852 0 0 0
1.38455 1.58249 5.89373 0 0 0
1.58353 1.46885 5.66913 0 0 0
-50.5089 -34.1485 140.375 0 0 0
1.58827 1.46881 5.67631 0 0 0
1.58827 1.46881 5.67631 0 0 0
1.88167 1.12706 5.5541 0 0 0
1.33747 2.25477 5.21094 0 0 0
1.72763e+07 1.59931e+07 -5.20333e+07 0 0 0
2.04904 2.35366 3.74925 0 0 0
1.02837 2.70679 5.31264 0 0 0
1.74791 1.3228 5.6889 0 0 0
1.41699 2.24442 5.18941 0 0 0
1.69828 1.40634 5.6743 0 0 0
1.754 1.33746 5.63706 0 0 0
1.2604 2.4491 5.24107 0 0 0
1.7765 1.31437 5.6382 0 0 0
1.36436 1.65939 6.03538 0 0 0
0.970736 2.86247 5.34073 0 0 0
1.25381 2.46813 5.27336 0 0 0
1.86485 1.23623 5.65226 0 0 0
1.03965 2.76212 5.32767 0 0 0
1.44889 1.68309 5.90865 0 0 0
1.55959 1.60235 5.81977 0 0 0
2.09772 1.00954 5.6084 0 0 0
1.17146 2.60331 5.30623 0 0 0
1.52025 1.93976 5.53382 0 0 0
1.52025 1.93976 5.53382 0 0 0
1.5276 1.87228 5.61771 0 0 0
1.66366 1.55894 5.78078 0 0 0
1.61069 1.62329 5.79508 0 0 0
2.09321 2.17836 4.3788 0 0 0
1.54109 1.90925 5.57369 0 0 0
1.53858 1.96796 5.5006 0 0 0
1.16884 2.6539 5.32002 0 0 0
1.63853 1.62807 5.7592 0 0 0
1.56961 1.90967 5.57605 0 0 0
1.82122 1.44961 5.72405 0 0 0
1.8265 1.44507 5.7211 0 0 0
1.51406 1.79495 5.81718 0 0 0
1.17223 2.68291 5.33637 0 0 0
1.618 1.77339 5.70103 0 0 0
1.01045 2.90755 5.36153 0 0 0
1.88671 1.40343 5.70454 0 0 0
1.89151 1.39218 5.71111 0 0 0
1.92439 1.34599 5.72203 0 0 0
1.37347 2.41438 5.35019 0 0 0
1.66049 1.77155 5.67434 0 0 0
1.13169 2.77315 5.35308 0 0 0
1.91619 1.40278 5.70779 0 0 0
1.63103 1.90281 5.59069 0 0 0
1.08231 2.86889 5.36414 0 0 0
1.23858 2.65912 5.35233 0 0 0
1.28252 2.60188 5.35608 0 0 0
1.05205 2.94547 5.38455 0 0 0
0.431763 2.32584 3.8915 156 155 150
1.14894 -4.43743 4.22263 112 105 97
2.59175 -1.83435 4.00692 0 0 0
1.57403 2.28705 2.16832 0 0 0
-1.15067e+09 4.04117e+08 2.63417e+09 70 67 58
0.842967 2.51484 3.67701 174 171 164
0.367209 -1.93667 1.99079 80 79 74
1.09247 -4.58265 4.25368 74 75 69
1.89256 2.90785 3.90015 164 164 156
1.89256 2.90785 3.90015 164 164 156
0.7028 -2.17542 2.39576 30 32 27
1.68925 -2.84086 4.48668 111 113 102
0.729834 -2.18979 2.42797 28 30 25
2.68069 -2.27303 4.26753 0 0 0
2.34627 2.61851 3.13662 0 0 0
2.31694 -3.04283 3.45963 0 0 0
2.13294e+10 4.027e+09 -3.78207e+10 215 216 211
4.03455 -1.40929 -7.02314 33 35 34
2.32478e+09 2.06038e+09 -4.43658e+09 43 45 42
1.56727 2.45267 3.19109 0 0 0
2.16739 2.64261 3.33315 0 0 0
2.38752 2.10624 3.61849 0 0 0
-2.04105 0.82565 4.6593 189 185 174
-1.99285 0.497225 4.63471 202 199 190
-1.80881 1.36341 4.73951 206 203 194
-1.7134 1.48277 4.77526 181 189 174
-1.69878 0.948278 4.72807 178 175 166
-1.34043 -2.28441 3.4732 197 192 189
-0.414118 -2.33977 4.49376 202 199 194
-0.486832 -3.24329 3.93331 123 128 124
-0.347075 -2.74886 4.45332 95 101 99
-0.751722 -2.11856 3.62236 172 158 155
-0.188212 -4.43468 4.1147 34 36 23
0.55704 -10.1578 3.61057 66 65 63
0.137381 -7.04608 3.74973 87 89 84
0.188983 -7.26376 3.72247 35 36 28
-0.847315 2.40691 4.93867 122 124 123
-0.666096 2.29031 5.37306 34 36 33
0.672135 -4.67931 5.42366 56 55 53
-0.111074 -2.02194 4.49111 211 210 205
-0.783091 2.67963 5.13264 25 26 20
0.189756 -2.91212 4.78421 95 97 86
-0.317654 -0.377174 4.7109 69 66 49
-0.53944 1.16868 4.86492 42 45 38
0.31199 -2.76698 4.78828 189 186 179
-0.354415 1.04639 4.9625 23 23 15
0.91401 -1.66147 4.60557 208 208 200
0.884355 -1.50669 4.64671 197 197 189
1.42528 -1.97357 4.62073 200 199 195
6.78496 -11.4512 4.16761 93 94 88
6.7192 -11.2796 4.17996 81 82 76
6.42725 -10.4937 4.21586 74 75 67
4.12332 -5.46718 4.1735 84 84 74
5.30531 -7.52689 4.23438 106 106 98
5.49108 -5.96566 4.63362 69 66 59
0.0991908 1.03797 9.55797 0 0 0
1.01638 2.82016 5.10361 0 0 0
1.12871 2.99167 5.01408 0 0 0
1.12767 2.99661 5.01407 0 0 0
1.12767 2.99661 5.01407 0 0 0
1.80853 8.25847 -2.06188 0 0 0
3.70975 9.32055 -5.87007 0 0 0
2.45165 8.50981 -2.99112 0 0 0
1.42704 2.789 4.96318 0 0 0
1.46645 2.78712 4.94642 0 0 0
2.68131 8.28399 -2.49507 0 0 0
7.14352e+09 2.11701e+08 -3.24963e+09 83 79 67
1.55757 -0.729424 2.43984 159 169 181
1.54985 -0.703835 2.46161 164 172 183
1.36697 -0.33963 2.64546 167 177 189
1.42586 -0.460636 2.60534 168 176 189
1.52969 -0.537553 2.70278 174 180 192
7.93489e+09 4.01694e+08 -3.66904e+09 56 55 50
4.58882e+09 4.97716e+08 -2.12048e+09 72 75 64
-0.470201 1.52427 4.08161 79 79 69
2.80483 2.64315 3.01584 77 74 65
1.81595 -1.2024 2.4963 23 27 13
1.49362e+10 -1.10724e+08 -7.25057e+09 194 194 186
3.36379e+09 8.02922e+08 -1.51493e+09 112 112 104
1.0344e+10 -8.08696e+07 -5.04982e+09 194 194 186
4.49427e+08 1.16267e+08 -2.02708e+08 115 116 111
-0.425294 1.46501 4.09449 98 94 85
1.03624e+10 2.78674e+08 -5.07073e+09 197 197 187
9.38765e+08 2.37372e+08 -4.31922e+08 99 95 83
1.97486 -1.53433 2.40635 16 15 10
4.51866e+09 5.59865e+08 -2.16284e+09 93 95 94
-0.910078 1.89841 4.42107 121 123 120
7.97071e+09 1.38456e+09 -3.77861e+09 128 130 125
2.50633 -0.174466 2.65142 17 23 11
2.02839 -1.64427 2.38835 36 36 26
6.19895 3.74396 1.78122 128 129 121
2.63932e+09 7.16585e+08 -1.23522e+09 128 129 121
-0.307648 1.33125 4.07409 105 99 87
-0.328905 1.4204 4.10573 124 121 116
4.3742e+09 5.96864e+08 -2.13728e+09 115 117 116
0.0177512 0.964791 3.87684 108 101 91
5.64978 4.84272 2.20121 117 118 110
0.0236349 0.910423 3.87469 114 116 105
1.9644 -1.57023 2.49364 21 20 15
1.63778e+10 1.10688e+09 -8.45172e+09 181 180 176
8.07536e+09 5.27115e+08 -4.22282e+09 187 188 183
0.93922 0.696947 3.6301 190 186 183
0.6902 0.367055 3.70968 190 186 183
7.92923e+09 4.92939e+08 -4.26194e+09 192 192 190
0.920698 -2.17954 3.2801 25 31 29
-0.0554094 -0.883296 4.03939 135 112 106
5.39412e+09 3.21627e+08 -2.96796e+09 197 196 192
-1.94014 2.26152 5.4824 208 209 203
-1.94014 2.26152 5.4824 208 209 203
1.28557 -4.05559 2.98895 11 14 7
1.4823 -2.81469 3.03653 11 14 7
-14.4316 3.8927 12.6074 215 215 207
-14.4316 3.8927 12.6074 215 215 207
0.124912 -1.37608 3.9919 203 204 198
0.219637 -1.39871 3.9539 191 186 182
0.818158 -0.407107 3.71805 47 43 42
0.328533 -1.60543 3.87928 44 40 41
1.16004 -2.8666 3.2997 32 31 27
1.6573 -3.20328 3.02047 4 9 5
0.0382842 -0.919882 4.173 183 180 175
1.19772 -0.546271 3.55633 49 42 34
5.34478e+09 -2.89568e+07 -3.21987e+09 198 195 186
2.29491e+10 2.03847e+08 -1.38057e+10 217 214 205
8.0872e+09 2.72166e+08 -4.87462e+09 213 213 205
-1.37896 0.771084 5.2283 205 208 215
3.0459e+09 -1.32772e+08 -1.86011e+09 171 172 167
-0.490169 -0.00119193 4.6673 184 187 180
6.11118e+09 4.65753e+08 -3.73582e+09 136 138 137
0.276802 -1.1532 4.16121 207 206 201
-0.718686 0.268193 4.85614 197 202 196
3.97243e+09 -6.07504e+07 -2.46023e+09 149 150 142
0.989003 -2.4665 3.68286 47 46 28
1.09213e+10 6.68262e+06 -6.77775e+09 213 213 203
4.13385e+09 3.97621e+08 -2.56121e+09 191 190 186
