ply
format ascii 1.0 
element vertex 882
property float32 x 
property float32 y 
property float32 z
property uchar red  
property uchar green
property uchar blue
element face 0
property list uchar int vertex_indices
end_header
-1.6658 1.07505 2.53272 200 200 190
-1.65701 1.05661 2.54439 105 100 94
-1.66802 0.859859 2.57935 197 198 192
-1.66786 0.815616 2.59085 87 88 74
-1.64659 0.921836 2.57246 180 177 170
-1.65246 0.832944 2.58339 110 106 95
-1.63423 1.01678 2.57853 188 179 172
-1.64706 0.776111 2.62909 140 142 139
-1.71171 -0.258777 2.7774 108 109 104
-1.5948 0.999172 2.59545 129 128 126
-1.70758 -0.43177 2.80141 223 227 239
-1.58931 0.924024 2.60871 114 114 104
-1.57659 1.06817 2.59588 99 98 94
-1.62515 0.728622 2.68363 213 209 206
-1.56989 1.05979 2.60121 110 111 105
-1.69202 -0.391191 2.82234 108 113 109
-1.6833 -0.294717 2.81328 120 122 121
-1.67636 -0.571621 2.80249 220 226 238
-1.65612 0.0954757 2.77097 119 121 107
-1.65612 0.0954757 2.77097 119 121 107
-1.68182 -0.430884 2.82152 218 228 238
-1.66514 -0.206959 2.79394 17 20 13
-1.60611 0.732141 2.71459 216 216 216
-1.60847 0.619113 2.72293 245 246 241
-1.56021 0.835459 2.64422 50 46 43
-1.56021 0.835459 2.64422 50 46 43
-1.544 1.07351 2.62521 130 129 125
-1.64108 -0.129963 2.80538 58 60 55
-1.54464 0.906987 2.64127 210 210 208
-1.63651 -0.17734 2.80461 33 33 31
-1.63339 -0.222019 2.80023 47 49 44
-1.54997 0.82773 2.663 30 30 28
-1.62531 -0.204111 2.79658 32 32 30
-1.54192 0.835445 2.65554 30 35 28
-1.62609 -0.220812 2.80678 43 43 41
-1.60556 0.210544 2.79136 107 103 92
-1.61727 0.00379366 2.81138 187 190 183
-1.58369 0.540183 2.76242 214 214 206
-1.62212 -0.379205 2.8263 109 113 112
-1.57144 0.722778 2.73978 216 215 211
-1.62104 -0.495358 2.82727 219 225 237
-1.61358 -0.359308 2.82874 112 112 112
-1.52251 0.827708 2.67993 32 39 31
-1.52251 0.827708 2.67993 32 39 31
-1.60629 -0.346309 2.83145 145 147 146
-1.60629 -0.346309 2.83145 145 147 146
-1.60126 -0.157744 2.82762 29 29 27
-1.60126 -0.157744 2.82762 29 29 27
-1.6009 -0.303335 2.82965 132 136 137
-1.6009 -0.303335 2.82965 132 136 137
-1.6014 -0.333061 2.83024 141 143 142
-1.50697 0.827278 2.6915 48 50 47
-1.4629 -0.163193 2.61398 11 12 7
-1.54025 -0.135118 2.7635 9 11 6
-1.54025 -0.135118 2.7635 9 11 6
-1.58288 -0.332935 2.84463 144 145 147
-1.54219 0.542188 2.78993 225 229 214
-1.57363 -0.350176 2.84737 148 150 149
-1.46946 1.06698 2.6632 152 153 155
-1.48163 0.839307 2.68841 213 214 209
-1.56701 -0.163513 2.84602 25 25 25
-1.57143 -0.500896 2.86146 219 225 237
-1.55846 0.0244763 2.83959 210 210 208
-1.55191 -0.175259 2.80464 29 29 27
-1.606 -0.15298 2.92848 25 27 24
-1.50845 0.731427 2.76323 211 206 202
-1.45567 1.02053 2.68017 164 165 167
-1.54479 -0.238544 2.84951 44 46 43
-1.52429 0.305648 2.81968 220 220 218
-1.44221 1.0486 2.68398 178 180 179
-1.53957 -0.177099 2.86688 34 34 34
-1.53658 -0.148721 2.86498 22 25 18
-1.45162 0.846138 2.70673 113 111 99
-1.44916 0.838583 2.71019 131 131 123
-1.52885 -0.216479 2.86588 44 44 42
-1.52327 -0.0478751 2.87078 130 134 133
-1.52611 -0.494943 2.87956 216 224 235
-1.43179 0.202602 2.70719 157 159 158
-1.52524 -0.409918 2.88612 104 106 105
-1.50377 0.213582 2.84626 160 162 161
-1.42904 0.834797 2.72412 213 214 209
-1.5169 -0.473863 2.89095 217 223 235
-1.41005 0.841471 2.73155 124 124 122
-1.43703 0.768055 2.7879 204 205 199
-1.43573 0.766712 2.78292 204 205 199
-1.45199 0.657273 2.81458 219 218 214
-1.45194 0.714282 2.81574 162 162 154
-1.46075 0.471908 2.83668 219 220 215
-1.45086 0.615461 2.82049 220 221 216
-1.45114 0.603542 2.82332 224 225 220
-1.47823 0.0140432 2.88818 199 199 199
-1.49419 -0.26707 2.92021 98 106 109
-1.49419 -0.26707 2.92021 98 106 109
-1.50061 -0.414076 2.93798 163 163 163
-1.39539 0.891075 2.73462 213 208 204
-1.39877 0.832463 2.75676 211 212 206
-1.37018 0.839466 2.75527 210 211 205
-1.45384 -0.21187 3.00451 48 47 43
-1.41221 0.543694 2.92702 205 204 202
-1.41093 0.54213 2.92776 208 207 205
-1.44466 -0.407794 3.03363 206 207 202
-1.43594 -0.39468 3.03768 204 205 200
-1.33929 -0.400558 3.08988 206 203 196
-1.32954 -0.435462 3.09406 131 123 112
-1.3284 -0.395007 3.09667 209 208 204
-1.23497 -0.403176 3.15165 210 207 200
-1.20062 -0.424284 3.16719 211 211 203
-1.18394 -0.101537 3.14176 20 22 17
-1.17948 -0.423717 3.18653 208 209 203
-1.16417 -0.402706 3.19075 200 197 190
-1.16417 -0.402706 3.19075 200 197 190
-1.16318 -0.440873 3.19366 209 208 203
-1.15472 -0.474225 3.18417 205 202 195
-1.15452 -0.38774 3.19328 204 201 196
-1.13249 -0.191541 3.21685 28 30 27
-1.09213 -0.671956 3.27982 208 209 204
-1.06166 -0.0109024 3.20309 165 165 165
-1.07216 -0.42321 3.24591 209 208 204
-1.03603 0.531518 3.1457 221 222 224
-1.0296 0.740479 3.12858 27 27 19
-1.07563 -0.737143 3.285 207 204 197
-1.05693 -0.210603 3.2333 58 60 59
-1.15527 -1.82892 3.53739 13 16 7
-1.04662 0.0100724 3.21984 185 185 185
-1.04213 -0.47249 3.24688 211 210 205
-1.03631 -0.220088 3.24531 40 42 39
-1.04092 -0.385622 3.26644 199 201 198
-1.0333 -0.48141 3.25128 212 211 206
-1.02974 -0.211918 3.2616 34 34 34
-1.02682 -0.230958 3.25332 40 42 39
-1.03096 -0.402895 3.27752 207 208 203
-1.02678 -0.354889 3.26919 149 151 148
-1.02527 -0.422948 3.26748 211 210 206
-1.01392 -0.16158 3.24524 22 24 19
-1.00382 -0.0337184 3.23917 147 147 147
-1.0121 -0.401529 3.28483 207 208 203
-1.02046 -0.623339 3.31639 212 213 208
-1.0115 -0.630956 3.30682 214 213 208
-0.990642 -0.0353069 3.24995 145 145 145
-0.990642 -0.0353069 3.24995 145 145 145
-0.997837 -0.471885 3.27433 212 211 207
-0.963332 0.704939 3.16432 18 19 11
-0.997866 -0.572535 3.29856 207 212 208
-0.99304 -0.587517 3.30042 219 218 213
-0.97716 -0.0202561 3.24956 153 153 153
-1.01203 -1.52087 3.36999 123 124 119
-1.01455 -1.5097 3.38144 91 90 86
-0.981145 -0.52003 3.27876 202 199 194
-0.949126 0.729229 3.1755 13 18 12
-0.998223 -1.54071 3.38385 20 20 18
-0.825093 -1.68421 3.23543 1 13 9
-0.72534 0.233724 2.84529 174 176 171
-0.806112 0.261154 3.16549 174 176 171
-0.824969 -1.65379 3.24979 63 78 75
-0.819297 -1.66284 3.24503 152 140 140
-0.739916 0.417142 2.98074 99 102 93
-0.729529 0.63194 2.95785 11 16 9
-0.724217 0.736003 2.91993 38 38 26
-0.717489 0.850137 2.93121 37 37 25
-0.716734 0.814415 2.94056 38 38 26
-0.708837 1.03366 2.91238 13 16 7
-0.707058 1.07203 2.90748 17 20 13
-0.702996 1.06855 2.9118 14 17 10
-0.698219 0.830151 2.92583 31 32 18
-0.716897 0.243336 3.07904 178 177 172
-0.687977 0.380919 3.01625 226 228 225
-0.687977 0.380919 3.01625 226 228 225
-0.668704 0.845039 2.96688 37 38 24
-0.646756 0.972061 2.96023 50 50 38
-0.646153 0.970372 2.94147 50 50 38
-0.649824 0.304318 3.01517 188 190 187
-0.64248 0.412373 3.03998 231 232 227
-0.59528 0.752242 3.02833 19 22 13
-0.59528 0.752242 3.02833 19 22 13
-0.583566 0.487895 3.06732 220 221 216
-0.635262 -1.50306 3.34085 17 17 7
-0.64308 -1.8677 3.41408 21 22 16
-0.620965 -1.51549 3.33499 59 58 53
-0.549253 0.391412 3.07139 227 228 222
-0.604373 -1.79814 3.41778 58 60 49
-0.539302 0.476909 3.1004 219 220 215
-0.522498 1.09353 3.01867 13 16 9
-0.574642 -1.49203 3.33863 164 160 149
-0.588808 -1.83288 3.43169 52 48 37
-0.533433 0.397081 3.07959 209 208 203
-0.512558 0.489273 3.11263 220 219 214
-0.512558 0.489273 3.11263 220 219 214
-0.541042 -1.91942 3.48263 44 46 35
-0.474388 0.5185 3.14257 192 196 199
-0.477909 0.245347 3.21009 162 159 150
-0.477909 0.245347 3.21009 162 159 150
-0.513375 -1.85172 3.48457 50 46 37
-0.451972 0.88935 3.09554 18 19 13
-0.451972 0.88935 3.09554 18 19 13
-0.500861 -1.90956 3.50214 62 55 45
-0.496712 -1.80021 3.48641 41 35 23
-0.444352 0.49427 3.15918 152 153 147
-0.488542 -1.85265 3.50188 70 66 54
-0.485658 -1.77345 3.48937 63 57 43
-0.386664 0.621963 3.18002 128 129 131
-0.386837 0.513618 3.19194 171 172 167
-0.376444 0.717353 3.17087 109 117 120
-0.379854 0.518085 3.1745 160 161 156
-0.414745 -1.67032 3.49654 25 26 20
-0.365771 0.48389 3.21045 156 157 151
-0.365771 0.48389 3.21045 156 157 151
-0.359547 0.474589 3.20975 42 35 29
-0.402129 -1.98334 3.75509 72 49 41
-0.336001 -2.04785 3.74685 126 131 135
-0.337141 -2.03802 3.72743 126 131 135
-0.275626 -2.03126 3.83036 88 88 80
-0.280509 -1.74677 3.92413 26 23 14
-0.280509 -1.74677 3.92413 26 23 14
-0.27918 -1.7748 3.92729 68 66 54
-0.27631 -1.70069 3.91988 105 103 91
-0.27631 -1.70069 3.91988 105 103 91
-0.273079 -1.75652 3.92583 101 101 91
-0.26969 -1.67835 3.9223 70 67 60
-0.262075 -1.65265 3.92022 63 66 59
-0.26323 -1.74774 3.93356 53 52 47
-0.236877 -1.71953 3.94877 77 74 67
-0.225789 -1.77897 3.967 71 73 62
-0.223343 -1.79988 3.9678 67 66 61
-0.22039 -1.7603 3.96459 62 65 56
-0.22028 -1.74383 3.96244 75 74 69
-0.215465 -2.04365 3.88479 100 96 85
-0.211944 -1.83187 3.9763 66 66 56
-0.205401 -1.65241 3.95757 73 69 60
-0.205323 -1.65296 3.95832 73 69 60
-0.182046 -2.08289 3.90003 104 100 91
-0.120824 -2.08434 3.93723 120 116 107
-0.114722 -2.14491 3.90757 118 111 101
-0.0995921 -1.62798 4.01866 25 24 20
-0.0908934 -2.11152 3.94173 114 110 101
-0.0912604 -1.86741 4.04781 56 55 50
-0.087399 -2.13877 3.91303 118 109 100
-0.087399 -2.13877 3.91303 118 109 100
-0.051279 -1.47512 4.06733 169 162 152
0.0103796 -1.50067 4.07945 161 157 146
0.0313383 -2.07629 4.0323 82 81 77
0.0384459 -1.36629 4.07692 112 108 99
0.0378365 -1.83382 4.13583 139 135 124
0.0378365 -1.83382 4.13583 139 135 124
0.0374975 -1.43402 4.05824 130 127 118
0.0388711 -2.04209 4.02874 79 75 72
0.0429773 -1.44215 4.0581 124 120 111
0.0567881 -2.11747 4.0324 69 70 65
0.0573107 -2.18857 3.98877 76 77 72
0.0603409 -1.81183 4.14744 149 142 134
0.0596474 -1.81026 4.14233 149 142 134
0.0599766 -1.836 4.1461 129 125 116
0.0599766 -1.836 4.1461 129 125 116
0.0612096 -1.47052 4.07222 104 94 84
0.0642913 -1.755 4.14036 134 130 121
0.0656517 -1.74408 4.14591 134 135 127
0.0866124 -1.82648 4.16387 123 114 105
0.0857849 -2.04692 4.06605 69 55 52
0.0890517 -1.79165 4.16014 141 132 123
0.0911537 -1.40577 4.08756 140 141 135
0.0945899 -2.19035 4.0127 69 70 65
0.10181 -1.69012 4.16037 94 96 91
0.105772 -1.91386 4.19801 99 99 91
0.107509 -1.70961 4.1668 112 113 108
0.107929 -1.76021 4.16829 95 98 91
0.107929 -1.76021 4.16829 95 98 91
0.107069 -2.04635 4.07409 100 87 81
0.117278 -2.04376 4.08189 148 141 131
0.118562 -2.14474 4.04172 70 71 66
0.120242 -2.15071 4.05206 70 71 66
0.144216 -2.04568 4.09804 125 126 118
0.149879 -1.82104 4.19244 112 112 104
0.154207 -1.48293 4.12382 108 111 104
0.157716 -1.41869 4.1349 126 125 120
0.158618 -1.51353 4.11438 113 115 110
0.164334 -1.53026 4.12188 99 101 96
0.166062 -2.04791 4.11298 103 102 97
0.181237 -1.53507 4.12197 122 123 117
0.198334 -2.05111 4.13719 108 107 102
0.227815 -1.47883 4.23138 99 98 93
0.224855 -1.47355 4.21437 99 98 93
0.230695 -1.87572 4.24495 109 111 106
0.225745 -2.12073 4.14038 93 82 76
0.235267 -1.85636 4.25636 107 106 102
0.257179 -2.1516 4.13672 48 53 49
0.270866 -1.47412 4.24798 118 117 112
0.268289 -2.04719 4.17532 108 108 100
0.269123 -2.12397 4.17054 100 100 92
0.285578 -2.07732 4.18399 108 109 104
0.296791 -1.88842 4.30685 128 129 123
0.318924 -1.74659 4.30214 106 107 101
0.323785 -1.81208 4.31327 97 98 92
0.329731 -1.79453 4.30948 114 117 108
0.332588 -1.77819 4.3111 135 135 125
0.345078 -1.72243 4.31985 102 101 97
0.345569 -2.05286 4.23084 85 85 75
0.358172 -1.60969 4.31631 105 106 100
0.363701 -1.72307 4.32806 112 113 107
0.365593 -1.74233 4.33606 105 106 100
0.365313 -1.5843 4.3034 113 114 106
0.364314 -1.64548 4.3088 123 124 118
0.376816 -1.70398 4.33676 137 138 132
0.383368 -1.84283 4.35267 100 101 95
0.400166 -1.65623 4.34631 104 103 98
0.396435 -1.5376 4.3021 104 106 101
0.407105 -1.7579 4.35826 119 120 114
0.417143 -2.1572 4.23816 108 108 100
0.431793 -2.08374 4.28342 101 101 93
0.431793 -2.08374 4.28342 101 101 93
0.442369 -2.05314 4.2853 80 77 68
0.44634 -2.05115 4.28987 93 93 81
0.472649 -2.05223 4.30498 107 97 85
0.483438 -1.0802 4.31769 123 117 105
0.484029 -2.07235 4.30756 111 103 90
0.50137 -1.85061 4.42957 114 107 97
0.500321 -1.81732 4.41619 115 107 96
0.502449 -1.79593 4.42431 124 115 106
0.504581 -1.74288 4.41324 118 110 99
0.500026 -2.04825 4.35546 110 101 92
0.514855 -0.470135 4.46411 131 122 113
0.500233 -2.05696 4.32362 101 97 85
0.518319 -1.84753 4.4332 105 98 88
0.519468 -1.79688 4.43088 97 87 78
0.523568 -0.489194 4.46811 128 120 109
0.535 -2.57785 4.53023 86 83 74
0.546049 -1.47647 4.41995 117 111 99
0.558529 -2.59095 4.53263 94 92 80
0.53636 -2.05707 4.34489 108 102 90
0.550178 -1.64222 4.43607 115 109 97
0.547371 -1.63905 4.42388 115 109 97
0.547371 -1.63905 4.42388 115 109 97
0.595224 -1.45899 4.4501 124 116 105
0.57445 0.919578 4.30323 99 99 91
0.619179 -2.5817 4.58493 78 78 68
0.619179 -2.5817 4.58493 78 78 68
0.585625 -2.20894 4.26244 104 100 88
0.629647 -1.54143 4.48318 111 104 94
0.615273 -0.457433 4.32219 100 96 87
0.643825 -1.80582 4.49652 117 113 101
0.615993 -0.523821 4.29931 85 86 81
0.616784 -2.14031 4.30535 100 98 86
0.619845 -2.06489 4.32437 111 107 96
0.650389 -1.94215 4.46417 0 0 0
0.662661 -1.06593 4.42491 0 0 0
0.699934 -2.58626 4.62761 0 0 0
0.685002 -1.58709 4.45775 0 0 0
0.681346 -1.59596 4.41295 0 0 0
0.684303 -0.989223 4.41331 0 0 0
0.71761 -2.59724 4.62586 0 0 0
0.692677 -1.69305 4.44242 0 0 0
0.693527 -0.779465 4.4155 0 0 0
0.697585 -1.5475 4.44685 0 0 0
0.73641 -2.58885 4.64915 0 0 0
0.73641 -2.58885 4.64915 0 0 0
0.715724 -0.806565 4.41471 0 0 0
0.710138 -0.530814 4.34909 0 0 0
0.717612 -0.612981 4.36671 0 0 0
0.737498 -1.52734 4.46754 0 0 0
0.691038 0.90695 4.18759 0 0 0
0.742461 -1.54851 4.47143 0 0 0
0.768235 -2.59364 4.61667 0 0 0
0.697844 0.896256 4.19178 0 0 0
0.751396 -1.53132 4.47628 0 0 0
0.72284 0.183012 4.31165 0 0 0
0.724714 0.0663968 4.30798 0 0 0
0.732566 -0.00649523 4.33089 0 0 0
0.757501 -1.48405 4.45283 0 0 0
0.749041 -1.81321 4.39108 0 0 0
0.735202 0.265494 4.28963 0 0 0
0.735974 0.515805 4.26477 0 0 0
0.768969 -1.49979 4.43027 0 0 0
0.739437 0.645779 4.25449 0 0 0
0.736514 -2.21834 4.22479 0 0 0
0.744471 -2.20959 4.24154 0 0 0
0.745556 0.7957 4.24328 0 0 0
0.747765 0.771497 4.24818 0 0 0
0.771228 -2.0782 4.30929 0 0 0
0.795832 -1.9778 4.39971 0 0 0
0.855439 -1.4295 4.39162 0 0 0
0.844647 -2.09197 4.20709 0 0 0
0.869879 -2.01709 4.28363 0 0 0
0.885509 -1.94823 4.35094 0 0 0
0.855366 -2.11687 4.19987 0 0 0
0.88544 -1.88292 4.34502 0 0 0
0.848828 -2.18838 4.16383 0 0 0
0.893064 -1.96222 4.32108 0 0 0
0.881312 -2.0944 4.23237 0 0 0
0.893519 -1.55969 4.25259 0 0 0
0.879346 1.15331 4.11189 0 0 0
0.937484 -1.49199 4.31208 0 0 0
0.98201 -1.98081 4.41712 0 0 0
1.05185 -2.61197 4.5792 0 0 0
0.953956 0.349753 4.04847 0 0 0
0.959893 0.405877 4.04284 0 0 0
0.968043 0.394957 4.04166 0 0 0
1.03067 -2.16299 4.3073 0 0 0
0.991596 0.42539 4.10473 0 0 0
1.07254 -1.93061 4.46427 0 0 0
0.97496 0.882991 3.99987 0 0 0
1.13335 -2.62831 4.62434 0 0 0
1.07339 -2.09451 4.34871 0 0 0
0.980169 1.13734 3.96695 0 0 0
0.989328 0.863067 3.99818 0 0 0
1.01632 1.15606 4.02998 0 0 0
1.00211 0.930927 3.99299 0 0 0
1.17478 -2.6189 4.66877 0 0 0
1.13809 -1.92546 4.4974 0 0 0
1.11767 -2.09052 4.36706 0 0 0
1.1545 -2.10781 4.39283 0 0 0
1.0793 0.518176 4.10219 0 0 0
1.0793 0.518176 4.10219 0 0 0
1.11063 0.29006 4.2032 0 0 0
1.16078 -2.19445 4.35846 0 0 0
1.16078 -2.19445 4.35846 0 0 0
1.18672 -2.17261 4.41172 0 0 0
1.22304 -1.4484 4.51843 0 0 0
1.09039 -2.08147 4.01864 0 0 0
1.21417 -1.38576 4.47007 0 0 0
1.20896 -2.28395 4.41534 0 0 0
1.21886 -2.25091 4.37177 0 0 0
1.18831 1.14067 4.08735 0 0 0
1.22289 0.519256 4.19744 0 0 0
1.35393 0.523403 4.28361 0 0 0
1.61454 -0.0975552 4.90118 0 0 0
1.44787 0.896286 4.28723 0 0 0
1.45005 1.15053 4.25364 0 0 0
1.71433 -0.368128 4.99151 0 0 0
1.79504 -0.335285 5.03549 0 0 0
1.82005 -0.87669 5.1064 0 0 0
1.78898 0.203853 5.00207 0 0 0
1.78898 0.203853 5.00207 0 0 0
1.80461 -0.16327 5.02993 0 0 0
1.80461 -0.16327 5.02993 0 0 0
1.83848 -0.740246 5.10809 0 0 0
1.83335 -0.735537 5.09655 0 0 0
1.84795 -0.603806 5.07112 0 0 0
1.83902 -0.555238 5.04017 0 0 0
1.8447 -0.119618 5.04217 0 0 0
1.85227 -0.215486 5.0608 0 0 0
1.85081 -0.00366306 5.035 0 0 0
1.86259 -0.159054 5.06214 0 0 0
1.88771 -0.276193 5.06929 0 0 0
1.88232 -0.420384 5.05225 0 0 0
1.88946 -0.229389 5.05234 0 0 0
1.90596 -0.302727 5.03549 0 0 0
1.90889 -0.432567 5.04073 0 0 0
1.91578 -0.237947 5.01845 0 0 0
1.92046 -0.162718 5.03065 0 0 0
1.9733 -0.760273 5.15821 0 0 0
1.91251 0.559137 4.99356 0 0 0
1.92485 -0.114616 5.02488 0 0 0
1.90687 0.824298 4.97141 0 0 0
1.94054 -0.398356 5.05793 0 0 0
1.94453 -0.198642 5.06321 0 0 0
1.9291 0.0319957 5.01703 0 0 0
1.91156 0.856612 4.96509 0 0 0
1.91856 0.811347 4.97759 0 0 0
1.92205 0.255523 4.98333 0 0 0
1.94524 -0.244282 5.03725 0 0 0
1.92853 0.32907 4.99142 0 0 0
1.92887 0.171705 4.99132 0 0 0
1.93316 0.360704 4.98669 0 0 0
1.95773 -0.146395 5.04856 0 0 0
1.9326 0.692207 4.98102 0 0 0
1.93724 0.154004 4.99536 0 0 0
1.96908 -0.11023 5.04733 0 0 0
1.96426 -0.22549 5.03407 0 0 0
1.96426 -0.22549 5.03407 0 0 0
1.97926 -0.446081 5.06246 0 0 0
1.97575 -0.443026 5.05502 0 0 0
1.9102 1.1938 4.86633 0 0 0
1.97761 -0.207661 5.03573 0 0 0
1.97761 -0.207661 5.03573 0 0 0
1.94907 0.807609 4.95375 0 0 0
1.99436 -0.370837 5.06058 0 0 0
1.99436 -0.370837 5.06058 0 0 0
1.99713 -0.110869 5.06473 0 0 0
1.95147 0.766343 4.93567 0 0 0
1.93322 0.854998 4.88829 0 0 0
1.92946 0.869929 4.86656 0 0 0
1.93287 0.910243 4.87465 0 0 0
2.03861 0.944922 5.12461 0 0 0
1.92804 0.891995 4.84563 0 0 0
1.97241 0.733911 4.95286 0 0 0
2.0063 0.174226 5.04019 0 0 0
2.02232 -0.110239 5.07881 0 0 0
1.93115 1.17846 4.82572 0 0 0
2.04941 -0.10974 5.09165 0 0 0
1.93387 1.13405 4.80173 0 0 0
1.97881 0.843072 4.90128 0 0 0
2.10399 -0.624633 5.21643 0 0 0
1.95845 1.16264 4.81644 0 0 0
2.08633 -0.187689 5.10626 0 0 0
2.10052 -0.477662 5.1324 0 0 0
2.10006 0.490997 5.09049 0 0 0
2.11788 -0.197034 5.11913 0 0 0
2.08791 0.694512 5.03708 0 0 0
2.14532 -0.444116 5.15847 0 0 0
2.17154 -0.552317 5.21181 0 0 0
2.14939 0.195971 5.12078 0 0 0
2.18889 -0.484767 5.1922 0 0 0
2.1704 0.370944 5.12721 0 0 0
2.16047 0.42082 5.10623 0 0 0
2.14879 0.694656 5.06864 0 0 0
2.16972 0.590253 5.08948 0 0 0
2.20389 1.19168 4.96944 0 0 0
2.30153 0.936184 5.05863 0 0 0
2.72306 0.936892 5.61531 0 0 0
2.74524 0.939067 5.61469 0 0 0
2.74855 1.24099 5.56088 0 0 0
3.88852 -4.3824 7.86448 0 0 0
2.74869 1.18103 5.55742 0 0 0
2.74869 1.18103 5.55742 0 0 0
3.93275 -4.277 7.88955 0 0 0
3.95214 -4.37053 7.91186 0 0 0
3.94515 -4.37425 7.86542 0 0 0
4.02019 -3.79265 7.9073 0 0 0
4.00298 -4.37979 7.85718 0 0 0
3.98093 -4.42776 7.74348 0 0 0
3.98093 -4.42776 7.74348 0 0 0
4.10731 -4.35055 7.94116 0 0 0
4.08304 -3.58673 7.66953 0 0 0
4.08304 -3.58673 7.66953 0 0 0
4.11188 -3.28429 7.63917 0 0 0
4.09957 -3.03192 7.60737 0 0 0
4.13027 -3.60918 7.65123 0 0 0
4.12029 -3.17203 7.6046 0 0 0
4.12029 -3.17203 7.6046 0 0 0
4.22291 -3.40056 7.72932 0 0 0
4.2238 -3.52219 7.65487 0 0 0
3.49363 1.02837 6.24428 0 0 0
4.25125 -2.3997 7.55272 0 0 0
4.25583 -2.39694 7.53425 0 0 0
-1.6794 1.05871 2.57159 100 93 83
-1.55374 0.966121 2.44742 188 179 172
-1.72615 -0.475018 2.7916 220 226 238
-1.71618 -0.255831 2.78812 88 86 74
-1.60179 0.87236 2.62642 130 130 128
-1.60179 0.87236 2.62642 130 130 128
-1.70481 -0.182577 2.80108 108 112 115
-1.60195 0.797474 2.64931 200 195 192
-1.58436 1.07682 2.62136 118 119 113
-1.58214 1.06727 2.62158 110 111 105
-1.59568 0.801042 2.65414 205 204 199
-1.66754 0.0316549 2.79083 125 122 115
-1.67528 -0.564642 2.807 220 226 238
-1.57829 -0.471392 2.64897 222 226 238
-1.66301 0.039505 2.79253 122 122 112
-1.64683 0.272363 2.77501 212 212 210
-1.61974 0.621615 2.74202 245 246 241
-1.64089 -0.283659 2.80131 118 120 119
-1.61496 0.509116 2.75872 220 216 213
-1.64076 -0.139947 2.80697 87 87 85
-1.60736 0.517752 2.76147 216 213 208
-1.60736 0.517752 2.76147 216 213 208
-1.54268 -0.161558 2.66651 24 24 22
-1.59849 0.459426 2.77354 225 216 211
-1.5831 -0.173988 2.77377 30 32 29
-1.61018 0.0261204 2.82266 157 152 148
-1.61145 -0.358793 2.82593 112 112 112
-1.60263 -0.239759 2.8111 44 45 39
-1.60001 -0.0504798 2.8325 120 124 127
-1.5957 -0.495933 2.83439 218 224 236
-1.49552 1.07721 2.66343 145 143 146
-1.58832 -0.280874 2.83308 122 126 127
-1.65135 -0.723964 2.94631 215 221 233
-1.58448 -0.0492382 2.84037 127 133 133
-1.5748 -0.0946105 2.85083 12 17 11
-1.48106 0.838826 2.68764 213 214 209
-1.57009 -0.0507524 2.84932 131 133 132
-1.5629 -0.148843 2.84994 25 27 24
-1.52118 0.736799 2.77559 108 105 96
-1.47351 0.826139 2.71261 128 119 112
-1.56154 -0.0649566 2.90735 130 131 135
-1.54028 -0.203482 2.8696 44 46 45
-1.53805 -0.128877 2.86637 33 34 29
-1.51537 0.134184 2.85077 15 18 11
-1.44789 0.828533 2.72429 178 173 170
-1.52422 -0.0146716 2.8752 176 176 176
-1.50717 0.213173 2.84972 157 159 158
-1.50273 0.213226 2.84481 160 162 161
-1.46995 0.736939 2.80762 210 209 205
-1.48784 0.307501 2.8442 221 221 219
-1.42049 0.900296 2.71679 215 214 209
-1.3288 0.785256 2.5454 223 224 219
-1.50694 0.0596197 2.90851 221 221 219
-1.44762 0.752485 2.8053 214 213 208
-1.44704 -0.408037 3.03722 206 207 202
-1.31296 -0.366136 2.81275 207 208 203
-1.42154 -0.440486 3.04673 205 204 199
-1.30254 -0.0355179 2.80292 142 146 147
-1.36409 -0.406669 3.0789 202 198 189
-1.34862 -0.447274 3.08016 197 190 180
-1.35068 -0.404161 3.09175 201 201 193
-1.21353 -0.40831 2.81198 119 119 111
-1.31806 -0.447199 3.09358 155 157 156
-1.29934 -0.393729 3.11497 118 112 100
-1.28139 -0.474722 3.09664 212 211 207
-1.10978 -0.362116 2.83314 210 207 200
-1.20143 -0.472621 3.1393 210 207 200
-1.19715 -0.393529 3.17089 209 209 199
-1.05984 -0.392733 2.82699 207 204 197
-1.18782 -0.44109 3.16852 207 204 197
-1.08256 0.0176928 3.20058 194 194 194
-1.07549 0.0246982 3.20364 200 200 198
-1.06461 0.0678499 3.18745 218 218 216
-1.0761 -0.385046 3.2442 152 151 149
-0.939843 -0.000584242 2.86472 178 178 178
-1.05423 -0.000267039 3.21381 178 178 178
-1.04111 0.0927425 3.2095 226 226 224
-1.04036 -0.196586 3.25077 27 29 24
-0.891154 -0.216378 2.84014 40 42 37
-1.02581 -0.659002 3.28968 210 209 205
-1.00789 -0.470398 3.24652 211 210 206
-0.88441 -0.0296776 2.85531 147 147 147
-1.01411 -0.592067 3.27879 213 212 208
-1.00129 -0.470875 3.25081 213 209 206
-0.995421 -0.488559 3.25313 208 207 203
-0.925384 -0.470001 3.25994 212 211 207
-0.489153 -1.89194 3.44804 30 23 15
-0.461012 -1.89196 3.74936 27 27 19
-0.404482 -1.83629 3.85458 26 25 21
-0.404482 -1.83629 3.85458 26 25 21
-0.395387 -1.62142 3.83083 63 62 57
-0.385274 -1.96541 3.73733 231 223 220
-0.39615 -1.84124 3.85603 20 24 23
-0.365753 -2.0242 3.68264 35 31 30
-0.376289 -1.76455 3.8736 145 140 134
-0.374689 -1.73236 3.86104 66 58 55
-0.37427 -1.78856 3.86361 87 82 78
-0.359253 -1.80524 3.88121 56 59 52
-0.33916 -2.0545 3.69846 109 115 115
-0.33916 -2.0545 3.69846 109 115 115
-0.352977 -1.67198 3.86784 81 78 71
-0.324968 -1.70844 3.89395 56 63 56
-0.296301 -1.81356 3.92522 27 29 26
-0.284611 -2.0248 3.81304 90 91 83
-0.286227 -1.66692 3.9087 68 68 58
-0.286775 -1.71712 3.91629 74 74 64
-0.273445 -1.78431 3.92999 87 82 76
-0.268148 -1.8196 3.9327 87 84 77
-0.259769 -2.0326 3.82292 93 90 83
-0.26385 -1.67514 3.92894 62 65 58
-0.253614 -1.777 3.94605 56 56 54
-0.212692 -1.36023 3.31409 68 69 63
-0.237738 -1.68121 3.94403 58 51 45
-0.237479 -1.72639 3.95046 73 70 65
-0.235432 -1.82506 3.96399 72 68 57
-0.228742 -1.7488 3.95733 73 72 68
-0.215929 -1.68045 3.95855 71 72 66
-0.215985 -1.70515 3.96195 70 73 64
-0.211192 -1.29428 3.88645 203 202 197
-0.21305 -1.80197 3.97601 64 65 57
-0.195429 -2.07179 3.8707 99 97 85
-0.200165 -1.78397 3.97892 91 86 80
-0.13349 -2.06191 3.91033 120 113 103
-0.13349 -2.06191 3.91033 120 113 103
-0.127083 -2.08174 3.91495 122 115 107
-0.114028 -2.12951 3.88108 118 111 101
-0.109116 -2.03115 3.9282 120 111 102
-0.0895432 -1.83361 4.05823 19 19 11
-0.0790725 -2.03461 3.94638 120 116 107
-0.0555208 -2.03519 3.96486 114 110 99
-0.0534133 -1.48044 4.07872 169 162 152
-0.0427194 -2.10653 3.9594 115 111 102
-0.0170629 -1.27814 3.46945 165 158 148
-0.00102442 -2.05002 3.99287 103 98 94
0.00891175 -2.03713 4.00663 81 82 76
0.0150987 -1.72461 4.11613 160 153 143
0.0175883 -1.39435 4.07719 145 137 126
0.0175883 -1.39435 4.07719 145 137 126
0.0219574 -1.73188 4.11777 159 150 141
0.0417311 -1.68137 4.12436 154 149 143
0.0426214 -1.52776 4.04385 146 141 135
0.0489498 -1.76978 4.1398 148 148 140
0.0489498 -1.76978 4.1398 148 148 140
0.0602721 -1.47287 4.07804 104 94 84
0.0842847 -2.04055 4.0526 47 39 36
0.0931422 -2.14206 4.0241 75 77 72
0.0931422 -2.14206 4.0241 75 77 72
0.098254 -1.34861 4.10535 140 143 136
0.103272 -1.80085 4.17458 126 122 113
0.103272 -1.80085 4.17458 126 122 113
0.10317 -1.40912 4.1048 114 115 107
0.1062 -1.77373 4.17931 103 104 98
0.113417 -2.05135 4.06709 28 30 25
0.116692 -1.62574 4.15525 114 115 109
0.123232 -1.72916 4.18346 119 116 109
0.123232 -1.72916 4.18346 119 116 109
0.14357 -1.37168 4.13846 122 121 116
0.14357 -1.37168 4.13846 122 121 116
0.149204 -2.14074 4.05335 64 65 60
0.149204 -2.14074 4.05335 64 65 60
0.164728 -2.04244 4.1023 120 119 114
0.173487 -2.14148 4.06895 58 60 57
0.173487 -2.14148 4.06895 58 60 57
0.19882 -2.07513 4.132 148 149 141
0.19882 -2.07513 4.132 148 149 141
0.214256 -1.85775 4.25165 107 108 102
0.214256 -1.85775 4.25165 107 108 102
0.215321 -1.7789 4.23226 113 115 110
0.240618 -2.04748 4.15474 102 103 95
0.244457 -2.07126 4.14996 87 88 80
0.269666 -1.47851 4.259 118 117 112
0.287563 -2.04893 4.18366 96 97 91
0.29883 -2.14499 4.15029 45 49 48
0.325897 -1.6657 4.30731 102 103 97
0.34555 -1.78304 4.32993 124 121 112
0.34555 -1.78304 4.32993 124 121 112
0.34754 -1.83435 4.33454 113 114 108
0.352586 -1.83528 4.34159 121 122 116
0.379982 -1.68989 4.34009 110 107 100
0.383915 -1.8573 4.35998 105 108 101
0.385574 -1.71352 4.3497 113 115 110
0.386571 -1.68209 4.34836 132 129 122
0.392653 -1.80237 4.36386 129 130 124
0.477179 -1.41153 4.42266 115 105 95
0.488634 -1.79059 4.4221 119 109 99
0.493796 0.390518 4.46863 133 109 85
0.494362 -1.33446 4.38025 128 122 110
0.49909 -1.77141 4.42086 118 109 100
0.506512 -1.77937 4.43232 119 111 100
0.500272 -1.16336 4.36529 128 122 110
0.508526 -1.69878 4.42495 107 100 90
0.508526 -1.69878 4.42495 107 100 90
0.538853 -1.45159 4.43162 108 99 90
0.626422 -0.567283 4.34986 101 94 86
0.653474 -0.569589 4.38603 0 0 0
0.673393 -1.01902 4.47026 0 0 0
0.670631 -2.19206 4.28533 0 0 0
0.731202 -0.418769 4.44716 0 0 0
0.737396 -1.53389 4.48468 0 0 0
0.737715 -0.207878 4.42132 0 0 0
0.907384 -1.94608 4.35876 0 0 0
0.909756 -1.91544 4.35547 0 0 0
0.935817 -1.88294 4.37258 0 0 0
0.937539 -1.92588 4.37621 0 0 0
1.04098 -1.46504 4.43769 0 0 0
1.06314 -2.19437 4.30072 0 0 0
1.06314 -2.19437 4.30072 0 0 0
1.07596 -2.1649 4.33323 0 0 0
1.16797 -2.07642 4.55731 0 0 0
1.1545 -1.92164 4.50002 0 0 0
1.1156 -2.19166 4.32607 0 0 0
1.1156 -2.19166 4.32607 0 0 0
1.2123 -1.89291 4.52589 0 0 0
1.19332 -2.09199 4.41431 0 0 0
1.19079 -2.10085 4.4048 0 0 0
1.24239 -1.91859 4.54695 0 0 0
1.23746 -2.08913 4.43496 0 0 0
1.32025 -0.406298 4.52225 0 0 0
1.46656 -0.396485 4.87888 0 0 0
1.46962 -0.415421 4.86863 0 0 0
1.48678 -0.0349426 4.86434 0 0 0
1.87153 -0.499225 6.08318 0 0 0
1.60831 -0.0300779 5.10167 0 0 0
1.54977 -0.507001 4.89589 0 0 0
1.62505 -0.42734 4.9665 0 0 0
1.68872 0.0520527 5.12682 0 0 0
1.63927 -0.448243 4.95278 0 0 0
1.70562 0.10565 5.13246 0 0 0
1.66851 -0.400291 4.99134 0 0 0
1.66835 -0.0852835 4.96014 0 0 0
1.72866 0.233937 5.12819 0 0 0
1.74348 0.422682 5.1058 0 0 0
1.75308 0.824267 5.07415 0 0 0
1.75077 -0.393844 5.03842 0 0 0
1.75188 -0.408987 5.0353 0 0 0
1.88051 -0.301728 5.33106 0 0 0
1.77376 -0.282447 5.01745 0 0 0
1.87701 -0.547868 5.28468 0 0 0
1.78668 -0.518192 5.03048 0 0 0
1.81038 -0.755844 5.08692 0 0 0
1.79876 -0.428509 5.04518 0 0 0
1.8087 -0.33994 5.05467 0 0 0
1.79713 -0.0461516 5.00526 0 0 0
1.81231 -0.204056 5.04131 0 0 0
1.81765 0.587612 4.9635 0 0 0
1.84814 0.0352651 5.04127 0 0 0
1.81294 0.945755 4.90734 0 0 0
1.85942 0.378076 5.00866 0 0 0
1.87736 0.034804 5.05637 0 0 0
1.89016 -0.0345265 5.06106 0 0 0
1.89569 0.000811786 5.04611 0 0 0
1.90067 0.157444 5.04577 0 0 0
1.90488 -0.368416 5.04384 0 0 0
1.88137 0.822959 4.97319 0 0 0
1.87904 0.904227 4.95908 0 0 0
1.89502 -0.510623 5.00107 0 0 0
1.89322 0.863559 4.97547 0 0 0
1.92652 -0.356728 5.05363 0 0 0
1.92688 -0.37004 5.05438 0 0 0
1.9002 0.876661 4.97321 0 0 0
1.92033 -0.0483397 5.02161 0 0 0
1.95919 -0.752317 5.12145 0 0 0
1.93072 -0.482067 5.04354 0 0 0
1.92986 -0.221257 5.0364 0 0 0
1.93753 -0.429596 5.0549 0 0 0
1.92406 0.156647 5.0128 0 0 0
1.91927 0.832012 4.98089 0 0 0
1.929 0.592981 5.00128 0 0 0
1.94759 -0.278546 5.04882 0 0 0
1.9519 -0.184708 5.05899 0 0 0
1.92989 0.293654 5.00104 0 0 0
1.95456 -0.233107 5.04032 0 0 0
1.9361 0.785547 4.97942 0 0 0
1.95769 0.319925 5.0068 0 0 0
1.97791 0.170105 5.03654 0 0 0
1.98897 -0.0262871 5.053 0 0 0
1.94694 0.835242 4.94005 0 0 0
1.98819 -0.27491 5.04462 0 0 0
1.97854 0.456453 5.00592 0 0 0
2.01821 -0.291964 5.06391 0 0 0
2.02173 -0.338873 5.06522 0 0 0
2.02173 -0.338873 5.06522 0 0 0
1.99362 0.805909 4.98068 0 0 0
2.03124 -0.274201 5.07022 0 0 0
2.00761 0.36779 5.01036 0 0 0
2.04327 -0.339486 5.07903 0 0 0
1.95138 1.03524 4.84795 0 0 0
1.95557 1.14815 4.8349 0 0 0
2.11221 -0.669108 5.19491 0 0 0
2.10499 -0.611482 5.17069 0 0 0
2.08186 -0.0282721 5.09194 0 0 0
2.0861 -0.130269 5.09626 0 0 0
2.07602 0.251152 5.06701 0 0 0
2.12246 -0.429193 5.13978 0 0 0
2.13089 -0.05088 5.13957 0 0 0
2.13617 0.0402324 5.1377 0 0 0
2.04597 0.917665 4.91385 0 0 0
2.04597 0.917665 4.91385 0 0 0
2.24247 -0.0302189 5.37854 0 0 0
2.13905 -0.0292322 5.12811 0 0 0
2.15271 -0.461054 5.15221 0 0 0
2.15124 -0.227385 5.135 0 0 0
2.14947 0.233037 5.12657 0 0 0
2.14864 0.165169 5.12022 0 0 0
2.17169 -0.498788 5.13768 0 0 0
2.17169 -0.498788 5.13768 0 0 0
2.15392 0.607539 5.09283 0 0 0
2.15864 0.419568 5.09916 0 0 0
2.19214 0.471112 5.08372 0 0 0
2.1441 0.917763 4.96797 0 0 0
2.26134 0.982258 5.00445 0 0 0
-1.63364 1.01695 2.58086 128 128 126
-1.64145 0.820644 2.6176 42 37 34
-1.60046 0.880794 2.61655 215 214 209
-1.58807 1.01329 2.60893 151 151 151
-1.63718 0.271681 2.76522 200 199 195
-1.56571 -0.414057 2.32688 213 220 228
-1.66904 -0.496423 2.80078 220 227 235
-1.62694 -0.170536 2.81324 179 180 175
-1.62903 -0.375369 2.82609 220 227 235
-1.42176 0.842385 2.72286 45 47 42
-1.49101 -0.507679 2.90105 217 214 209
-1.42066 -0.397262 3.04562 205 201 192
-1.39805 -0.0371151 3.01265 21 23 18
-1.29366 -0.438114 3.0374 212 209 200
-1.27678 -0.475412 3.10182 145 135 126
-1.23518 -0.403366 3.15145 217 214 207
-1.04769 -0.219143 3.23858 209 206 199
-1.02241 -0.245334 3.25616 210 209 204
-0.669834 0.643204 2.96693 10 15 9
-0.66842 0.300477 3.0051 164 164 156
-0.634139 1.04536 2.93081 10 12 9
-0.636338 0.385838 3.01347 189 186 179
-0.586271 -2.04383 3.30265 71 54 46
-0.348496 0.769822 3.16019 30 31 26
-0.284417 -1.83706 3.92658 113 106 96
-0.252795 -1.62328 3.95066 23 24 19
-0.369996 -2.11485 3.43269 109 105 94
-0.369257 -2.15013 3.39933 112 108 96
-0.249761 -2.13364 3.81213 72 62 53
-0.0771858 -2.07021 3.95837 81 80 75
-0.0510026 -1.44754 3.92879 148 142 128
-0.0187514 -1.50081 4.07217 169 163 149
0.0279909 -1.44539 4.06804 138 134 125
0.651277 -2.06326 4.34108 105 101 90
0.633597 -2.16514 4.29965 113 109 100
0.86792 -2.01694 4.27681 110 106 94
1.78588 -0.51464 5.02462 0 0 0
1.90305 0.379639 5.0375 0 0 0
1.97331 -0.485709 5.05835 0 0 0
