ply
format ascii 1.0 
element vertex 1304
property float32 x 
property float32 y 
property float32 z
property uchar red  
property uchar green
property uchar blue
element face 0
property list uchar int vertex_indices
end_header
-1.33553 0.275474 6.89837 160 97 53
-1.32331 0.169441 7.05852 146 69 27
-1.32295 0.294573 6.86502 157 93 49
-1.32433 0.381698 6.70395 154 82 34
-1.30725 0.173952 7.06 178 100 34
-1.30345 0.15014 7.07137 159 78 31
-1.29965 0.118369 7.11017 163 81 34
-1.31977 0.459419 6.56906 163 99 35
-1.31573 0.430014 6.62523 156 79 37
-1.31041 0.359863 6.74554 161 83 44
-1.28882 0.15799 7.0642 166 85 32
-1.27977 0.119213 7.10552 150 73 27
-1.30654 0.503854 6.4892 166 98 35
-1.28113 0.15526 7.06616 158 80 34
-1.29191 0.320256 6.81325 129 71 49
-1.28924 0.375486 6.71731 167 89 40
-1.26884 0.163987 7.06303 144 71 26
-1.28389 0.450317 6.58028 160 84 32
-1.26582 0.35012 6.7491 169 96 43
-1.26582 0.35012 6.7491 169 96 43
-1.27609 0.531985 6.4424 167 96 32
-1.24716 0.265252 6.89997 152 79 46
-1.22769 0.168169 7.06347 147 79 30
-1.25171 0.48143 6.53039 145 76 34
-1.23246 0.262049 6.90678 169 98 52
-1.24714 0.494039 6.50119 154 84 32
-1.21509 0.166994 7.0592 164 87 31
-1.22611 0.323915 6.79503 163 90 45
-1.18789 -0.0426868 7.39743 167 100 32
-1.22499 0.384504 6.69259 150 75 36
-1.21227 0.351029 6.74641 168 95 42
-1.2124 0.403278 6.65552 162 91 37
-1.18179 0.276991 6.86851 165 96 41
-1.17877 0.257622 6.90024 167 97 46
-1.20218 0.50917 6.47459 164 95 30
-1.17203 0.258422 6.90269 155 92 41
-1.14544 0.047865 7.20804 167 102 34
-1.14537 0.0474158 7.20773 167 102 34
-1.18493 0.498428 6.48974 169 100 31
-1.15378 0.278118 6.86506 172 110 53
-1.16869 0.459803 6.55757 161 90 34
-1.12241 0.0569393 7.1918 155 85 33
-1.13465 0.192838 7.04013 170 103 35
-1.14004 0.252368 6.90111 171 110 43
-1.14004 0.252368 6.90111 171 110 43
-1.1093 -0.0150263 7.30921 167 103 31
-1.13225 0.24403 6.92246 169 105 41
-1.12168 0.188387 7.04535 169 106 39
-1.11792 0.195636 7.03523 173 109 45
-1.11792 0.195636 7.03523 173 109 45
-1.09772 0.0129833 7.26582 162 93 36
-1.11353 0.182865 7.05124 166 98 37
-1.08533 -0.0282841 7.33638 174 110 38
-1.08533 -0.0282841 7.33638 174 110 38
-1.10653 0.165219 7.09882 178 110 39
-1.09982 0.11791 7.11317 185 118 40
-1.10087 0.243333 6.92481 169 100 41
-1.10166 0.279165 6.85272 169 108 45
-1.09923 0.272484 6.86647 162 100 39
-1.09942 0.272226 6.86393 162 100 39
-1.0636 -0.03131 7.33691 159 93 35
-1.06831 0.0142214 7.26366 184 119 39
-1.08797 0.190323 7.03529 185 120 40
-1.05829 -0.0628153 7.39705 169 98 32
-1.04264 -0.0478551 7.35476 164 92 34
-1.09982 0.504603 6.47467 182 114 31
-1.03598 0.00544265 7.26864 188 119 41
-1.02622 0.0181321 7.25513 185 116 41
-1.07406 0.44096 6.58337 160 96 35
-1.05978 0.427403 6.60228 172 101 39
-1.00652 0.105723 7.145 174 105 40
-1.00664 0.105656 7.14363 174 105 40
-0.993103 0.020121 7.25788 183 117 41
-0.993373 0.0346547 7.23063 183 114 39
-1.04767 0.444309 6.57597 171 97 36
-1.03835 0.429681 6.59734 165 92 37
-1.01532 0.342207 6.73562 175 102 34
-1.01532 0.342207 6.73562 175 102 34
-0.965706 0.111509 7.15642 174 107 37
-1.03497 0.615809 6.2542 167 99 34
-0.956815 0.151799 7.08777 184 116 43
-0.962001 0.22521 7.00067 169 100 33
-0.974484 0.324042 6.76365 179 107 35
-0.985614 0.406763 6.63153 182 108 35
-0.93532 0.211047 7.02002 154 87 34
-0.927662 0.230819 6.99556 170 105 37
-0.981649 0.615047 6.24746 166 96 37
-0.912742 0.211617 7.01227 167 95 45
-0.882717 0.0178806 7.28536 169 105 44
-0.907372 0.215936 7.00821 173 103 43
-0.887062 0.164414 7.07109 182 115 47
-0.863786 0.0694582 7.21528 185 121 57
-0.955059 0.622523 6.23046 180 110 41
-0.875599 0.221796 7.00354 172 111 48
-0.838212 -0.00573105 7.32944 213 211 199
-0.830104 0.0334844 7.26323 213 211 199
-0.811394 -0.0160718 7.35318 212 209 200
-0.811394 -0.0160718 7.35318 212 209 200
-0.805027 0.00995316 7.31591 214 211 202
-0.825944 0.135891 7.12307 213 210 201
-0.915652 0.612253 6.23295 212 211 206
-0.862675 0.37659 6.67632 207 204 195
-0.808264 0.108032 7.17169 215 212 203
-0.847842 0.365682 6.69496 213 211 199
-0.847842 0.365682 6.69496 213 211 199
-0.779842 0.00448291 7.30824 214 211 202
-0.858823 0.440017 6.55638 212 209 200
-0.734497 -0.15193 7.56522 158 146 124
-0.792495 0.170411 7.08177 214 211 202
-0.85329 0.500574 6.44054 199 203 189
-0.717448 -0.135444 7.54706 208 204 195
-0.810307 0.40278 6.61702 152 172 123
-0.727951 0.0297335 7.27735 102 104 90
-0.77401 0.30606 6.79633 50 50 42
-0.743416 0.247417 6.97671 103 103 93
-0.717726 0.136258 7.15496 116 117 99
-0.779274 0.432585 6.56157 195 193 181
-0.730305 0.241963 6.9796 64 64 52
-0.702387 0.115181 7.1849 145 146 130
-0.687816 0.111689 7.19532 133 136 117
-0.687816 0.111689 7.19532 133 136 117
-0.649856 -0.0826887 7.45507 197 194 185
-0.776007 0.504252 6.43846 192 190 177
-0.68236 0.104087 7.20512 133 136 119
-0.661288 0.11143 7.21314 132 134 120
-0.583364 -0.239871 7.74205 210 207 200
-0.583364 -0.239871 7.74205 210 207 200
-0.591194 -0.185112 7.65097 183 183 173
-0.681595 0.538858 6.38848 212 212 202
-0.604635 0.248201 6.95394 168 171 142
-0.635908 0.353742 6.70386 108 111 90
-0.568839 0.25016 6.94791 147 149 125
-0.453316 -0.200277 7.69848 186 186 176
-0.639328 0.530539 6.40199 129 175 198
-0.556779 0.254182 6.94507 128 130 109
-0.557126 0.254026 6.94287 128 130 109
-0.550749 0.255062 6.94284 99 101 77
-0.549702 0.251996 6.94617 101 105 82
-0.427411 -0.164663 7.65562 202 202 194
-0.480762 -0.0771194 6.95744 93 91 76
-0.490415 0.231927 6.98872 106 109 90
-0.491257 0.234595 6.98351 102 105 86
-0.55095 0.431463 6.56978 157 162 132
-0.48973 0.260281 6.93673 131 134 105
-0.601898 0.698921 6.11777 74 99 69
-0.453362 0.239781 6.97934 88 91 64
-0.429403 0.196165 6.97069 74 73 55
-0.413531 -0.272976 6.68528 93 86 80
-0.540337 0.607096 6.29738 100 103 82
-0.498622 0.464131 6.52166 163 165 151
-0.507482 0.545314 6.41354 159 164 132
-0.49413 0.511712 6.46576 115 119 94
-0.399145 0.260998 6.97421 105 105 81
-0.468628 0.463021 6.535 120 123 92
-0.388259 -0.147461 6.42348 87 80 72
-0.371225 0.268316 6.90222 113 112 82
-0.385694 -0.160377 6.42238 88 84 75
-0.385923 -0.150042 6.41858 88 81 73
-0.35065 0.338711 6.82939 98 97 79
-0.337066 0.321647 6.85696 97 98 67
-0.330587 0.339763 6.81904 72 70 58
-0.332499 -0.243407 6.33365 201 193 154
-0.337437 -0.183007 6.29323 81 74 68
-0.302099 0.157705 6.62681 89 85 58
-0.301323 0.152875 6.62034 79 75 50
-0.301027 0.175151 6.6249 67 64 49
-0.258298 -0.284961 6.52977 89 85 73
-0.258585 -0.281331 6.52704 86 81 77
-0.292266 0.168787 6.60443 70 67 52
-0.266035 -0.149733 6.401 79 72 66
-0.25318 -0.221111 6.40777 76 71 67
-0.258364 -0.164115 6.39958 80 73 67
-0.263934 -0.0885482 6.39811 66 61 55
-0.258231 -0.134593 6.39127 70 65 61
-0.25233 -0.170659 6.3927 75 70 64
-0.25364 -0.135908 6.3863 73 68 64
-0.252103 -0.129135 6.38247 77 70 64
-0.249929 -0.139663 6.38402 76 69 63
-0.235045 -0.23258 6.39597 79 74 68
-0.24304 -0.140092 6.37871 81 74 68
-0.23344 -0.218463 6.38318 77 72 66
-0.219853 0.305539 6.80782 73 70 53
-0.246717 0.126288 6.48122 89 86 71
-0.224785 -0.221906 6.38536 78 73 67
-0.236502 -0.126022 6.37008 75 68 62
-0.229055 -0.135247 6.3695 78 71 65
-0.229055 -0.135247 6.3695 78 71 65
-0.221522 -0.147158 6.36536 79 72 66
-0.221522 -0.147158 6.36536 79 72 66
-0.211322 -0.224399 6.37855 79 76 69
-0.235294 -0.0152228 6.33235 39 39 29
-0.20952 -0.204213 6.36742 78 75 70
-0.222784 -0.0934412 6.34835 74 69 65
-0.22445 -0.0771825 6.34123 72 65 59
-0.236867 0.0471749 6.29868 115 106 89
-0.152121 -0.334245 6.60691 83 79 76
-0.197291 -0.227009 6.37678 86 79 71
-0.151971 -0.330175 6.60735 82 79 74
-0.153418 -0.322852 6.60147 80 77 68
-0.198588 -0.203739 6.3661 84 77 69
-0.142983 -0.342182 6.60235 86 85 80
-0.174719 -0.274615 6.41837 204 205 200
-0.138999 -0.219439 6.64335 187 188 172
-0.18105 -0.216119 6.36915 187 188 172
-0.132927 -0.33817 6.59214 212 212 202
-0.133169 -0.314959 6.59353 200 198 186
-0.188869 -0.149388 6.33994 196 196 186
-0.185815 -0.134429 6.33011 210 210 200
-0.12479 -0.326384 6.58772 201 201 193
-0.184495 -0.126273 6.32145 206 206 196
-0.191676 -0.0813198 6.28166 205 205 195
-0.154487 -0.261598 6.40057 213 210 201
-0.155844 -0.242601 6.38824 210 207 198
-0.170452 -0.144704 6.31467 163 160 145
-0.202256 0.0429085 6.22889 161 156 137
-0.199636 0.0322518 6.22417 169 163 151
-0.102075 -0.350957 6.57609 214 214 202
-0.1928 -0.00432897 6.22106 183 177 165
-0.186989 -0.0217651 6.21978 180 178 163
-0.0967421 -0.348686 6.56922 209 209 199
-0.190295 0.019649 6.20697 178 175 160
-0.192116 0.0397395 6.20526 165 161 150
-0.178697 -0.0461544 6.22938 179 179 169
-0.0930191 -0.350583 6.56749 209 209 201
-0.190593 0.0599904 6.20783 72 70 47
-0.188304 0.0324134 6.20184 174 170 158
-0.188421 0.0322671 6.20124 174 170 158
-0.16565 -0.0897155 6.25945 213 213 203
-0.166845 -0.0817249 6.25072 205 205 195
-0.179733 0.00359059 6.19792 186 182 171
-0.150574 -0.13377 6.28804 214 212 200
-0.18376 0.0505429 6.19453 99 96 65
-0.131724 -0.199176 6.34642 214 211 202
-0.151824 -0.114691 6.27193 214 214 202
-0.119602 -0.244142 6.38827 217 214 205
-0.178082 0.0281196 6.19006 179 176 161
-0.0794522 -0.342164 6.56236 212 212 202
-0.162926 -0.0467827 6.21218 200 200 190
-0.112503 -0.244955 6.39056 201 198 189
-0.159385 -0.0569788 6.21858 199 199 187
-0.0742377 -0.352929 6.55401 200 198 186
-0.141097 -0.130674 6.27952 204 202 190
-0.167294 0.00456415 6.1834 190 191 177
-0.146018 -0.0980859 6.24472 202 202 190
-0.169705 0.0462946 6.17784 161 157 146
-0.111882 -0.216851 6.35901 206 203 194
-0.0660708 -0.348099 6.55097 206 204 192
-0.0660708 -0.348099 6.55097 206 204 192
-0.143482 -0.0835497 6.22509 200 200 190
-0.165534 0.0576256 6.175 87 81 65
-0.165534 0.0576256 6.175 87 81 65
-0.151124 -0.0433741 6.19978 199 199 189
-0.165604 0.0622289 6.17496 71 66 47
-0.131202 -0.129618 6.26604 204 201 192
-0.165454 0.0818168 6.18074 70 66 55
-0.133472 -0.115056 6.25241 206 203 194
-0.133472 -0.115056 6.25241 206 203 194
-0.164224 0.0779489 6.17818 79 73 61
-0.152661 -0.0201116 6.18764 196 195 190
-0.161985 0.046864 6.16959 169 165 153
-0.151893 -0.0244787 6.18423 194 194 184
-0.138781 -0.0854287 6.22412 200 200 190
-0.155474 0.0203921 6.16607 191 189 176
-0.156178 0.0509192 6.16455 172 169 154
-0.106669 -0.180996 6.31411 206 206 196
-0.149582 0.0192096 6.16359 194 192 179
-0.132041 -0.0748378 6.20713 202 202 192
-0.13222 -0.0748117 6.20644 202 202 192
-0.152356 0.0585128 6.16539 167 163 151
-0.150276 0.0350484 6.16005 185 179 163
-0.110376 -0.140291 6.25648 205 205 195
-0.107977 -0.14879 6.2653 204 204 194
-0.109917 -0.132247 6.24604 204 204 194
-0.129494 -0.0421127 6.17988 199 199 189
-0.130914 -0.0289105 6.17571 194 194 184
-0.138554 0.0147623 6.15576 197 195 183
-0.138498 0.0148493 6.15606 197 195 183
-0.0369313 -0.355013 6.53016 109 103 91
-0.123514 -0.0515452 6.18328 200 200 190
-0.137668 0.051242 6.14804 179 176 161
-0.0897111 -0.171549 6.2921 206 206 196
-0.135648 0.0842774 6.1478 151 148 133
-0.136529 0.0977585 6.15096 89 85 73
-0.0836872 -0.175123 6.29051 206 206 196
-0.117807 -0.0390135 6.1689 200 200 190
-0.107369 -0.0867924 6.19995 202 202 192
-0.107369 -0.0867924 6.19995 202 202 192
-0.102033 -0.108607 6.21541 204 204 194
-0.129822 0.070883 6.14052 172 169 152
-0.125574 0.039133 6.14404 189 186 171
-0.121241 0.0035077 6.14786 197 195 183
-0.126596 0.0514839 6.1399 186 183 168
-0.121169 0.0125646 6.144 195 193 181
-0.109311 -0.0515583 6.16899 200 200 190
-0.126058 0.0756883 6.13926 169 166 151
-0.118116 0.0101238 6.14233 194 192 180
-0.120652 0.0419658 6.13757 186 184 171
-0.12294 0.0745068 6.13619 172 168 156
-0.109216 -0.0328562 6.14979 199 199 189
-0.109708 -0.0256256 6.1489 200 200 190
-0.118565 0.0394777 6.13488 188 186 173
-0.0673953 -0.176558 6.28479 208 205 196
-0.113629 0.0151591 6.12936 196 194 182
-0.114535 0.0412597 6.1308 193 191 178
-0.0881111 -0.100432 6.19863 202 202 192
-0.116648 0.0727249 6.13138 181 175 161
-0.0869498 -0.0951687 6.19069 201 201 191
-0.115975 0.0988013 6.13187 113 111 98
-0.114846 0.093084 6.13035 170 168 155
-0.0961065 -0.0522572 6.15435 202 202 192
-0.0965949 -0.0394007 6.1437 201 201 191
-0.0926617 -0.0542876 6.15198 203 203 191
-0.082797 -0.0920001 6.18488 188 188 178
-0.082797 -0.0920001 6.18488 188 188 178
-0.0955299 -0.0338355 6.13844 199 199 187
-0.105869 0.0385252 6.11611 198 196 183
-0.0948472 -0.0304146 6.12926 184 182 169
-0.0893453 -0.0496846 6.14781 196 194 179
-0.114772 0.559307 6.34171 125 118 102
-0.114903 0.559329 6.34125 125 118 102
-0.105473 0.0859067 6.1185 184 181 166
-0.103718 0.0713527 6.11691 191 189 176
-0.107712 0.135509 6.12518 165 159 143
-0.106226 0.121635 6.12412 169 166 149
-0.103901 0.11012 6.11888 183 179 167
-0.0875903 -0.0248124 6.11255 186 183 174
-0.100909 0.11996 6.11766 178 176 163
-0.0989807 0.0968388 6.11077 124 120 109
-0.0987327 0.0968597 6.11172 124 120 109
-0.0626708 -0.106554 6.18274 200 201 183
-0.0715659 -0.0599322 6.13609 201 201 191
-0.0926367 0.101227 6.10484 196 193 176
-0.0915634 0.0972682 6.10456 122 118 107
0.0247119 -0.340904 6.49806 216 213 208
-0.0947327 0.506222 6.30325 79 77 65
-0.0833207 -0.00134146 6.08112 203 201 189
-0.0880715 0.0812306 6.09681 196 194 181
0.0279372 -0.346701 6.4974 206 203 198
-0.095415 0.227247 6.13316 148 142 126
-0.0716582 -0.045133 6.11132 200 200 190
-0.0875613 0.112996 6.10305 193 189 178
-0.0883481 0.575667 6.33403 75 72 65
-0.077553 -0.00136746 6.07397 210 208 196
-0.0865687 0.239384 6.1254 152 146 130
-0.0778651 0.102746 6.08609 196 193 176
-0.0738359 0.0358242 6.06684 204 204 194
-0.0796007 0.213393 6.1169 168 163 144
-0.0796007 0.213393 6.1169 168 163 144
-0.0517616 -0.0541735 6.10365 198 196 183
-0.0759751 0.611065 6.32658 45 37 26
-0.0199545 -0.149979 6.20777 171 170 166
-0.0461552 -0.0581125 6.10811 94 92 79
-0.029415 -0.108163 6.16577 207 207 199
-0.0293248 -0.104528 6.1583 210 210 202
-0.0700224 0.270844 6.12274 147 141 127
-0.0227886 -0.11423 6.16389 207 207 197
-0.0227886 -0.11423 6.16389 207 207 197
-0.0555771 0.0194523 6.05507 209 206 197
0.0603227 -0.323597 6.48878 205 202 193
-0.0648948 0.441009 6.21548 68 62 48
-0.0651094 0.256109 6.11475 159 153 137
-0.0409568 -0.0142803 6.09766 200 200 192
-0.0565561 0.0958288 6.06284 146 146 138
-0.0561388 0.605268 6.33171 103 96 80
-0.0600344 0.198207 6.09285 180 178 163
-0.0600344 0.198207 6.09285 180 178 163
-0.0484291 0.0169946 6.05315 209 206 197
-0.0543217 0.108825 6.06437 204 204 194
-0.0548138 0.161329 6.07723 192 190 177
-0.0289563 -0.0565631 6.09513 204 204 192
-0.0422117 0.0047377 6.0563 211 211 201
-0.0486184 0.0674268 6.05352 210 210 200
-0.0487073 0.067322 6.05311 210 210 200
-0.0444375 0.0302929 6.05082 215 212 203
-0.0494471 0.108527 6.06125 207 204 195
-0.0510122 0.15038 6.07031 202 200 187
-0.0510122 0.15038 6.07031 202 200 187
-0.0505165 0.155141 6.0713 198 198 186
-0.0470507 0.0907603 6.05561 212 212 202
-0.044125 0.0637588 6.05109 213 213 203
-0.0197206 -0.0713541 6.10518 207 207 197
0.0779456 -0.297992 6.48438 210 210 198
-0.00618017 -0.106797 6.14298 199 200 195
-0.0477538 0.182482 6.07354 195 193 181
-0.122943 0.778619 5.98333 28 25 20
-0.0428726 0.480529 6.23396 74 71 56
-0.0420029 0.452164 6.20982 85 81 69
-0.0830652 0.710075 6.12564 49 44 38
0.00919875 -0.14012 6.15683 209 205 194
-0.0384106 0.162257 6.06128 199 199 187
-0.0933596 0.737706 6.07154 64 57 47
-0.0393107 0.295276 6.12253 159 153 137
-0.0393294 0.29531 6.12249 159 153 137
-0.00828658 -0.065897 6.09456 206 202 193
0.00293857 -0.105121 6.13168 213 211 199
-0.0356523 0.121292 6.04752 208 208 198
-0.0347356 0.118277 6.0502 209 209 199
-0.0278795 0.0473029 6.04682 210 210 200
-0.0302832 0.0923034 6.04702 215 212 203
-0.0150612 -0.0134557 6.06193 150 150 138
-0.0294773 0.103 6.04474 213 211 199
0.00415078 -0.089391 6.11378 210 206 194
0.0124749 -0.107807 6.13047 207 204 189
-0.0242659 0.110704 6.04349 214 212 200
0.0048868 -0.0643182 6.09243 198 198 186
-0.0055743 -0.00618884 6.06069 214 212 199
0.0122046 -0.0860108 6.10525 202 200 188
0.0122046 -0.0860108 6.10525 202 200 188
0.0174761 -0.100173 6.11815 205 202 195
-0.0170573 0.13152 6.04247 213 210 201
0.00212146 0.587503 6.36768 102 92 80
0.00455238 -0.0224974 6.06507 213 211 199
-0.00455846 0.0390109 6.04696 211 208 199
0.0184063 -0.077377 6.09572 206 206 194
0.0244103 -0.0901826 6.10458 142 140 128
0.00580678 0.00931415 6.05457 215 212 203
0.0228569 -0.0784584 6.09551 199 199 189
-0.011619 0.186025 6.05352 199 199 187
0.0141866 -0.0387633 6.07103 214 214 206
0.00537941 0.0159079 6.05308 210 210 200
0.0026984 0.0365546 6.04901 216 213 204
-0.00999237 0.158067 6.04138 210 210 200
-0.00388484 0.0916322 6.03577 208 209 201
-0.00388484 0.0916322 6.03577 208 209 201
0.0239596 -0.0684845 6.0879 149 149 141
0.0213798 -0.0582406 6.07905 199 198 193
0.0190995 -0.0401002 6.07226 201 201 193
-0.00210849 0.113975 6.03532 212 210 198
0.0174955 -0.00847816 6.06033 151 147 138
0.0263676 -0.0545323 6.07874 209 209 199
-0.00437861 0.201003 6.04668 210 210 200
0.000625792 0.129673 6.03446 212 209 200
0.0123865 0.0485251 6.04415 214 211 202
0.0152087 0.0284296 6.04699 215 212 203
0.00588637 0.0968007 6.03449 147 144 135
0.00386852 0.116144 6.0329 214 211 202
0.00794848 0.0824505 6.03569 211 211 201
0.0241719 -0.00996382 6.05919 209 209 201
0.00138272 0.188762 6.04232 204 204 194
0.0324854 -0.0476892 6.075 218 215 206
0.0217525 0.02985 6.0469 214 211 202
0.0236857 0.0236258 6.04887 214 211 202
0.00683111 0.179524 6.03909 206 206 196
0.0313175 0.595921 6.3542 101 89 77
0.0154573 0.103491 6.03344 210 208 195
0.00834756 0.182899 6.03728 208 208 198
0.0240756 0.616948 6.31986 102 94 75
0.03341 -0.0026257 6.05655 181 179 166
0.03341 -0.0026257 6.05655 181 179 166
0.0165813 0.115587 6.02707 219 216 207
0.0444701 -0.0533939 6.0743 210 207 188
0.0296684 0.0437121 6.04263 213 210 201
0.023941 0.0946154 6.03105 216 214 202
0.0279219 0.0711689 6.03907 211 208 199
0.049548 -0.0565684 6.07784 162 160 148
0.0332155 0.623222 6.30999 51 42 35
0.0512812 -0.0457783 6.07074 216 214 201
0.0363132 0.0571346 6.0421 210 207 198
0.0452035 0.0265665 6.04945 212 209 200
0.0544343 0.596296 6.3522 104 93 87
0.040232 0.0777041 6.03378 210 207 198
0.0523473 0.012733 6.04992 212 209 200
0.0698649 0.57151 6.39548 90 80 68
0.0428641 0.0871875 6.03268 207 207 197
0.0153012 0.686882 6.18092 124 116 103
0.00528677 0.707356 6.14253 51 47 38
0.00528677 0.707356 6.14253 51 47 38
0.0676542 -0.0581237 6.07529 139 139 127
0.0677426 -0.0514132 6.0707 211 208 199
0.0677426 -0.0514132 6.0707 211 208 199
0.0471755 0.0796594 6.03295 206 206 196
0.0486906 0.0682657 6.03376 213 210 201
0.0486906 0.0682657 6.03376 213 210 201
0.0450313 0.0951267 6.02871 208 205 196
0.0481209 0.0839248 6.03065 206 206 196
0.0710996 -0.054892 6.07258 213 211 199
0.0651068 -0.013729 6.05802 215 213 201
0.0651068 -0.013729 6.05802 215 213 201
0.0521325 0.0760821 6.03271 211 211 201
0.0484691 0.104599 6.02671 207 204 195
0.0539417 0.631818 6.29536 110 103 85
0.0469736 0.136665 6.02283 211 208 199
0.0568929 0.0680388 6.03322 213 210 201
0.0568929 0.0680388 6.03322 213 210 201
0.0501785 0.131285 6.02208 210 207 198
0.0839237 -0.0764402 6.08255 201 196 190
0.0678444 0.0236393 6.04583 211 208 199
0.0699727 0.0135248 6.04872 212 212 202
0.0755318 -0.0164241 6.05844 150 144 128
0.0688207 0.043338 6.03957 211 208 199
0.0695989 0.0497193 6.03939 214 211 202
0.0046356 0.746508 6.05402 53 52 31
0.0629574 0.160628 6.02266 207 207 197
0.100965 0.576045 6.39132 112 106 90
0.12889 0.522532 6.48186 115 110 90
0.0739649 0.0993812 6.02438 136 134 122
0.0716533 0.122723 6.02021 209 207 195
0.0732918 0.11952 6.02109 209 207 195
0.0860546 0.0421043 6.03978 211 208 199
0.075559 0.112791 6.02108 211 209 197
0.0955632 0.602027 6.33773 132 130 109
0.0974116 -0.0134656 6.05449 187 189 176
0.0891884 0.630189 6.29657 155 153 140
0.0925409 0.0491888 6.0386 210 207 198
0.0868926 0.0831358 6.02739 212 209 200
0.0390482 0.726361 6.09756 124 118 104
0.0916098 0.0588271 6.03148 211 208 199
-0.125919 0.569596 5.25562 86 80 66
0.0997505 0.0351333 6.04022 212 209 200
0.088185 0.127242 6.0186 209 206 197
0.0907569 0.112017 6.01962 213 210 201
0.0907569 0.112017 6.01962 213 210 201
0.096873 0.0920637 6.0257 212 209 200
0.0478101 0.740081 6.09032 179 175 166
0.128777 0.581173 6.38276 168 165 150
0.0116897 0.804702 5.94449 192 190 178
0.101686 0.0840739 6.02658 213 210 201
0.14417 0.553343 6.43278 174 170 158
0.0990806 0.106853 6.0189 210 208 195
0.0947003 0.161216 6.02155 212 209 200
0.11495 0.0235249 6.04264 216 213 204
0.110056 0.0540873 6.03397 211 208 199
0.0762453 0.695182 6.16791 185 184 166
0.117473 0.626235 6.30131 182 181 161
0.107065 0.135248 6.0204 214 211 202
0.115166 0.111057 6.02152 212 209 200
0.116263 0.115975 6.02095 211 209 197
0.11575 0.122663 6.02179 211 209 197
0.138549 0.604018 6.3392 184 182 167
0.181202 0.524991 6.48254 200 200 188
0.119435 0.146796 6.02141 210 207 198
0.10804 0.679637 6.20407 194 192 179
0.123625 0.143739 6.0226 211 208 199
0.216192 0.472659 6.5766 202 199 190
0.126979 0.133262 6.0237 213 210 201
0.160026 0.588376 6.37273 200 199 194
0.114053 0.679081 6.20377 198 194 183
0.129548 0.124611 6.0235 207 204 195
0.140648 0.0374835 6.03415 216 213 204
0.128331 0.140678 6.02342 209 206 197
0.188835 0.535943 6.46657 197 201 186
0.193201 0.534224 6.4692 202 201 196
0.136343 0.144623 6.02418 211 208 199
0.0560063 0.795818 5.95475 204 201 192
0.146284 0.639758 6.27979 81 70 48
0.149229 0.63585 6.2858 94 82 70
0.140318 0.150461 6.02669 211 208 199
0.149582 0.108325 6.02207 214 212 200
0.153063 0.0979209 6.02286 215 211 208
0.20255 0.561951 6.42382 204 205 200
0.157804 0.12092 6.02034 213 210 201
0.140078 0.684711 6.18619 204 204 192
0.0744865 0.804651 5.93761 206 205 185
0.0714244 0.811728 5.92681 199 194 172
0.197269 0.587432 6.37478 207 205 192
0.141306 0.69017 6.17371 211 208 203
0.141404 0.690174 6.17401 211 208 203
0.170117 0.643593 6.27372 211 207 196
0.231295 0.532167 6.47756 177 170 160
0.0807278 0.807048 5.93661 201 194 184
0.171529 0.121935 6.01701 210 208 196
0.0854999 0.812098 5.92845 201 201 201
0.172644 0.157369 6.0173 213 210 201
0.0937702 0.800259 5.94831 206 206 194
0.20288 0.414522 6.2405 213 210 201
0.0967758 0.806161 5.93987 211 211 201
0.205838 0.386578 6.2262 210 207 198
0.193626 0.643636 6.2745 206 208 197
0.197519 0.64063 6.27619 206 207 193
0.188114 0.171276 6.01601 212 209 200
0.186743 0.190658 6.01495 210 207 198
0.204379 0.643131 6.27694 218 212 200
0.209128 0.629918 6.28749 217 212 192
0.216009 0.638538 6.28458 69 62 52
0.197061 0.261658 6.03005 216 214 202
0.228256 0.425411 6.22803 67 66 74
0.229881 0.433042 6.23038 159 161 147
0.182469 0.708751 6.12812 204 205 200
0.233555 0.537098 6.26037 216 212 203
0.157373 0.75868 6.03215 210 206 195
0.157373 0.75868 6.03215 210 206 195
0.210117 0.381683 6.06955 210 207 198
0.244035 0.464042 6.23367 212 209 200
0.249276 0.569209 6.25325 211 208 191
0.252413 0.548819 6.25771 186 182 171
0.253796 0.498168 6.23492 146 138 127
0.18826 0.737485 6.06268 78 73 77
0.251858 0.607739 6.25603 111 110 108
0.260013 0.50444 6.23511 191 192 187
0.260214 0.502503 6.2341 203 204 199
0.25858 0.557897 6.24648 211 207 204
0.25858 0.557897 6.24648 211 207 204
0.257883 0.602015 6.25331 210 211 203
0.257765 0.61412 6.25179 210 211 205
0.260284 0.645613 6.2738 206 205 200
0.259668 0.650696 6.26134 212 210 198
0.24117 0.736388 6.06497 211 208 199
0.25457 0.749258 6.01863 212 209 200
0.25457 0.749258 6.01863 212 209 200
0.272358 0.736872 6.05539 0 0 0
0.367456 0.601635 6.35145 0 0 0
0.274272 0.768478 5.99178 0 0 0
0.439831 0.585128 6.37773 0 0 0
0.344068 0.739139 6.04823 0 0 0
0.453841 0.586026 6.37534 0 0 0
0.426826 0.588363 6.27455 0 0 0
0.510038 0.502361 6.54707 0 0 0
0.333988 0.772887 5.9848 0 0 0
0.371616 0.714738 6.09808 0 0 0
0.520584 0.497488 6.55387 0 0 0
0.783432 0.0710078 7.31287 0 0 0
0.701529 0.230996 7.04795 0 0 0
0.52466 0.532091 6.48737 0 0 0
0.396054 0.7188 6.08695 0 0 0
0.538551 0.544178 6.52631 0 0 0
0.552122 0.498534 6.54484 0 0 0
0.538978 0.531253 6.48788 0 0 0
0.820818 0.062228 7.3191 0 0 0
0.828906 0.0521782 7.34208 0 0 0
0.398879 0.742872 6.03901 0 0 0
0.560683 0.506354 6.53199 0 0 0
0.567675 0.495515 6.54803 0 0 0
0.505828 0.593857 6.35826 0 0 0
0.48071 0.638336 6.27705 0 0 0
0.412202 0.734818 6.05516 0 0 0
0.391323 0.768537 5.9892 0 0 0
0.848979 0.0483592 7.35275 0 0 0
0.569961 0.516073 6.5193 0 0 0
0.58146 0.497354 6.54259 0 0 0
0.578998 0.504397 6.53273 0 0 0
0.572356 0.521977 6.50497 0 0 0
0.585334 0.500295 6.53796 0 0 0
0.58274 0.507321 6.52888 0 0 0
0.54911 0.557252 6.41749 0 0 0
0.822768 0.12577 7.20405 0 0 0
0.593137 0.508082 6.528 0 0 0
0.643855 0.402634 6.66266 0 0 0
0.643855 0.402634 6.66266 0 0 0
0.59044 0.51999 6.50929 0 0 0
0.601348 0.512921 6.51811 0 0 0
0.601348 0.512921 6.51811 0 0 0
0.828512 0.147561 7.18106 0 0 0
0.788061 0.234544 7.04184 0 0 0
0.835081 0.148606 7.17455 0 0 0
0.661849 0.402597 6.66147 0 0 0
0.596293 0.537245 6.47843 0 0 0
0.596293 0.537245 6.47843 0 0 0
0.835769 0.153525 7.16886 0 0 0
0.672723 0.383551 6.68075 0 0 0
0.850316 0.132391 7.19947 0 0 0
0.849315 0.145206 7.17909 0 0 0
0.845261 0.152373 7.16738 0 0 0
1.14477 -0.292781 8.0362 0 0 0
0.856024 0.156032 7.16128 0 0 0
0.684208 0.405483 6.65717 0 0 0
0.57118 0.60868 6.32147 0 0 0
0.640963 0.514941 6.51511 0 0 0
0.930754 0.0653193 7.32456 0 0 0
0.644085 0.523825 6.49627 0 0 0
0.638149 0.538402 6.47015 0 0 0
0.718242 0.391536 6.66308 0 0 0
0.664192 0.516133 6.50876 0 0 0
0.6728 0.502366 6.52811 0 0 0
1.10733 -0.142958 7.74872 0 0 0
0.677888 0.506158 6.52802 0 0 0
0.677888 0.506158 6.52802 0 0 0
1.21266 -0.304086 8.04608 0 0 0
0.893506 0.177252 7.13513 0 0 0
0.659852 0.539818 6.46579 0 0 0
1.22792 -0.31738 8.07431 0 0 0
0.916586 0.148739 7.16915 0 0 0
0.907732 0.167123 7.13872 0 0 0
0.498699 0.776409 5.97001 0 0 0
0.908842 0.174557 7.1268 0 0 0
0.926157 0.152158 7.16537 0 0 0
0.962376 0.101645 7.26434 0 0 0
1.10945 -0.0708701 7.60075 0 0 0
0.649287 0.612139 6.31024 0 0 0
0.649287 0.612139 6.31024 0 0 0
0.526417 0.782238 5.95729 0 0 0
1.1148 -0.0629397 7.59468 0 0 0
0.661729 0.600495 6.33533 0 0 0
0.530277 0.780442 5.95834 0 0 0
0.976528 0.137723 7.19769 0 0 0
0.957058 0.169931 7.13695 0 0 0
0.958743 0.17396 7.13022 0 0 0
0.726835 0.523786 6.47109 0 0 0
0.735142 0.517656 6.48456 0 0 0
0.729162 0.52502 6.46663 0 0 0
0.580098 0.738325 6.04509 0 0 0
0.67528 0.520477 6.27358 0 0 0
0.994206 0.165225 7.1509 0 0 0
1.14122 -0.0382766 7.54744 0 0 0
0.740939 0.540565 6.44048 0 0 0
1.06687 0.0690893 7.32419 0 0 0
1.01007 0.162872 7.15385 0 0 0
0.998968 0.182766 7.11375 0 0 0
0.684414 0.635871 6.25971 0 0 0
1.19866 -0.104481 7.64365 0 0 0
1.18113 -0.0742689 7.59011 0 0 0
1.17203 -0.0594234 7.56552 0 0 0
1.02382 0.158674 7.16105 0 0 0
0.763582 0.52925 6.45614 0 0 0
0.698889 0.626246 6.27199 0 0 0
1.07288 0.0926226 7.2814 0 0 0
0.778442 0.512352 6.4816 0 0 0
0.78227 0.509349 6.48974 0 0 0
0.986449 0.215347 7.03914 0 0 0
0.982003 0.229168 7.02489 0 0 0
0.760141 0.547618 6.42492 0 0 0
1.21149 -0.107855 7.63609 0 0 0
0.971771 0.248879 6.99079 0 0 0
0.998118 0.210792 7.05907 0 0 0
1.13732 0.0123508 7.42708 0 0 0
0.774935 0.528088 6.45042 0 0 0
0.774935 0.528088 6.45042 0 0 0
0.848144 0.400643 6.63829 0 0 0
1.14483 0.0114674 7.42655 0 0 0
1.01419 0.201022 7.07293 0 0 0
1.14158 -0.0491056 7.37861 0 0 0
1.18956 -0.0474002 7.52872 0 0 0
0.72717 0.611559 6.29131 0 0 0
0.784791 0.539027 6.4373 0 0 0
1.02334 0.200939 7.07286 0 0 0
1.19751 -0.0554347 7.53474 0 0 0
0.864109 0.419479 6.6245 0 0 0
1.01246 0.225331 7.02434 0 0 0
1.08944 0.124326 7.21226 0 0 0
1.04678 0.187169 7.09907 0 0 0
1.1778 -0.00526052 7.44082 0 0 0
1.05068 0.181953 7.10436 0 0 0
0.877725 0.409445 6.62936 0 0 0
1.03286 0.216636 7.04645 0 0 0
1.04842 0.191037 7.08239 0 0 0
1.05383 0.186093 7.09719 0 0 0
1.00389 0.25445 6.96199 0 0 0
1.04958 0.195629 7.07915 0 0 0
0.620014 0.790995 5.93422 0 0 0
0.888148 0.399515 6.63183 0 0 0
0.816322 0.52835 6.4493 0 0 0
1.22001 -0.0574789 7.50939 0 0 0
0.885415 0.420607 6.61963 0 0 0
1.02888 0.236458 6.99811 0 0 0
0.787711 0.578077 6.36237 0 0 0
0.787711 0.578077 6.36237 0 0 0
1.10499 0.12619 7.19504 0 0 0
1.10606 0.126228 7.19775 0 0 0
0.787625 0.580054 6.35789 0 0 0
1.09492 0.145553 7.15419 0 0 0
1.2469 -0.0814115 7.54834 0 0 0
1.07535 0.185798 7.08288 0 0 0
1.05219 0.220355 7.01221 0 0 0
1.10833 0.144106 7.14288 0 0 0
0.843916 0.531074 6.44361 0 0 0
1.14736 0.0992254 7.22414 0 0 0
1.13947 0.111453 7.19902 0 0 0
1.13947 0.111453 7.19902 0 0 0
1.31516 -0.131906 7.64953 0 0 0
1.04055 0.253766 6.93177 0 0 0
0.912554 0.444534 6.59392 0 0 0
1.29605 -0.0819334 7.57176 0 0 0
1.18358 0.06803 7.26969 0 0 0
0.929974 0.427362 6.60544 0 0 0
0.923445 0.446307 6.58755 0 0 0
1.32623 -0.0987161 7.62883 0 0 0
1.1174 0.170145 7.08217 0 0 0
1.03858 0.285587 6.87935 0 0 0
1.1373 0.141562 7.13242 0 0 0
0.838698 0.56984 6.36525 0 0 0
0.943637 0.404193 6.62247 0 0 0
0.943436 0.404051 6.62192 0 0 0
1.03605 0.293362 6.86519 0 0 0
1.08323 0.22535 6.97681 0 0 0
0.948792 0.405748 6.62094 0 0 0
0.844901 0.577238 6.35589 0 0 0
0.989563 0.359577 6.69468 0 0 0
1.05583 0.289853 6.86317 0 0 0
0.823094 0.618947 6.27109 0 0 0
1.10652 0.210725 6.98837 0 0 0
1.09424 0.227845 6.95245 0 0 0
1.08013 0.252669 6.91597 0 0 0
1.17819 0.11985 7.15999 0 0 0
1.05865 0.28758 6.85213 0 0 0
1.05663 0.291884 6.84726 0 0 0
1.07308 0.266038 6.88497 0 0 0
0.696728 0.803997 5.91673 0 0 0
1.07485 0.279999 6.85949 0 0 0
1.54252 -0.296974 8.03453 0 0 0
0.798728 0.840792 6.18094 0 0 0
0.799308 0.843241 6.1779 0 0 0
1.54796 -0.281372 8.02174 0 0 0
1.16385 0.198278 7.04271 0 0 0
1.20468 0.17655 7.10244 0 0 0
1.56273 -0.266699 7.99583 0 0 0
1.14642 0.2555 6.93801 0 0 0
1.1036 0.31787 6.80957 0 0 0
1.11303 0.307639 6.82966 0 0 0
1.22961 0.173901 7.12457 0 0 0
1.41867 -0.0576977 7.58709 0 0 0
1.42359 -0.0618125 7.59966 0 0 0
1.18464 0.230785 6.99743 0 0 0
1.39744 -0.0247596 7.52624 0 0 0
1.11778 0.323986 6.8026 0 0 0
1.45262 -0.0780375 7.63665 0 0 0
1.20064 0.230187 7.00274 0 0 0
1.20064 0.230187 7.00274 0 0 0
1.37411 0.0355874 7.4136 0 0 0
1.27998 0.156754 7.1558 0 0 0
1.02869 0.500278 6.5219 0 0 0
1.55097 -0.165436 7.80123 0 0 0
1.14888 0.325036 6.80638 0 0 0
1.06769 0.418546 6.59886 0 0 0
1.06769 0.418546 6.59886 0 0 0
1.17581 0.306272 6.85329 0 0 0
1.47908 -0.0470414 7.57027 0 0 0
1.50656 -0.0647993 7.61516 0 0 0
1.48515 -0.0340731 7.56088 0 0 0
1.1777 0.329682 6.80647 0 0 0
1.1777 0.329682 6.80647 0 0 0
1.67502 -0.277888 8.01361 0 0 0
1.20332 0.309404 6.85814 0 0 0
1.26059 0.243002 6.99646 0 0 0
1.53099 -0.0716932 7.6288 0 0 0
1.09153 0.467946 6.55648 0 0 0
1.19295 0.336953 6.79916 0 0 0
1.25925 0.271679 6.91988 0 0 0
1.46885 0.0472169 7.39585 0 0 0
1.7076 -0.237688 7.93575 0 0 0
1.74283 -0.24014 7.93843 0 0 0
1.22306 0.380005 6.71 0 0 0
1.30957 0.290443 6.9048 0 0 0
1.77493 -0.276224 7.9916 0 0 0
1.5456 0.0127073 7.45371 0 0 0
0.939238 0.776861 6.03365 0 0 0
1.64086 -0.0939536 7.66943 0 0 0
1.10968 0.560786 6.41023 0 0 0
1.37387 0.231649 7.01625 0 0 0
1.37474 0.234618 7.01891 0 0 0
1.54898 0.0340422 7.4235 0 0 0
1.22262 0.408087 6.64687 0 0 0
1.76873 -0.225194 7.92465 0 0 0
1.78564 -0.249002 7.95761 0 0 0
1.5664 0.023851 7.4449 0 0 0
1.65968 -0.0869994 7.66007 0 0 0
1.00132 0.721722 6.13187 0 0 0
1.57137 0.0329739 7.42459 0 0 0
1.57137 0.0329739 7.42459 0 0 0
1.80848 -0.263978 7.97047 0 0 0
1.79937 -0.239987 7.94786 0 0 0
1.57653 0.0405845 7.42142 0 0 0
1.32883 0.327144 6.82908 0 0 0
1.05721 0.676733 6.20668 0 0 0
1.23393 0.447393 6.60904 0 0 0
1.59674 0.0202939 7.44219 0 0 0
1.01492 0.744062 6.10508 0 0 0
1.2916 0.371394 6.72601 0 0 0
1.5941 0.03857 7.42008 0 0 0
1.2691 0.407208 6.64613 0 0 0
1.2691 0.407208 6.64613 0 0 0
1.83475 -0.24422 7.94671 0 0 0
1.15788 0.575598 6.3965 0 0 0
1.01236 0.759696 6.06384 0 0 0
1.16434 0.57657 6.39754 0 0 0
1.60954 0.0456964 7.41385 0 0 0
1.16926 0.571185 6.40364 0 0 0
1.15341 0.593673 6.36164 0 0 0
0.909945 0.840526 5.78005 0 0 0
0.980651 0.811616 5.9496 0 0 0
1.24927 0.461759 6.55126 0 0 0
0.984864 0.808705 5.95546 0 0 0
0.95666 0.843266 5.89111 0 0 0
0.997202 0.80584 5.9635 0 0 0
1.02532 0.779732 6.02557 0 0 0
1.25816 0.46168 6.54008 0 0 0
1.86265 -0.213068 7.89795 0 0 0
1.64564 0.0432753 7.40825 0 0 0
1.27154 0.467353 6.54821 0 0 0
1.27154 0.467353 6.54821 0 0 0
1.01191 0.80474 5.96796 0 0 0
1.8788 -0.215905 7.89795 0 0 0
1.0395 0.796226 5.98636 0 0 0
1.18548 0.629155 6.30414 0 0 0
1.04494 0.796108 5.98097 0 0 0
1.06672 0.780617 6.01194 0 0 0
1.04863 0.802436 5.96477 0 0 0
1.08787 0.771931 6.02779 0 0 0
1.20307 0.655456 6.27478 0 0 0
1.88999 -0.155595 7.7787 0 0 0
1.98052 -0.255828 7.94744 0 0 0
1.35085 0.452487 6.54576 0 0 0
1.95344 -0.180338 7.86496 0 0 0
2.01011 -0.248927 7.94328 0 0 0
1.2403 0.648344 6.2694 0 0 0
1.29215 0.592155 6.37241 0 0 0
1.36947 0.477405 6.51455 0 0 0
1.89408 -0.0883464 7.65556 0 0 0
1.46419 0.391258 6.7237 0 0 0
1.37912 0.46529 6.52883 0 0 0
1.30507 0.591809 6.36753 0 0 0
1.19935 0.716166 6.1343 0 0 0
1.19434 0.726172 6.12402 0 0 0
1.27876 0.629088 6.29963 0 0 0
1.3131 0.594324 6.36384 0 0 0
1.40004 0.456832 6.53934 0 0 0
1.28061 0.633594 6.2907 0 0 0
1.33871 0.567502 6.41496 0 0 0
1.48493 0.386335 6.72009 0 0 0
1.4845 0.394338 6.71596 0 0 0
1.4845 0.394338 6.71596 0 0 0
1.40638 0.457717 6.53817 0 0 0
1.31682 0.598556 6.35316 0 0 0
1.31682 0.598556 6.35316 0 0 0
1.39954 0.475536 6.51907 0 0 0
1.41223 0.460055 6.53815 0 0 0
-1.33806 0.114894 7.20273 170 102 41
-1.33586 0.157793 7.07283 160 95 39
-1.33045 0.174979 7.06595 166 104 45
-1.32765 0.168545 7.06891 166 101 45
-1.32078 0.145762 7.07842 160 95 39
-1.16888 -0.105173 7.56792 173 112 47
-1.35773 0.257738 6.93821 163 97 45
-1.3024 0.150446 7.0746 162 100 43
-1.29347 0.131555 7.09383 172 106 45
-1.18616 -0.0307394 7.38276 173 117 58
-1.28268 0.14543 7.08381 180 119 52
-1.07731 -0.204396 7.71434 177 117 55
-1.27482 0.137446 7.09145 176 114 55
-1.28123 0.162919 7.07021 175 116 60
-1.26053 0.118122 7.11178 176 120 63
-1.26282 0.124399 7.10391 175 119 62
-1.17103 -0.0359513 7.38578 177 122 58
-1.23345 0.0636308 7.17842 179 125 63
-1.26915 0.148063 7.07506 175 120 63
-1.08557 -0.0161229 7.80862 182 124 61
-1.15936 -0.035787 7.39874 179 119 57
-1.20998 0.0513136 7.20933 177 121 64
-1.30832 0.257068 6.93571 178 119 63
-1.35562 0.338111 6.7889 176 116 56
-1.21638 0.0734438 7.17839 182 126 69
-1.20211 0.0568793 7.20149 177 121 64
-1.14454 -0.0394256 7.3791 172 113 55
-1.32163 0.295166 6.86907 176 117 61
-1.0232 -0.223694 7.71778 166 107 49
-1.16656 0.0175361 7.26429 160 104 47
-1.15942 0.0128917 7.27248 166 105 51
-1.2338 0.169896 7.06792 180 121 65
-1.23165 0.165786 7.07022 182 123 67
-1.28119 0.267295 6.91126 180 120 66
-1.18154 0.0914019 7.16255 169 114 60
-1.21557 0.181106 7.06007 169 114 60
-1.21557 0.181106 7.06007 169 114 60
-1.26175 0.262126 6.91802 167 114 60
-0.86532 -0.424158 8.08259 162 98 36
-0.947786 -0.28331 7.81777 168 100 37
-1.0861 -0.0555535 7.39461 171 111 59
-1.07636 -0.0594509 7.39406 162 110 60
-1.04518 -0.0989464 7.48897 149 95 57
-1.07466 -0.0554284 7.38941 155 103 63
-1.0596 -0.0758581 7.41854 148 93 54
-1.24082 0.2658 6.90517 168 115 65
-1.10635 0.0127016 7.26964 163 111 63
-0.843984 -0.40464 8.05086 164 102 45
-1.27964 0.343672 6.7766 169 113 64
-1.18976 0.197538 7.04443 170 119 66
-1.23498 0.270274 6.89571 173 120 68
-1.10897 0.0499614 7.20789 157 104 60
-1.24404 0.312339 6.83058 175 120 63
-1.16975 0.196514 7.04796 169 115 68
-1.0944 0.0386668 7.22723 154 103 60
-1.0773 0.00922386 7.26898 153 100 60
-1.0773 0.00922386 7.26898 153 100 60
-1.1544 0.182985 7.05912 174 118 67
-1.10026 0.0715336 7.17951 157 104 62
-1.06789 0.0146163 7.26502 156 105 62
-1.31583 0.464682 6.57149 144 75 33
-0.899217 -0.246585 7.74277 151 93 45
-1.30083 0.44122 6.60614 151 85 37
-1.14571 0.192417 7.04901 176 120 69
-1.14571 0.192417 7.04901 176 120 69
-1.17172 0.230786 6.95759 162 109 69
-1.19711 0.273169 6.88515 172 119 65
-1.19711 0.273169 6.88515 172 119 65
-1.11873 0.144851 7.08899 164 110 64
-1.19325 0.278104 6.88124 176 121 65
-1.08163 0.0874501 7.16105 167 111 62
-1.27527 0.428068 6.62647 165 101 39
-0.770971 -0.400387 8.03599 171 113 50
-1.10229 0.14704 7.08498 175 119 68
-1.10229 0.14704 7.08498 175 119 68
-1.17187 0.267736 6.89046 167 116 63
-1.15218 0.237266 6.94557 166 113 61
-1.16861 0.264967 6.89458 163 111 64
-1.22558 0.365543 6.73269 179 120 64
-1.14673 0.239694 6.94008 180 124 67
-1.20489 0.338859 6.77365 168 112 63
-1.21088 0.351973 6.75346 165 109 58
-1.13825 0.235945 6.94664 172 115 60
-1.14129 0.243408 6.93358 172 115 62
-1.02671 0.0369915 7.23481 168 113 59
-1.26971 0.456285 6.5737 163 95 32
-1.14665 0.258535 6.90297 174 118 67
-1.15258 0.278824 6.86856 174 122 64
-0.802691 -0.287612 7.81724 184 121 54
-1.15997 0.29997 6.82966 176 124 67
-0.991486 0.0204711 7.26234 171 116 59
-1.03298 0.114323 7.13424 176 117 61
-1.0172 0.0937003 7.16469 173 121 64
-0.967041 0.158057 7.4367 176 120 63
-1.0374 0.133533 7.11078 176 120 63
-1.1679 0.34891 6.74971 167 115 65
-0.594366 -0.54753 8.31878 175 105 33
-0.999025 0.078791 7.18269 159 105 59
-1.23327 0.468902 6.55289 154 84 33
-0.703101 -0.367488 7.96995 182 114 53
-0.986687 0.0759153 7.18262 185 124 59
-1.03039 0.161008 7.07151 162 109 59
-1.09134 0.257954 6.88615 174 121 69
-1.10314 0.287571 6.85367 176 121 67
-1.12151 0.328457 6.77276 174 122 72
-0.673748 -0.365174 7.96626 178 116 55
-0.673748 -0.365174 7.96626 178 116 55
-1.02809 0.215052 7.01583 179 119 57
-1.22235 0.510505 6.48284 161 92 33
-1.16612 0.417266 6.62817 174 119 63
-1.22445 0.51396 6.47563 161 93 32
-0.955094 0.0819955 7.16813 174 113 58
-0.98686 0.155345 7.07752 178 119 63
-0.985683 0.174269 7.07221 174 115 59
-1.19725 0.51026 6.47397 165 96 37
-0.962285 0.149183 7.08754 161 105 46
-1.10224 0.36992 6.70328 173 122 65
-1.09689 0.384408 6.67698 180 123 68
-1.06623 0.345824 6.7425 173 121 73
-0.910693 0.107607 7.14315 194 131 62
-1.08068 0.37198 6.69795 179 121 71
-1.08068 0.37198 6.69795 179 121 71
-0.966372 0.217918 7.01101 191 132 62
-1.05768 0.341803 6.74323 168 106 55
-0.861775 0.0434944 7.24492 166 103 50
-1.103 0.424024 6.6143 171 120 67
-0.954406 0.225718 7.00557 192 131 66
-0.841591 0.0289162 7.2761 171 106 50
-1.07852 0.398232 6.6542 175 114 57
-1.13359 0.486527 6.51389 162 97 39
-1.03584 0.334104 6.75431 178 118 66
-1.12577 0.491844 6.50796 146 89 36
-1.02368 0.329712 6.75874 187 127 67
-1.02368 0.329712 6.75874 187 127 67
-1.08255 0.425889 6.61083 184 124 62
-1.09098 0.4402 6.58833 177 115 58
-0.842994 0.0669368 7.21746 157 94 51
-0.935299 0.232618 6.99721 162 109 57
-1.02507 0.348011 6.73286 184 124 64
-0.503485 -0.420626 8.0879 179 112 42
-0.40627 -0.548231 8.34198 172 105 37
-1.14491 0.538824 6.41587 208 197 175
-0.991524 0.307799 6.79056 184 123 68
-1.05894 0.428302 6.60626 162 105 60
-0.88759 0.181993 7.04736 170 114 55
-0.649455 -0.182391 7.63111 182 114 49
-1.0092 0.358327 6.71418 181 121 67
-0.902769 0.225767 6.99804 162 109 59
-0.904217 0.233838 6.99418 166 110 59
-1.09891 0.505743 6.47907 208 208 200
-0.801935 0.0629427 7.23377 165 99 47
-0.967043 0.309531 6.78963 182 123 67
-0.765221 0.0234597 7.30371 185 117 52
-0.884716 0.217641 7.00967 183 122 59
-1.03803 0.430372 6.5991 206 207 193
-0.628774 -0.177573 7.62945 156 92 46
-1.04638 0.458372 6.55941 209 209 199
-1.04638 0.458372 6.55941 209 209 199
-0.82665 0.168606 7.07702 210 207 190
-1.01392 0.432702 6.59597 200 200 190
-0.759149 0.067031 7.233 170 131 92
-0.899737 0.274946 6.85078 209 206 197
-0.804743 0.165209 7.08458 207 207 195
-1.01069 0.474297 6.52668 112 161 193
-0.739547 0.0958194 7.20018 204 204 194
-0.824123 0.229206 6.99699 211 209 197
-0.722043 0.0997365 7.20073 211 209 197
-0.718081 0.103837 7.19567 211 211 201
-0.74468 0.150018 7.12297 208 208 196
-0.434668 -0.281362 7.82661 214 211 202
-0.674168 0.0611723 7.24062 172 176 151
-0.690491 0.121007 7.1886 106 109 90
-0.483575 -0.144441 7.6111 213 213 203
-0.806186 0.307226 6.79168 55 57 43
-0.802603 0.318119 6.78414 60 60 48
-0.787418 0.303765 6.80386 37 36 31
-0.851368 0.403875 6.63173 209 209 199
-0.773964 0.30288 6.80135 33 32 27
-0.81103 0.352983 6.71027 206 206 198
-0.774759 0.310246 6.7915 31 30 25
-0.769676 0.306412 6.79903 33 32 27
-0.994317 0.62048 6.24202 174 168 108
-0.928396 0.536837 6.3921 210 210 198
-0.981401 0.615544 6.24817 192 181 136
-0.822106 0.41146 6.60138 204 204 192
-0.97565 0.618186 6.24201 155 145 86
-0.977651 0.622462 6.23518 151 142 75
-0.383346 -0.143921 7.61969 116 118 94
-0.666804 0.245189 6.96283 34 35 21
-0.30996 -0.225834 7.76426 208 208 200
-0.353799 -0.165823 7.65709 211 212 206
-0.353799 -0.165823 7.65709 211 212 206
-0.965985 0.631065 6.2173 114 112 61
-0.963533 0.634097 6.21439 98 100 61
-0.360334 -0.140704 7.62044 106 104 83
-0.954804 0.632973 6.20981 94 88 64
-0.945878 0.629744 6.21425 86 90 67
-0.936141 0.61893 6.23483 95 101 63
-0.929498 0.616387 6.2389 100 107 63
-0.615477 0.244392 6.95782 166 170 137
-0.927429 0.63071 6.2123 74 77 60
-0.458431 0.092857 7.28668 127 128 110
-0.910938 0.626127 6.21678 95 106 92
-0.918283 0.636532 6.19826 113 120 104
-0.823014 0.5187 6.41218 209 209 199
-0.580142 0.248368 6.94713 155 159 132
-0.905322 0.640099 6.19503 189 189 179
-0.230123 -0.199234 7.729 209 209 199
-0.542091 0.214806 6.99484 153 157 132
-0.27243 -0.120004 7.60483 67 61 47
-0.751238 0.474476 6.4917 162 166 133
-0.240076 -0.13564 7.62452 89 84 65
-0.695704 0.41589 6.59355 126 131 111
-0.752066 0.527489 6.40021 146 148 124
-0.438904 0.20256 6.96049 97 100 73
-0.4189 -0.134019 6.79104 66 64 49
-0.4189 -0.134019 6.79104 66 64 49
-0.418608 -0.266577 6.68863 178 178 166
-0.615554 0.431551 6.56478 130 134 107
-0.606621 0.424255 6.57871 116 121 91
-0.655016 0.484223 6.47231 125 130 108
-0.418026 0.235825 6.99647 80 92 68
-0.399526 -0.329529 6.66404 193 193 183
-0.695163 0.549168 6.37221 120 123 102
-0.369421 -0.0377248 6.93137 61 58 43
-0.40629 0.180682 6.96056 94 93 73
-0.614571 0.454339 6.52689 201 205 182
-0.400615 0.166575 6.95855 67 66 48
-0.398921 0.172124 6.9579 68 67 49
-0.409537 0.252375 6.97155 94 99 79
-0.381127 -0.340544 6.65773 215 215 205
-0.373653 -0.350537 6.66236 203 203 193
-0.388739 0.155304 6.94605 58 59 43
-0.358148 0.0253132 6.94864 73 68 46
-0.576366 0.427984 6.57493 123 125 86
-0.372414 0.126584 6.92971 49 47 35
-0.369021 0.240627 6.99129 80 81 65
-0.561629 0.438521 6.55366 124 126 87
-0.370959 -0.30071 6.62079 215 213 201
-0.358787 0.241393 6.99617 75 76 62
-0.392427 0.291754 6.91247 90 92 68
-0.388136 0.295016 6.90779 88 91 64
-0.396632 -0.122393 6.53759 214 214 204
-0.587214 0.535498 6.40036 133 137 122
-0.3977 -0.154317 6.45009 74 71 64
-0.463433 0.423747 6.60519 149 152 123
-0.391652 -0.156774 6.43842 74 71 66
-0.390285 -0.159466 6.4307 71 68 63
-0.504795 0.4776 6.50407 68 67 49
-0.603462 0.600931 6.30387 82 80 42
-0.682695 0.686671 6.13117 109 112 83
-0.388802 -0.142414 6.41871 70 70 62
-0.381128 -0.172771 6.41881 73 70 63
-0.385529 -0.0419823 6.48634 37 37 25
-0.388939 -0.132788 6.41946 80 73 63
-0.388939 -0.132788 6.41946 80 73 63
-0.476131 0.478979 6.51056 77 79 57
-0.514577 0.537723 6.41718 86 85 65
-0.341135 -0.283044 6.37469 83 78 72
-0.523156 0.550362 6.39382 69 68 47
-0.317452 0.347624 6.80827 69 68 48
-0.554301 0.599488 6.30916 84 86 73
-0.257705 -0.303764 6.53917 77 74 67
-0.311865 0.167027 6.64517 66 65 47
-0.298134 0.253825 6.72424 59 56 47
-0.3342 -0.206582 6.30742 78 73 67
-0.342079 -0.183949 6.29407 73 70 65
-0.299224 0.16706 6.61601 66 67 53
-0.332976 -0.182647 6.29754 78 75 68
-0.292934 0.168432 6.60244 71 72 56
-0.252428 0.268063 6.74325 49 46 39
-0.244412 -0.251823 6.43428 80 77 72
-0.575574 0.700344 6.11935 75 73 60
-0.151297 -0.337291 6.60418 78 79 74
-0.23863 -0.246546 6.40696 75 72 67
-0.266647 0.195386 6.59441 71 69 54
-0.146748 -0.320207 6.59538 72 71 66
-0.142391 -0.333322 6.59544 72 71 66
-0.27931 0.0974931 6.47399 72 70 49
-0.133128 -0.334074 6.59289 77 76 71
-0.258301 -0.109011 6.39153 57 54 49
-0.252047 -0.147158 6.38515 60 57 52
-0.258716 -0.113657 6.3868 56 53 46
-0.247928 -0.149654 6.38562 61 58 53
-0.22517 -0.222604 6.38406 71 68 61
-0.241969 -0.152791 6.37846 62 59 54
-0.118271 -0.345702 6.58124 78 77 72
-0.233656 -0.186627 6.37784 70 67 62
-0.117315 -0.34145 6.58025 75 74 69
-0.117315 -0.34145 6.58025 75 74 69
-0.232964 -0.170004 6.37732 65 62 55
-0.232964 -0.170004 6.37732 65 62 55
-0.238391 -0.14655 6.37368 62 59 54
-0.224432 -0.20468 6.37212 74 71 66
-0.235267 -0.151215 6.37421 62 59 54
-0.113801 -0.317591 6.57878 74 73 68
-0.235095 -0.138797 6.37225 66 63 58
-0.207291 -0.213359 6.36698 82 79 74
-0.206516 -0.207237 6.36612 77 74 65
-0.171577 -0.272325 6.41375 69 70 64
-0.0905317 -0.341444 6.55884 76 76 68
-0.229001 -0.0904187 6.34906 97 96 75
-0.189357 -0.218464 6.36995 76 73 68
-0.215145 -0.136392 6.35204 71 68 63
-0.209819 -0.135502 6.34923 73 70 63
-0.183588 -0.204218 6.35806 76 73 64
-0.201385 -0.144508 6.34651 80 80 78
-0.241033 0.00564305 6.33041 150 144 130
-0.197288 -0.15307 6.34421 78 79 81
-0.122119 -0.280364 6.45732 79 79 71
-0.207987 -0.112567 6.33702 80 80 80
-0.207987 -0.112567 6.33702 80 80 80
-0.157128 -0.242484 6.38509 76 73 68
-0.15327 -0.245614 6.3866 78 75 70
-0.184264 -0.16871 6.34097 205 207 196
-0.0603739 -0.342615 6.54608 73 72 70
-0.184733 -0.152775 6.33616 182 180 167
-0.187334 -0.145393 6.33311 113 111 98
-0.204219 -0.0935584 6.317 194 195 187
-0.141574 -0.230662 6.37274 205 203 190
-0.19922 -0.089373 6.30683 196 198 185
-0.179785 -0.137279 6.32318 199 200 186
-0.206508 -0.0625802 6.28989 187 187 175
-0.232289 0.0501883 6.28602 96 96 68
-0.132751 -0.228675 6.36888 206 205 200
-0.218799 -0.00515993 6.27164 169 167 154
-0.225482 0.0444304 6.27501 103 101 78
-0.226184 0.0509067 6.27483 89 85 56
-0.136592 -0.200912 6.34994 209 209 197
-0.133295 -0.203127 6.3486 185 185 173
-0.133295 -0.203127 6.3486 185 185 173
-0.179256 -0.0900731 6.27365 212 212 200
-0.213958 0.0325123 6.24924 171 169 156
-0.134278 -0.177175 6.32304 215 215 205
-0.150604 -0.143096 6.30052 218 218 208
-0.207635 0.011521 6.23919 188 186 171
-0.15335 -0.130602 6.28607 212 212 202
-0.206738 0.0224609 6.23353 188 186 173
-0.124143 -0.182069 6.31901 215 215 207
-0.204004 0.156998 6.30703 44 42 29
-0.192355 -0.0178863 6.22666 195 195 185
-0.178702 -0.0509837 6.23177 203 203 193
-0.193311 -0.00469057 6.21967 188 189 175
-0.154834 -0.104767 6.25611 203 203 193
-0.154834 -0.104767 6.25611 203 203 193
-0.134002 -0.144483 6.28306 202 202 192
-0.165798 -0.076096 6.24405 199 199 189
-0.140873 -0.128214 6.2726 200 200 190
-0.186536 -0.0215892 6.22096 198 198 188
-0.109584 -0.18312 6.31662 205 205 193
-0.203474 0.0879079 6.23703 136 134 122
-0.1156 -0.171253 6.30446 202 202 192
-0.153356 -0.098843 6.25344 203 203 193
-0.104532 -0.186456 6.31803 204 204 194
-0.197638 0.0338481 6.21145 192 190 177
-0.198488 0.0698917 6.22121 175 172 157
-0.18348 -0.0113335 6.21073 201 201 191
-0.156231 -0.0770772 6.22833 201 201 191
-0.157433 -0.0705537 6.22577 201 201 191
-0.188307 0.0475703 6.19889 189 190 176
-0.126048 -0.124233 6.24858 203 203 193
-0.130646 -0.111612 6.24232 204 204 194
-0.185722 0.047029 6.19632 191 192 178
-0.182887 0.0312476 6.19222 190 190 178
-0.0898764 -0.171425 6.29187 202 202 192
-0.137094 -0.0885426 6.22112 202 202 192
-0.141649 -0.0716312 6.21629 199 199 189
-0.180516 0.0941068 6.20297 178 179 163
-0.120674 -0.108382 6.22532 200 200 190
-0.14989 -0.0380241 6.19227 201 201 191
-0.172236 0.0537461 6.18062 192 190 178
-0.170088 0.0432921 6.17732 198 196 184
-0.0989025 -0.140529 6.24524 202 202 192
-0.110128 -0.110108 6.21993 204 204 194
-0.162526 0.0281705 6.17045 196 196 184
-0.158338 0.0120916 6.17137 201 201 191
-0.167504 0.0780161 6.18084 194 194 182
-0.12041 -0.0746759 6.19944 205 205 193
-0.107474 -0.101737 6.21501 204 204 194
-0.151893 0.0119942 6.16767 191 191 183
-0.0807116 -0.147469 6.24689 205 205 195
-0.0958725 -0.120954 6.22225 200 200 188
-0.0958725 -0.120954 6.22225 200 200 188
-0.129981 -0.0434864 6.18251 203 203 193
-0.0843974 -0.131418 6.22809 203 204 190
-0.0843974 -0.131418 6.22809 203 204 190
-0.0742608 -0.14027 6.23032 200 200 190
-0.125466 -0.0237839 6.16629 191 192 186
-0.0983111 -0.0873376 6.19469 186 184 169
-0.116818 -0.0396357 6.17087 194 194 184
