ply
format ascii 1.0 
element vertex 1317
property float32 x 
property float32 y 
property float32 z
property uchar red  
property uchar green
property uchar blue
element face 0
property list uchar int vertex_indices
end_header
-0.758424 0.029433 6.73995 216 213 204
-0.713301 0.259713 6.34778 100 101 83
-0.660318 0.533121 5.89513 44 45 37
-0.761154 -0.0150063 6.81003 210 210 200
-0.718413 0.196751 6.51425 23 22 17
-0.652831 0.50816 5.93399 137 139 102
-0.668546 0.408614 6.08419 129 131 109
-0.69626 0.262256 6.34466 94 96 75
-0.645582 0.542281 5.88457 119 118 98
-0.645582 0.542281 5.88457 119 118 98
-0.741514 0.00821495 6.80411 203 203 193
-0.723498 0.111267 6.63991 119 117 92
-0.72741 0.0664014 6.70242 210 210 198
-0.697528 0.198308 6.5097 22 22 14
-0.697528 0.198308 6.5097 22 22 14
-0.665846 0.3108 6.25885 114 116 94
-0.722152 0.000716479 6.80216 211 211 201
-0.718117 0.0132103 6.7767 213 213 203
-0.636045 0.438727 6.03429 146 151 121
-0.638338 0.413313 6.07642 124 128 105
-0.818981 -0.595619 7.82497 203 196 190
-0.678974 0.19925 6.50334 31 31 21
-0.621969 0.483236 5.96407 124 127 110
-0.698201 0.0665516 6.7172 214 214 204
-0.809715 -0.577533 7.80504 142 103 72
-0.583838 0.680243 5.64364 216 213 204
-0.585629 0.64769 5.7022 214 215 201
-0.683447 0.0770425 6.69868 214 212 200
-0.714181 -0.183801 7.06269 192 148 85
-0.70673 -0.144798 7.01872 204 165 90
-0.593448 0.459816 6.0059 134 139 117
-0.638448 0.201835 6.49708 30 30 22
-0.585084 0.405417 6.09143 123 130 112
-0.591998 0.353269 6.17599 134 139 117
-0.645223 0.0770389 6.73859 135 121 48
-0.555119 0.512272 5.93752 115 119 96
-0.562927 0.409635 6.08598 123 127 92
-0.618985 0.119277 6.70193 106 105 77
-0.536723 0.556158 5.87645 118 122 107
-0.536723 0.556158 5.87645 118 122 107
-0.542608 0.500035 5.95947 165 170 140
-0.548344 0.426369 6.06131 162 168 122
-0.53346 0.531156 5.91748 137 141 124
-0.528168 0.55765 5.8714 127 131 108
-0.561476 0.317333 6.26304 117 117 89
-0.537732 0.458849 6.02261 118 119 101
-0.523909 0.504225 5.95967 87 94 76
-0.513555 0.534462 5.91301 168 172 147
-0.513555 0.534462 5.91301 168 172 147
-0.526588 0.416681 6.0789 129 130 98
-0.507982 0.435236 6.05629 92 99 66
-0.499448 0.504789 5.96318 142 147 124
-0.499448 0.504789 5.96318 142 147 124
-0.532747 0.208866 6.47989 76 74 49
-0.499983 0.4149 6.08689 87 86 55
-0.49432 0.408363 6.09409 108 109 78
-0.48808 0.471484 6.01729 134 140 114
-0.582563 -0.244721 7.18729 126 100 75
-0.524441 0.216136 6.47143 70 67 50
-0.489394 0.418159 6.08221 78 82 47
-0.490189 0.394095 6.12186 117 120 91
-0.490189 0.394095 6.12186 117 120 91
-0.516081 0.186448 6.51575 72 71 50
-0.47825 0.404182 6.10619 92 95 66
-0.604233 -0.572235 7.79107 104 91 74
-0.47263 0.397918 6.11624 100 100 74
-0.556151 -0.252116 7.20185 120 111 78
-0.466758 0.431124 6.07342 76 78 54
-0.466758 0.431124 6.07342 76 78 54
-0.595972 -0.563953 7.77724 116 95 74
-0.465732 0.419792 6.08241 81 80 59
-0.594336 -0.598483 7.83404 116 116 118
-0.462369 0.412855 6.09779 94 95 64
-0.579986 -0.575676 7.79877 117 104 96
-0.570434 -0.562844 7.77127 174 172 173
-0.553853 -0.582284 7.81257 209 208 203
-0.439277 0.343016 6.24788 69 68 50
-0.44531 0.22597 6.46994 71 67 55
-0.534827 -0.5607 7.77485 180 175 172
-0.447871 0.191801 6.52477 41 41 29
-0.52522 -0.555451 7.76628 148 129 112
-0.429073 0.216415 6.50647 84 79 59
-0.427176 0.168969 6.49049 64 62 49
-0.424994 0.234349 6.46279 70 67 50
-0.424232 0.211075 6.50447 59 53 41
-0.415066 0.258167 6.44113 68 67 46
-0.500081 -0.569861 7.78908 189 189 179
-0.415704 0.210331 6.50935 66 61 42
-0.408458 0.14592 6.48906 98 98 60
-0.401495 0.24942 6.45276 91 91 65
-0.403005 0.141622 6.49495 80 81 50
-0.397707 0.25373 6.44635 81 80 59
-0.390544 0.250466 6.44957 87 82 62
-0.353968 -0.191688 5.85008 89 90 84
-0.348785 -0.198657 5.84595 101 101 99
-0.380452 0.101358 6.47509 103 101 76
-0.380452 0.101358 6.47509 103 101 76
-0.329846 -0.203596 5.83986 200 200 190
-0.316787 -0.24391 5.85145 179 179 169
-0.334621 0.292602 6.35787 43 44 28
-0.399072 -0.540415 7.75639 205 205 193
-0.292176 -0.309052 6.08276 204 204 194
-0.299468 0.214225 6.27238 84 83 63
-0.363458 -0.551383 7.77371 208 206 193
-0.277008 -0.33799 6.09051 193 192 174
-0.274853 -0.283464 6.07251 207 206 188
-0.266012 -0.147811 5.93728 202 202 192
-0.27092 0.165885 6.15685 101 101 77
-0.256068 -0.155191 5.92806 204 204 192
-0.255039 -0.172584 5.93157 207 204 185
-0.259966 -0.309346 6.06307 109 105 93
-0.25414 -0.165347 5.92873 204 204 192
-0.254487 -0.223638 5.93594 197 195 180
-0.334425 -0.564955 7.8054 208 208 198
-0.247094 -0.195217 5.92825 207 204 199
-0.246947 -0.212736 5.92851 181 179 167
-0.244284 -0.166777 5.92245 205 205 193
-0.241441 -0.145379 5.91441 204 204 194
-0.240158 -0.255494 5.93625 209 211 200
-0.240172 -0.25537 5.93643 209 211 200
-0.23895 -0.155395 5.91611 206 206 196
-0.299852 -0.556964 7.79975 196 196 188
-0.227108 -0.194588 5.91322 208 208 200
-0.22667 -0.198297 5.91173 206 206 196
-0.226626 -0.255138 5.9277 151 151 139
-0.220898 -0.19918 5.9096 208 209 195
-0.220235 -0.268327 5.93521 203 204 190
-0.220235 -0.268327 5.93521 203 204 190
-0.217511 -0.246939 5.92257 208 206 193
-0.216007 -0.161021 5.89743 208 209 193
-0.21466 -0.224349 5.91076 210 207 198
-0.214529 -0.224419 5.9128 210 207 198
-0.280731 -0.551487 7.78993 204 202 189
-0.212409 -0.236527 5.91418 188 186 173
-0.210835 -0.227282 5.9086 192 191 173
-0.208224 -0.224044 5.90826 207 205 192
-0.20567 -0.234382 5.91089 181 181 171
-0.200328 -0.0337197 5.7784 206 206 196
-0.20198 -0.173408 5.89118 171 172 158
-0.20057 -0.226661 5.90731 190 190 178
-0.191592 0.0190032 5.7559 206 206 194
-0.194993 -0.169408 5.887 207 207 199
-0.190314 0.000366813 5.75431 201 201 189
-0.196174 -0.275687 5.94092 198 198 190
-0.189906 0.0221832 5.75409 206 206 196
-0.190186 -0.0474242 5.77082 147 148 134
-0.19381 -0.21832 5.90241 158 156 144
-0.193711 -0.230969 5.90682 192 192 180
-0.186225 -0.00264909 5.75096 189 189 177
-0.186659 -0.0446375 5.76613 209 210 194
-0.190191 -0.27258 5.93624 160 160 150
-0.187752 -0.28685 5.95194 186 186 174
-0.185328 -0.168674 5.87567 202 203 187
-0.180547 0.0222454 5.74332 196 196 184
-0.175484 0.0105322 5.737 173 170 161
-0.173317 -0.00389466 5.73807 204 202 189
-0.173317 -0.00389466 5.73807 204 202 189
-0.172748 -0.0282044 5.74088 200 200 190
-0.171476 -0.0407462 5.74719 201 202 188
-0.174291 -0.201793 5.88796 206 206 196
-0.163668 -0.108419 5.78962 201 201 189
-0.172704 -0.349398 6.13738 195 192 183
-0.166952 -0.273437 5.9345 210 210 198
-0.161104 -0.0532837 5.74531 161 162 148
-0.162493 -0.130942 5.81256 210 210 198
-0.160039 0.0245524 5.72166 190 190 178
-0.171278 -0.336508 6.13296 201 199 186
-0.163672 -0.268328 5.93074 208 208 196
-0.157673 0.0299942 5.72178 178 178 166
-0.160332 -0.28157 5.94116 202 202 190
-0.155728 -0.113297 5.78435 176 177 163
-0.154808 -0.0777521 5.75497 212 210 198
-0.164919 -0.338073 6.13357 211 208 199
-0.153673 -0.0127164 5.72336 203 201 186
-0.153483 0.0273543 5.71867 189 190 176
-0.15359 -0.0294595 5.72908 161 159 147
-0.158196 -0.234652 5.91697 206 206 196
-0.159355 0.512298 5.96219 80 79 59
-0.153101 -0.0935042 5.76491 166 166 158
-0.151309 0.0325106 5.71704 195 196 182
-0.156877 -0.269103 5.93123 207 207 195
-0.148981 -0.0153331 5.71832 202 200 185
-0.148815 -0.0313963 5.72405 202 200 188
-0.148281 0.0198678 5.71222 199 197 185
-0.148314 0.0198786 5.71153 199 197 185
-0.157936 -0.347999 6.13361 208 208 198
-0.146831 0.0251033 5.71181 199 197 182
-0.146831 0.0251033 5.71181 199 197 182
-0.147398 -0.0590831 5.73936 208 208 198
-0.152444 -0.278885 5.94032 196 194 182
-0.150333 -0.1823 5.85826 208 208 196
-0.146514 0.0321862 5.71344 200 197 188
-0.156193 -0.35019 6.12585 207 208 194
-0.148181 -0.229266 5.89812 206 206 194
-0.148191 -0.229248 5.89809 206 206 194
-0.153007 -0.357389 6.13035 211 209 197
-0.142213 -0.042123 5.72333 200 200 190
-0.146568 -0.234396 5.90387 206 204 192
-0.141413 -0.00554505 5.71149 179 179 167
-0.14143 -0.00559405 5.71094 179 179 167
-0.141532 -0.109652 5.76962 200 200 188
-0.149501 -0.348678 6.12277 195 196 180
-0.143172 -0.222665 5.89148 202 203 189
-0.138467 -0.11903 5.77591 206 206 196
-0.140963 -0.22624 5.89306 202 202 190
-0.136343 -0.0333603 5.71631 204 204 194
-0.144495 -0.358018 6.12256 173 174 166
-0.134455 0.0423636 5.70146 177 177 165
-0.143781 -0.362885 6.1222 190 191 185
-0.14355 -0.363105 6.12553 190 191 185
-0.13348 -0.0370344 5.71505 205 205 195
-0.133081 -0.0313643 5.7114 203 203 193
-0.132203 -0.0506018 5.7215 203 203 193
-0.131618 -0.0413152 5.71518 205 205 195
-0.135592 -0.263427 5.92531 162 162 152
-0.134562 -0.259645 5.92482 205 204 199
-0.128642 0.0472674 5.69654 150 146 134
-0.13232 -0.237839 5.90214 193 194 180
-0.129706 -0.179167 5.83197 208 208 198
-0.126421 -0.0497193 5.71326 207 207 197
-0.125957 0.0271996 5.69212 200 200 190
-0.134599 -0.36059 6.1177 148 146 131
-0.129696 -0.284553 5.94586 201 204 193
-0.124472 0.653719 5.72055 64 63 45
-0.132916 -0.372004 6.1175 174 173 171
-0.133098 -0.371857 6.11516 174 173 171
-0.128353 -0.242892 5.90982 208 209 195
-0.13235 -0.362716 6.1142 150 148 133
-0.13235 -0.362716 6.1142 150 148 133
-0.121034 -0.0613577 5.71375 176 176 164
-0.121477 -0.0795491 5.72879 173 170 161
-0.123833 0.556131 5.90845 107 100 82
-0.120552 -0.128203 5.76936 194 195 181
-0.120544 -0.245241 5.90956 198 198 186
-0.120544 -0.245241 5.90956 198 198 186
-0.115135 0.0732784 5.68593 211 211 201
-0.112205 0.0600804 5.67963 209 209 199
-0.112524 0.656405 5.71723 68 62 46
-0.111612 0.073823 5.68009 213 213 203
-0.11115 -0.0443653 5.69251 195 195 185
-0.115504 0.546572 5.91455 101 92 75
-0.114954 -0.239751 5.9049 195 197 186
-0.114018 0.558795 5.9069 109 100 83
-0.110616 -0.165898 5.80204 212 210 197
-0.108638 0.190248 5.70426 196 194 181
-0.107449 0.0807021 5.67727 211 211 201
-0.107674 0.18504 5.70316 198 196 183
-0.107103 0.0771701 5.67697 208 208 198
-0.107648 -0.127595 5.75577 201 199 184
-0.108905 -0.18582 5.8292 204 204 194
-0.106296 0.673612 5.69462 65 64 44
-0.112719 -0.374506 6.09826 214 214 204
-0.111936 -0.360592 6.09844 212 212 202
-0.100755 0.661059 5.71053 50 47 38
-0.0977058 -0.0082164 5.64204 162 162 152
-0.0952434 0.198804 5.69162 194 194 182
-0.0952352 0.198892 5.69219 194 194 182
-0.0966589 -0.20235 5.84105 212 212 204
-0.0906976 0.689887 5.65763 66 65 47
-0.0876949 -0.0032222 5.63178 202 198 186
-0.0853425 0.0110666 5.63097 211 212 198
-0.0865399 0.640377 5.74305 93 89 78
-0.0865399 0.640377 5.74305 93 89 78
-0.0889028 -0.253403 5.93674 212 212 202
-0.0849021 0.186293 5.68201 199 199 187
-0.0861299 0.610883 5.80489 112 107 87
-0.0861299 0.610883 5.80489 112 107 87
-0.0819014 0.0794804 5.64727 212 210 198
-0.0881878 -0.361878 6.08672 211 212 198
-0.0882181 -0.361832 6.08617 211 212 198
-0.0783489 0.675129 5.68071 93 90 71
-0.0834693 -0.361963 6.07799 212 213 199
-0.0833229 -0.370152 6.07677 194 192 177
-0.0833229 -0.370152 6.07677 194 192 177
-0.075918 0.366933 5.76679 83 77 61
-0.0732472 -0.00328355 5.62407 210 210 198
-0.0768472 -0.375494 6.07962 215 213 201
-0.0731596 0.428402 5.81193 68 66 53
-0.073141 0.428364 5.81211 68 66 53
-0.0688813 0.00323189 5.62181 200 197 178
-0.0691577 0.658194 5.70974 95 88 70
-0.0670508 -0.000628291 5.62152 157 156 152
-0.0672389 -0.000560721 5.61974 157 156 152
-0.0674627 -0.0818715 5.6672 183 180 173
-0.0678447 0.444567 5.82409 79 81 60
-0.0649766 0.080153 5.63118 212 212 202
-0.0632193 0.0585584 5.62573 215 213 201
-0.0630967 0.205421 5.67381 199 199 189
-0.0617555 0.0445269 5.62148 212 212 202
-0.0604958 0.0836308 5.62778 210 210 200
-0.0604497 0.054208 5.62475 214 214 204
-0.0604158 0.0773954 5.62662 212 212 202
-0.0603038 0.0324873 5.62078 211 211 201
-0.0616996 -0.158025 5.75846 214 215 201
-0.0616996 -0.158025 5.75846 214 215 201
-0.0592932 0.0472376 5.6231 212 212 202
-0.0598435 0.368921 5.75735 93 90 73
-0.0580177 0.025972 5.61961 211 211 201
-0.0585736 -0.160149 5.76115 206 205 187
-0.0570551 0.157646 5.64284 210 210 200
-0.0559318 0.0879306 5.62387 209 209 199
-0.0561636 -0.0763537 5.65566 217 215 202
-0.0556189 0.0438716 5.62039 212 212 202
-0.0581666 0.569197 5.88984 98 91 73
-0.0560566 0.641639 5.74306 112 106 92
-0.0548143 0.160212 5.64087 210 210 200
-0.0551152 0.635657 5.75595 59 57 42
-0.0537853 0.100483 5.62582 212 212 202
-0.0527202 0.0740338 5.62159 210 210 200
-0.0535197 0.643866 5.73998 79 73 59
-0.0518415 0.0776908 5.62093 213 213 203
-0.0517506 -0.00834971 5.62055 148 146 133
-0.0516719 -0.00611967 5.61964 183 181 169
-0.05143 0.0688865 5.61705 215 212 203
-0.05143 0.0688865 5.61705 215 212 203
-0.0512345 0.103022 5.62494 210 210 200
-0.0514112 0.404897 5.77625 70 70 58
-0.0494868 0.0333534 5.61725 213 213 203
-0.0496366 -0.0277415 5.62207 212 212 204
-0.0496366 -0.0277415 5.62207 212 212 204
-0.0494329 0.686872 5.65888 63 63 53
-0.0498122 0.642634 5.74081 108 105 90
-0.0479465 0.741126 5.56401 125 128 97
-0.0489521 -0.13917 5.72916 213 213 203
-0.0469719 0.157037 5.63667 211 211 201
-0.0473996 -0.116076 5.69866 157 157 147
-0.0455485 0.07573 5.61685 211 211 201
-0.0454457 0.00523852 5.62135 221 221 211
-0.0430573 0.745219 5.55917 115 115 89
-0.0434215 0.0221212 5.61361 213 213 203
-0.0424673 0.044947 5.61384 212 212 202
-0.0447501 0.566408 5.89192 94 89 70
-0.0418292 0.0597818 5.61389 210 210 200
-0.0419757 0.209222 5.6588 208 208 196
-0.0425459 -0.390115 6.06441 192 190 177
-0.0390561 0.0993286 5.61714 215 213 201
-0.0384224 0.0548966 5.61262 212 212 202
-0.0382879 -0.174445 5.76093 208 210 197
-0.0371472 -0.0877439 5.65244 216 214 201
-0.0371472 -0.0877439 5.65244 216 214 201
-0.0366009 -0.0423608 5.63004 210 207 200
-0.0341002 0.153415 5.62349 216 216 206
-0.0340311 0.153401 5.62397 216 216 206
-0.0339336 0.0717386 5.6118 208 208 198
-0.033481 -0.00649727 5.62061 199 201 190
-0.0328254 0.0329407 5.61508 217 214 205
-0.0301814 0.00821378 5.61624 201 198 189
-0.0301814 0.00821378 5.61624 201 198 189
-0.029686 0.0288514 5.61329 210 207 198
-0.0296647 -0.0180247 5.62393 217 215 202
-0.0285799 -0.000976652 5.61886 214 213 192
-0.0279757 0.100406 5.61047 211 209 197
-0.0275423 -0.151288 5.72197 182 179 162
-0.0266678 -0.0138472 5.62114 212 208 197
-0.0267415 -0.0570206 5.63459 209 210 202
-0.0266573 -0.00419625 5.61749 190 187 168
-0.0266573 -0.00419625 5.61749 190 187 168
-0.0261991 -0.0761341 5.6444 186 184 171
-0.0259304 0.688358 5.65641 60 60 48
-0.0253887 -0.0631366 5.63673 171 168 151
-0.0251132 0.118936 5.61228 211 211 201
-0.0235635 -0.0160596 5.62112 212 210 198
-0.023528 0.0442892 5.61524 212 212 202
-0.0231733 0.695598 5.64463 65 67 56
-0.0221796 0.0399963 5.61038 212 212 202
-0.0219849 -0.0646095 5.63847 126 122 110
-0.0214729 0.0676505 5.60631 209 209 199
-0.020922 0.0810605 5.60764 209 209 199
-0.022246 0.546725 5.92716 88 81 63
-0.0208424 0.202251 5.63714 208 208 198
-0.0208379 -0.0742291 5.64587 174 171 162
-0.0204101 0.0553735 5.60849 212 212 202
-0.0201145 0.129786 5.61033 211 211 201
-0.0199018 0.0449048 5.61053 211 211 201
-0.0192043 0.149956 5.61391 212 212 202
-0.0192043 0.149956 5.61391 212 212 202
-0.019946 0.544125 5.93033 91 84 68
-0.0183328 0.14566 5.61538 212 212 202
-0.0181292 0.0488602 5.60895 211 211 201
-0.0177444 -0.0542665 5.63139 181 182 174
-0.0179755 0.545212 5.9309 90 83 67
-0.0179323 0.539234 5.94032 89 82 64
-0.0167172 0.0553924 5.60544 213 213 203
-0.0164351 0.0349982 5.61229 210 210 200
-0.0164576 0.0345844 5.61099 210 210 200
-0.0152728 -0.0724572 5.64208 224 221 212
-0.0148488 0.166144 5.61859 211 211 201
-0.0149526 0.694719 5.64512 67 68 52
-0.0147776 0.0949262 5.60972 207 205 193
-0.0147235 0.128166 5.60994 210 210 200
-0.0144 -0.0507321 5.63249 209 207 194
-0.0138681 0.747473 5.55257 111 107 78
-0.01358 0.0535153 5.60749 212 212 202
-0.0133899 0.13625 5.61015 210 210 200
-0.0132682 0.0397331 5.61009 210 210 200
-0.0128164 0.045404 5.60941 210 210 200
-0.0122672 -0.13763 5.69423 214 214 204
-0.0122432 -0.137613 5.69464 214 214 204
-0.0115295 0.0101445 5.6136 212 209 200
-0.0111757 0.0296992 5.61084 209 209 199
-0.0111249 0.0297562 5.61168 209 209 199
-0.0110981 0.130026 5.60888 208 208 198
-0.0101318 0.746255 5.55513 82 84 62
-0.0103484 0.0820212 5.60429 208 208 198
-0.00964235 0.169281 5.61875 211 211 201
-0.00931859 0.0688554 5.60811 208 208 198
-0.00851351 0.570313 5.88956 55 51 40
-0.00762196 0.0399741 5.60774 212 212 200
-0.00762196 0.0399741 5.60774 212 212 200
-0.0071231 -0.0285467 5.62596 207 205 192
-0.0066801 0.111956 5.60649 205 205 195
-0.0055946 0.0876827 5.6049 185 183 171
-0.00542259 -0.103748 5.65863 219 217 205
-0.00435187 0.073871 5.60421 215 213 201
-0.00450981 0.570337 5.89188 47 43 31
-0.00404976 0.00481765 5.61518 210 210 200
-0.00435663 -0.370632 6.03648 223 220 211
-0.00403187 0.682233 5.64875 93 94 80
-0.00164461 0.742431 5.56115 87 90 63
-0.00162706 0.0454539 5.60824 209 209 197
-0.000825832 0.10175 5.6035 205 205 195
-0.000825832 0.10175 5.6035 205 205 195
-0.000823578 -0.0677765 5.63861 218 214 202
-0.00036274 -0.145286 5.68978 216 214 202
-0.000196642 -0.00371259 5.61644 217 215 203
0.000345149 -0.0295015 5.62698 217 215 202
0.000544123 0.0323397 5.60911 211 208 199
0.000826247 0.0695168 5.60828 210 210 198
0.000568455 0.0693953 5.6052 210 210 198
0.00141217 0.576211 5.88526 95 87 74
0.0015365 -0.127285 5.67502 217 215 202
0.00174662 -0.0368725 5.62847 176 174 162
0.00299206 -0.00625778 5.61717 215 211 199
0.00396851 -0.0387322 5.6274 213 210 201
0.00388894 0.0624213 5.6039 211 211 199
0.00711546 0.574833 5.88456 97 90 74
0.00693078 0.0343339 5.60739 212 209 200
0.00691608 0.0693638 5.60094 210 210 198
0.00720932 -0.0688399 5.63754 170 166 154
0.00764912 0.147497 5.60629 209 209 199
0.00787012 -0.0943017 5.65065 219 215 214
0.00802884 -0.0244483 5.62301 198 194 191
0.00939024 0.106387 5.60119 205 203 191
0.0102305 -0.0855836 5.64676 219 219 209
0.0104056 0.00500667 5.6148 211 211 201
0.0111955 -0.098762 5.65183 210 206 197
0.0112523 -0.121501 5.66517 214 213 195
0.0121315 0.624749 5.78944 104 99 79
0.0121315 0.624749 5.78944 104 99 79
0.0132982 0.0373769 5.6073 211 208 199
0.0135032 -0.0115414 5.61949 215 212 203
0.0135447 0.0447199 5.60897 209 209 199
0.0142617 -0.0929796 5.65031 223 221 209
0.0146621 0.0578291 5.6026 212 210 198
0.0158979 -0.363145 6.02661 212 209 200
0.0152298 -0.102664 5.65344 210 207 198
0.016322 -0.369273 6.03524 216 213 204
0.016336 -0.359089 6.03001 215 212 203
0.0154263 -0.11496 5.66052 195 192 183
0.0153914 0.0322097 5.61115 209 206 197
0.0167933 -0.351567 6.03035 216 213 204
0.0167484 -0.0209496 5.62112 209 206 197
0.0172443 -0.0153515 5.62093 217 214 205
0.0172733 0.135195 5.60513 208 208 198
0.0172086 0.135157 5.60398 208 208 198
0.0175426 0.0762377 5.60079 204 202 190
0.0176203 0.0764686 5.60162 204 202 190
0.0184706 0.518901 5.97401 75 71 59
0.0183951 0.54997 5.9234 65 62 47
0.0177607 0.674845 5.68808 53 53 45
0.0178219 0.673653 5.69103 55 52 43
0.0200772 0.495904 6.01117 77 70 60
0.0201802 -0.359978 6.02984 216 213 204
0.0195493 -0.0562776 5.63195 209 206 197
0.020213 0.638595 5.76075 104 99 80
0.0200289 0.0507979 5.60404 209 209 199
0.020209 -0.0265286 5.62284 169 167 155
0.020209 -0.0265286 5.62284 169 167 155
0.0203124 -0.102862 5.65102 205 204 199
0.0203124 -0.102862 5.65102 205 204 199
0.0202343 0.0398125 5.60391 211 211 201
0.0209254 0.125164 5.6026 205 205 195
0.0208868 0.0986135 5.59636 211 209 197
0.0208868 0.0986135 5.59636 211 209 197
0.021669 0.0593331 5.60247 212 210 198
0.0223496 0.068933 5.59989 184 182 170
0.022603 -0.0870215 5.64269 189 187 175
0.0230021 -0.0808026 5.64001 215 212 203
0.0232584 0.0431965 5.60477 212 212 202
0.0246805 0.523157 5.96511 88 81 65
0.0234657 -0.00329097 5.61824 214 211 202
0.0253916 0.578757 5.87814 57 55 43
0.024507 -0.10128 5.64986 205 205 193
0.0251353 0.688512 5.67944 61 60 55
0.025201 0.0478652 5.60431 211 211 201
0.0254319 -0.066662 5.63468 215 213 201
0.0256152 0.0999641 5.59802 212 210 198
0.0268493 0.614315 5.80204 76 73 64
0.0274194 0.094441 5.59567 210 210 200
0.0295508 0.521604 5.96892 85 77 64
0.030454 -0.344406 6.02913 215 213 201
0.0283884 -0.0935157 5.64562 215 212 203
0.0286361 0.041063 5.60544 212 209 200
0.0304393 -0.0166826 5.61917 211 211 201
0.0327241 0.551445 5.9192 97 85 69
0.0329491 0.578573 5.87973 100 95 76
0.0329491 0.578573 5.87973 100 95 76
0.0331826 0.632517 5.77039 111 104 86
0.0336412 0.626626 5.77925 95 89 73
0.033775 0.0187207 5.61009 212 209 200
0.033775 0.0187207 5.61009 212 209 200
0.0356833 0.574269 5.88391 98 93 73
0.0340233 0.0796679 5.59474 208 208 198
0.0369332 -0.3417 6.02456 215 213 201
0.0347346 0.0278891 5.6078 207 205 193
0.0355109 -0.000234131 5.61424 210 210 200
0.0355526 0.0691538 5.59753 211 209 197
0.0361756 -0.0507854 5.62758 211 211 201
0.0396042 0.557837 5.91276 49 47 34
0.0379796 -0.0902667 5.64057 214 211 202
0.0390707 0.640855 5.76738 116 111 92
0.0382494 0.0314773 5.60627 212 210 198
0.038463 0.062035 5.59873 143 141 129
0.0385182 0.080309 5.59512 212 212 202
0.0388941 -0.0584363 5.63122 212 212 200
0.0402668 -0.00249329 5.61457 213 213 203
0.0408763 -0.0937718 5.643 213 211 199
0.0405396 0.1039 5.59375 212 212 202
0.0405396 0.1039 5.59375 212 212 202
0.0411443 0.703183 5.63808 69 69 61
0.0419056 0.0221325 5.60919 211 209 197
0.0428468 0.679121 5.68521 54 55 41
0.0448442 0.555483 5.91459 40 36 25
0.0448442 0.555483 5.91459 40 36 25
0.0462266 0.491977 6.01814 91 84 76
0.0433843 0.0366162 5.60315 210 208 196
0.0461976 0.51897 5.97261 68 64 53
0.0443613 -0.0123899 5.61757 214 212 200
0.0448794 -0.00622304 5.61542 215 213 201
0.0486688 0.462001 6.06323 92 86 74
0.0473167 0.580434 5.8762 99 95 83
0.0473167 0.580434 5.8762 99 95 83
0.046317 -0.0516707 5.62581 219 220 206
0.0488553 0.553635 5.91756 110 107 92
0.0476444 -0.0194424 5.61935 215 213 201
0.0504892 0.62941 5.78357 51 46 27
0.0502649 0.629267 5.78099 51 46 27
0.0486374 0.758715 5.52806 184 180 171
0.049653 -0.0584637 5.63089 178 177 159
0.0497273 0.129472 5.59982 210 210 200
0.0499913 0.0185788 5.60719 210 210 200
0.0500968 0.00778008 5.61173 214 214 204
0.0500348 0.0251748 5.60505 211 209 197
0.0507496 0.0670435 5.59773 212 210 198
0.0515923 -0.0403936 5.62455 217 214 199
0.0513472 0.0710676 5.59542 213 211 199
0.0519822 0.755517 5.53376 93 89 78
0.0540596 -0.058608 5.62989 141 138 131
0.0540444 -0.0319478 5.6263 210 208 196
0.0539721 0.140609 5.60195 208 208 198
0.0539186 0.0911699 5.59389 209 209 199
0.0567381 0.574783 5.8831 123 119 108
0.0544865 0.0679979 5.59645 211 209 197
0.0564016 -0.0501124 5.62665 172 169 160
0.0591859 0.58005 5.87472 128 125 110
0.0560042 0.757883 5.53201 149 145 136
0.0598672 -0.0793821 5.62982 215 213 201
0.059993 0.0109806 5.61195 214 214 204
0.0601729 0.0311218 5.60505 210 208 196
0.0604472 -0.037905 5.62267 209 210 202
0.0604821 -0.0379394 5.62304 209 210 202
0.0603818 -0.0177656 5.61432 216 214 202
0.0637399 0.555761 5.91064 131 128 111
0.0608611 -0.00736749 5.61419 214 212 200
0.0602787 0.756106 5.53257 129 127 114
0.0612902 0.0258627 5.60664 214 211 202
0.0617071 0.0116825 5.60993 217 214 205
0.0616671 0.75888 5.52863 174 172 159
0.0661416 0.575565 5.88259 141 138 123
0.0629113 0.0982113 5.59322 211 208 199
0.063477 -0.0345893 5.6244 214 211 202
0.0635897 -0.0208408 5.61774 215 212 203
0.0636691 0.0938771 5.59242 210 207 198
0.0638459 0.102659 5.59347 211 208 199
0.0690588 0.470978 6.04979 147 144 127
0.0675976 0.634761 5.77596 147 141 127
0.0655343 0.747431 5.54683 59 60 46
0.0680536 -0.0385268 5.62163 213 210 201
0.0680536 -0.0385268 5.62163 213 210 201
0.0682318 0.00679251 5.61097 213 210 201
0.0677691 0.0279044 5.60415 211 208 199
0.0681247 0.0279224 5.60739 211 208 199
0.0692602 0.123105 5.59684 203 200 191
0.0692602 0.123105 5.59684 203 200 191
0.0703036 0.12 5.59156 208 205 196
0.0711649 0.103217 5.59463 209 206 197
0.0718194 0.0974864 5.5932 206 203 194
0.0750953 0.647357 5.76396 162 157 137
0.0731397 0.74868 5.54651 21 18 13
0.0740076 0.0349979 5.60195 215 212 203
0.078836 0.568358 5.88961 67 64 59
0.0780832 0.640479 5.76649 169 165 138
0.0779374 0.640166 5.76454 169 165 138
0.0761485 0.0224244 5.60566 213 210 201
0.0819767 0.505866 5.99863 170 170 158
0.0815444 0.579566 5.8756 138 136 121
0.0792891 0.0592592 5.59537 212 209 200
0.083814 0.556027 5.9112 153 153 143
0.0798894 -0.0147069 5.61614 212 210 198
0.0795818 0.122679 5.59599 209 209 197
0.0810281 0.105366 5.59334 209 209 199
0.0889332 0.431093 6.11751 197 197 185
0.0889332 0.431093 6.11751 197 197 185
0.0844142 0.636015 5.78286 151 148 133
0.0819715 0.0773058 5.60094 213 210 201
0.0863299 0.579146 5.87651 113 113 105
0.0837611 0.0379349 5.59902 164 161 152
0.0884512 0.583678 5.86951 164 164 154
0.0927857 0.431309 6.11542 199 199 187
0.0895823 0.586571 5.86525 171 171 159
0.0856942 0.100783 5.59327 211 211 201
0.0972917 0.42423 6.13351 200 200 188
0.0947804 0.555223 5.91386 178 177 159
0.0908158 0.0734037 5.59669 213 210 201
0.0981735 0.554285 5.91672 180 177 162
0.0938029 0.0979911 5.59372 209 209 199
0.0938029 0.0979911 5.59372 209 209 199
0.101117 0.50978 5.99725 191 189 174
0.0967744 -0.0707198 5.64862 214 211 202
0.105812 0.435413 6.11088 199 196 189
0.0971064 0.109872 5.59734 207 207 197
0.0986235 0.092205 5.59555 209 209 199
0.10814 0.442876 6.10703 201 202 194
0.108564 0.477188 6.04826 194 194 182
0.107953 0.528818 5.96155 189 188 170
0.111382 0.421152 6.13835 202 202 194
0.111382 0.421152 6.13835 202 202 194
0.101692 0.106881 5.5983 208 208 198
0.101762 0.102754 5.59802 209 209 199
0.10256 0.0914 5.59718 208 208 198
0.110931 0.481676 6.04214 197 197 185
0.112712 0.475716 6.05326 197 197 185
0.112731 0.505239 6.00151 200 198 186
0.116108 0.533644 5.96274 197 195 182
0.108883 0.110623 5.59844 209 209 199
0.111262 0.00638385 5.61125 213 213 203
0.120115 0.563619 5.90113 194 195 179
0.12488 0.445843 6.10248 202 204 193
0.12488 0.445843 6.10248 202 204 193
0.118198 0.70869 5.61666 178 176 163
0.129226 0.437141 6.11195 205 207 196
0.121024 0.662905 5.71006 187 187 175
0.122316 0.6558 5.72423 190 190 178
0.122316 0.6558 5.72423 190 190 178
0.120591 0.0251545 5.60346 207 205 193
0.1234 0.694158 5.63495 180 178 165
0.129963 0.556282 5.91588 77 73 48
0.131994 0.560172 5.90851 149 146 127
0.125411 0.0378679 5.59706 212 210 198
0.125785 0.105386 5.60045 210 207 198
0.13757 0.440748 6.10732 209 206 197
0.128869 0.154158 5.62075 215 213 201
0.140826 0.448546 6.09924 209 207 195
0.142377 0.438361 6.11109 209 206 197
0.140065 0.513149 5.99297 197 200 189
0.132228 0.0965963 5.59251 211 208 199
0.144899 0.481789 6.0448 209 204 198
0.146637 0.437461 6.11254 171 169 157
0.144722 0.511379 6.00127 204 204 194
0.13817 0.103964 5.59254 209 206 197
0.1393 0.693777 5.63364 198 198 186
0.141316 0.0754996 5.59281 213 210 201
0.146249 0.654346 5.72084 195 195 187
0.146241 0.117116 5.59184 211 209 197
0.147144 0.135284 5.5921 216 213 204
0.15094 0.661182 5.71342 208 204 192
0.148404 0.138501 5.59374 214 211 202
0.148388 0.142655 5.59326 215 212 203
0.148576 0.119544 5.59103 209 207 195
0.160366 0.490937 6.0316 211 212 207
0.149766 0.0990427 5.5922 208 208 198
0.153326 0.664665 5.70345 210 208 196
0.161184 0.515819 5.99137 205 201 192
0.161184 0.515819 5.99137 205 201 192
0.160395 0.564557 5.90049 187 184 165
0.164194 0.541985 5.94471 82 75 57
0.164354 0.554199 5.91653 201 198 183
0.164354 0.554199 5.91653 201 198 183
0.167852 0.509405 6.00316 204 205 197
0.165082 0.569508 5.89515 195 192 175
0.156834 0.168934 5.59328 214 212 200
0.157142 0.140146 5.59317 214 211 202
0.157619 0.113223 5.59248 210 208 196
0.168023 0.539687 5.94787 144 140 131
0.159102 0.109269 5.59578 208 206 194
0.16641 0.591065 5.85551 208 205 196
0.167096 0.58766 5.86444 210 207 198
0.159548 0.141485 5.58894 214 211 202
0.161265 0.158931 5.5892 216 213 204
0.164752 0.678951 5.66885 213 213 201
0.17131 0.59075 5.85986 207 204 195
0.163697 0.154284 5.58874 216 213 204
0.166492 0.185581 5.5921 214 212 200
0.175414 0.594917 5.85441 211 208 199
0.167646 0.164913 5.59187 212 212 202
0.168834 0.149551 5.59137 216 213 204
0.177061 0.590343 5.8609 209 206 197
0.169817 0.21809 5.60595 213 211 199
0.169817 0.21809 5.60595 213 211 199
0.172534 0.231738 5.60928 212 210 198
0.174878 0.292493 5.63627 210 207 198
0.175463 0.324186 5.64483 209 209 199
0.17824 0.340295 5.64941 211 208 199
0.18894 0.412084 5.82072 214 213 209
0.192415 0.590902 5.85926 209 207 194
0.187036 0.68448 5.65591 211 212 198
0.187693 0.688459 5.65403 210 208 195
0.201907 0.593572 5.85774 145 145 133
0.195812 0.342323 5.64974 213 210 201
0.207848 0.594967 5.85506 210 207 202
0.214288 0.545889 5.83759 210 208 195
0.210272 0.371957 5.65009 208 205 196
0.217359 0.547469 5.83751 135 133 120
0.210617 0.711483 5.59981 209 209 197
0.210617 0.711483 5.59981 209 209 197
0.212884 0.709068 5.60162 209 210 196
0.222169 0.557342 5.83172 188 186 174
0.225589 0.600859 5.84473 144 140 131
0.227608 0.554028 5.8308 206 203 194
0.227608 0.554028 5.8308 206 203 194
0.228874 0.601736 5.8436 75 71 68
0.228874 0.601736 5.8436 75 71 68
0.228815 0.601868 5.8433 75 71 68
0.223004 0.68228 5.65734 168 165 156
0.230424 0.60597 5.83837 209 209 209
0.222774 0.6991 5.62271 206 200 186
0.233357 0.6012 5.84477 206 207 199
0.226482 0.399575 5.65205 214 211 202
0.235476 0.326714 5.79722 211 209 197
0.235476 0.326714 5.79722 211 209 197
0.235588 0.677461 5.67698 208 206 193
0.237359 0.698871 5.61403 206 206 196
0.241595 0.688319 5.6461 205 205 195
0.239576 0.716505 5.5899 205 205 195
0.24903 0.676804 5.67304 204 204 194
0.24903 0.676804 5.67304 204 204 194
0.322036 -0.219503 7.27104 143 139 128
0.264816 0.678961 5.6581 213 213 203
0.264386 0.713729 5.59097 214 211 202
0.266981 0.693404 5.63325 213 210 201
0.270113 0.713364 5.59516 215 212 203
0.28927 0.592919 5.86526 207 208 200
0.278704 0.694066 5.631 215 212 205
0.279801 0.688282 5.64137 215 212 205
0.279418 0.702444 5.60569 214 211 202
0.279418 0.702444 5.60569 214 211 202
0.394303 -0.448483 7.68497 194 194 194
0.395137 -0.428222 7.6439 215 212 205
0.395137 -0.428222 7.6439 215 212 205
0.382546 -0.216124 7.2603 214 212 199
0.299156 0.713697 5.59384 215 212 203
0.305078 0.687859 5.64299 211 211 199
0.396946 -0.230689 7.27733 215 212 203
0.327087 0.55663 5.91986 183 182 177
0.309117 0.716701 5.58864 214 211 206
0.332998 0.535982 5.96428 213 213 205
0.332998 0.535982 5.96428 213 213 205
0.407461 -0.215453 7.25194 217 214 205
0.34098 0.531026 5.96904 211 206 210
0.437894 -0.4143 7.6249 216 213 204
0.347412 0.529503 5.97045 208 203 173
0.332155 0.665763 5.68394 210 207 200
0.357115 0.467973 6.07951 210 211 206
0.347811 0.560633 5.91484 223 217 201
0.370282 0.332095 6.28185 219 210 205
0.361509 0.459189 6.10241 208 210 205
0.338074 0.683284 5.65325 216 216 208
0.37156 0.43542 6.1411 214 212 197
0.370195 0.464467 6.07951 211 208 199
0.366112 0.549993 5.95463 203 200 195
0.366112 0.549993 5.95463 203 200 195
0.375143 0.469799 6.07821 210 207 198
0.377123 0.456605 6.10542 212 209 200
0.346028 0.726624 5.57379 213 211 199
0.352295 0.674301 5.6671 196 189 170
0.381612 0.457426 6.10014 205 202 193
0.349134 0.720809 5.57705 213 210 203
0.393073 0.340126 6.26757 212 208 197
0.393073 0.340126 6.26757 212 208 197
0.463904 -0.294867 7.38385 216 213 204
0.48401 -0.422793 7.64816 215 212 203
0.379653 0.509247 5.99961 210 208 196
0.373891 0.573373 5.89786 212 209 200
0.372837 0.57249 5.88966 212 209 200
0.467754 -0.288765 7.37904 216 213 204
0.390261 0.442408 6.13272 209 209 199
0.47471 -0.333826 7.45863 215 212 203
0.470961 -0.300398 7.3887 215 212 203
0.384821 0.494804 6.01016 211 208 199
0.411005 0.27202 6.41803 216 213 204
0.379382 0.548243 5.91762 209 206 197
0.401649 0.347331 6.26419 211 208 201
0.473899 -0.293729 7.38215 217 214 205
0.362013 0.69537 5.62563 88 81 65
0.395642 0.453625 6.11175 0 0 0
0.388513 0.506219 5.99876 0 0 0
0.364242 0.696452 5.62142 0 0 0
0.364242 0.696452 5.62142 0 0 0
0.389283 0.537184 5.95427 0 0 0
0.397419 0.472923 6.07165 0 0 0
0.411924 0.364262 6.24285 0 0 0
0.506457 -0.416788 7.63911 0 0 0
0.509653 -0.431813 7.66745 0 0 0
0.407197 0.44774 6.12622 0 0 0
0.392772 0.573971 5.89691 0 0 0
0.418574 0.330754 6.27418 0 0 0
0.371971 0.724712 5.57489 0 0 0
0.397747 0.536414 5.95311 0 0 0
0.494304 -0.291207 7.38113 0 0 0
0.494304 -0.291207 7.38113 0 0 0
0.429998 0.290178 6.38052 0 0 0
0.408748 0.482937 6.06227 0 0 0
0.404257 0.53661 5.95196 0 0 0
0.518547 -0.413202 7.62509 0 0 0
0.502751 -0.291188 7.38221 0 0 0
0.434542 0.290151 6.38021 0 0 0
0.502112 -0.283781 7.37166 0 0 0
0.400289 0.589435 5.85435 0 0 0
0.407783 0.537689 5.95049 0 0 0
0.42802 0.359803 6.24341 0 0 0
0.42802 0.359803 6.24341 0 0 0
0.411139 0.513543 5.991 0 0 0
0.382714 0.729504 5.56853 0 0 0
0.438231 0.292211 6.37628 0 0 0
0.440023 0.287959 6.38347 0 0 0
0.478148 -0.0155591 6.93433 0 0 0
0.431774 0.348297 6.25565 0 0 0
0.509291 -0.282594 7.37191 0 0 0
0.386256 0.721851 5.57775 0 0 0
0.434387 0.338392 6.26296 0 0 0
0.534333 -0.414453 7.6469 0 0 0
0.475323 0.0688466 6.79976 0 0 0
0.4824 0.00489099 6.8958 0 0 0
0.419981 0.499477 6.00261 0 0 0
0.484588 0.0241309 6.87173 0 0 0
0.395946 0.731031 5.5639 0 0 0
0.395946 0.731031 5.5639 0 0 0
0.425081 0.553432 5.93731 0 0 0
0.426646 0.540076 5.94625 0 0 0
0.466864 0.240517 6.48342 0 0 0
0.496431 0.00937286 6.89046 0 0 0
0.492829 0.0490554 6.83381 0 0 0
0.494551 0.0329338 6.8574 0 0 0
0.452993 0.34841 6.25177 0 0 0
0.476313 0.217308 6.53009 0 0 0
0.477728 0.205729 6.54936 0 0 0
0.486874 0.139119 6.66626 0 0 0
0.486874 0.139119 6.66626 0 0 0
0.45573 0.366491 6.23126 0 0 0
0.458322 0.356858 6.23986 0 0 0
0.440779 0.510803 5.9977 0 0 0
0.495517 0.122625 6.69647 0 0 0
0.506062 0.0636421 6.80221 0 0 0
0.506634 0.0749289 6.78249 0 0 0
0.455671 0.45812 6.09998 0 0 0
0.54031 -0.204984 7.22783 0 0 0
0.448989 0.502509 5.99746 0 0 0
0.458219 0.436604 6.11917 0 0 0
0.442825 0.552307 5.91345 0 0 0
0.510762 0.0546463 6.81688 0 0 0
0.478772 0.292174 6.37271 0 0 0
0.484222 0.28652 6.39392 0 0 0
0.484035 0.290185 6.37246 0 0 0
0.560419 -0.282242 7.37214 0 0 0
0.560419 -0.282242 7.37214 0 0 0
0.462191 0.475918 6.06954 0 0 0
0.424745 0.72777 5.56924 0 0 0
0.486679 0.293706 6.36585 0 0 0
0.426254 0.723791 5.57464 0 0 0
0.530484 -0.020572 6.93226 0 0 0
0.542036 -0.106523 7.06274 0 0 0
0.470172 0.451082 6.11798 0 0 0
0.428376 0.727812 5.56844 0 0 0
0.428376 0.727812 5.56844 0 0 0
0.527305 0.0364902 6.84069 0 0 0
0.527039 0.0447644 6.82582 0 0 0
0.467964 0.490398 6.05352 0 0 0
0.48762 0.332964 6.2636 0 0 0
0.475035 0.464998 6.09605 0 0 0
0.534931 0.019309 6.86418 0 0 0
0.53695 0.0114121 6.8794 0 0 0
0.475952 0.482141 6.06096 0 0 0
0.492378 0.349379 6.24411 0 0 0
0.471625 0.516386 5.98147 0 0 0
0.466187 0.571776 5.89076 0 0 0
0.54685 -0.0168526 6.9088 0 0 0
0.475242 0.531489 5.9787 0 0 0
0.54448 0.0236761 6.84909 0 0 0
0.5519 0.0188787 6.8758 0 0 0
0.54744 0.0480808 6.81943 0 0 0
0.548753 0.0591635 6.81077 0 0 0
0.548753 0.0591635 6.81077 0 0 0
0.546673 0.0735734 6.7844 0 0 0
0.561136 -0.0308274 6.94947 0 0 0
0.549487 0.0659612 6.79667 0 0 0
0.506625 0.33394 6.25332 0 0 0
0.556202 0.0397455 6.82999 0 0 0
0.453759 0.726837 5.56722 0 0 0
0.497109 0.465024 6.09354 0 0 0
0.499822 0.469372 6.08759 0 0 0
0.512067 0.349314 6.234 0 0 0
0.512526 0.349817 6.23473 0 0 0
0.501984 0.462001 6.09727 0 0 0
0.504577 0.448402 6.11594 0 0 0
0.577957 -0.0575294 6.98463 0 0 0
0.49693 0.509769 5.98851 0 0 0
0.509083 0.455551 6.10639 0 0 0
0.580846 -0.0383781 6.9565 0 0 0
0.56936 0.0508214 6.81287 0 0 0
0.575539 0.0155952 6.8741 0 0 0
0.509931 0.469675 6.08516 0 0 0
0.57538 0.0207489 6.86133 0 0 0
0.510835 0.479536 6.07333 0 0 0
0.512845 0.46253 6.09573 0 0 0
0.512939 0.462583 6.09637 0 0 0
0.579913 0.00759391 6.8875 0 0 0
0.582556 -0.0124676 6.91395 0 0 0
0.582556 -0.0124676 6.91395 0 0 0
0.492644 0.592772 5.84646 0 0 0
0.512478 0.472916 6.0816 0 0 0
0.57311 0.0649145 6.79571 0 0 0
0.575189 0.0497145 6.81468 0 0 0
0.514859 0.466267 6.08992 0 0 0
0.516755 0.459316 6.09933 0 0 0
0.573984 0.0796048 6.77357 0 0 0
0.587827 -0.0182782 6.91992 0 0 0
0.587827 -0.0182782 6.91992 0 0 0
0.519159 0.45251 6.10799 0 0 0
0.519018 0.462976 6.0967 0 0 0
0.520872 0.456229 6.10377 0 0 0
0.59548 -0.0303668 6.94382 0 0 0
0.523713 0.464383 6.09191 0 0 0
0.598899 -0.0409381 6.95744 0 0 0
0.598899 -0.0409381 6.95744 0 0 0
0.52473 0.463087 6.09391 0 0 0
0.525754 0.457329 6.09929 0 0 0
0.602301 -0.0355776 6.95132 0 0 0
0.527017 0.469712 6.0828 0 0 0
0.527745 0.474593 6.07665 0 0 0
0.516501 0.533549 5.94685 0 0 0
0.594535 0.0304523 6.84282 0 0 0
0.594535 0.0304523 6.84282 0 0 0
0.531398 0.453963 6.10367 0 0 0
0.59426 0.0474344 6.82142 0 0 0
0.529391 0.480795 6.07137 0 0 0
0.600581 0.0072719 6.88413 0 0 0
0.596591 0.0385743 6.83019 0 0 0
0.546436 0.334932 6.24571 0 0 0
0.486047 0.73724 5.54794 0 0 0
0.533487 0.466492 6.0882 0 0 0
0.612336 -0.0459893 6.96709 0 0 0
0.531553 0.496089 6.04562 0 0 0
0.513474 0.59471 5.835 0 0 0
0.572637 0.237891 6.48467 0 0 0
0.602556 0.0473269 6.82121 0 0 0
0.538605 0.467837 6.08461 0 0 0
0.540531 0.454546 6.1029 0 0 0
0.540531 0.454546 6.1029 0 0 0
0.551825 0.351873 6.2283 0 0 0
0.551825 0.351873 6.2283 0 0 0
0.572935 0.248148 6.46176 0 0 0
0.541853 0.474198 6.07779 0 0 0
0.543774 0.469742 6.08213 0 0 0
0.541445 0.490994 6.04729 0 0 0
0.616993 0.000957613 6.8919 0 0 0
0.616993 0.000957613 6.8919 0 0 0
0.618936 -0.00905539 6.90706 0 0 0
0.534596 0.536715 5.95256 0 0 0
0.610261 0.0682479 6.79175 0 0 0
0.541775 0.514348 5.98715 0 0 0
0.618076 0.0399103 6.82718 0 0 0
0.619737 0.0475598 6.81782 0 0 0
0.694651 -0.387688 7.60265 0 0 0
0.551407 0.499728 6.03493 0 0 0
0.633793 -0.0133309 6.91147 0 0 0
0.698125 -0.398334 7.60899 0 0 0
0.538 0.585859 5.85168 0 0 0
0.63182 0.0132878 6.87022 0 0 0
0.63182 0.0132878 6.87022 0 0 0
0.701065 -0.379707 7.59085 0 0 0
0.701065 -0.379707 7.59085 0 0 0
0.709167 -0.397105 7.60949 0 0 0
0.633241 0.065441 6.79216 0 0 0
0.581406 0.356569 6.22271 0 0 0
0.716335 -0.421209 7.64622 0 0 0
0.642515 0.0213871 6.85671 0 0 0
0.642515 0.0213871 6.85671 0 0 0
0.688954 -0.257107 7.34935 0 0 0
0.617347 0.188904 6.5824 0 0 0
0.585882 0.335874 6.24104 0 0 0
0.713854 -0.382767 7.597 0 0 0
0.640585 0.0693229 6.78427 0 0 0
0.640585 0.0693229 6.78427 0 0 0
0.57286 0.479655 6.06425 0 0 0
0.575179 0.469661 6.08225 0 0 0
0.650942 0.0092481 6.88102 0 0 0
0.622871 0.188942 6.58416 0 0 0
0.622871 0.188942 6.58416 0 0 0
0.568782 0.51611 5.98072 0 0 0
0.650887 0.031828 6.84362 0 0 0
0.724266 -0.384499 7.5986 0 0 0
0.647192 0.0738 6.77483 0 0 0
0.729478 -0.393204 7.61908 0 0 0
0.583927 0.462995 6.08955 0 0 0
0.752187 -0.516692 7.84231 0 0 0
0.663489 -0.0167924 6.91523 0 0 0
0.651949 0.0792654 6.7675 0 0 0
0.653272 0.08303 6.76424 0 0 0
0.636866 0.186012 6.5873 0 0 0
0.661316 0.0322697 6.83456 0 0 0
0.587091 0.47715 6.06595 0 0 0
0.591175 0.466594 6.08571 0 0 0
0.666765 0.0473745 6.80724 0 0 0
0.662732 0.0813311 6.76329 0 0 0
0.667171 0.0529034 6.8047 0 0 0
0.663497 0.0860378 6.75571 0 0 0
0.612995 0.340016 6.23571 0 0 0
0.665013 0.0932671 6.74464 0 0 0
0.66699 0.0801017 6.76271 0 0 0
0.67747 0.0229966 6.84974 0 0 0
0.68861 -0.0359242 6.94041 0 0 0
0.599348 0.501706 6.02917 0 0 0
0.605337 0.470283 6.07579 0 0 0
0.621205 0.340164 6.23353 0 0 0
0.681968 0.0298826 6.84158 0 0 0
0.675134 0.0894302 6.7501 0 0 0
0.657953 0.19917 6.56702 0 0 0
0.685046 0.0595487 6.81944 0 0 0
0.688372 0.0262712 6.84162 0 0 0
0.681992 0.0914798 6.7452 0 0 0
0.700408 -0.00296811 6.88822 0 0 0
0.687499 0.0833138 6.75452 0 0 0
0.670855 0.194687 6.56889 0 0 0
0.703896 0.0141544 6.86457 0 0 0
0.703896 0.0141544 6.86457 0 0 0
0.700744 0.0492929 6.79955 0 0 0
0.608849 0.555946 5.905 0 0 0
0.710006 0.018605 6.85272 0 0 0
0.64728 0.347916 6.22427 0 0 0
0.64731 0.347933 6.22445 0 0 0
0.699318 0.103461 6.72246 0 0 0
0.699212 0.103447 6.72181 0 0 0
0.648524 0.341155 6.23021 0 0 0
0.586252 0.697729 5.62451 0 0 0
0.586252 0.697729 5.62451 0 0 0
0.607708 0.594156 5.82823 0 0 0
0.704087 0.102075 6.72182 0 0 0
0.704087 0.102075 6.72182 0 0 0
0.704087 0.102075 6.72182 0 0 0
0.61651 0.567188 5.87515 0 0 0
0.708192 0.0920777 6.73751 0 0 0
0.721912 0.0233966 6.84033 0 0 0
0.62338 0.5758 5.86263 0 0 0
0.598173 0.697865 5.61754 0 0 0
0.722491 0.0656731 6.77735 0 0 0
0.722491 0.0656731 6.77735 0 0 0
0.72315 0.0590592 6.78222 0 0 0
0.727377 0.0520926 6.79711 0 0 0
0.646675 0.481477 6.042 0 0 0
0.665172 0.354962 6.21458 0 0 0
0.66488 0.364337 6.20651 0 0 0
0.66488 0.364337 6.20651 0 0 0
0.813234 -0.372252 7.58518 0 0 0
0.732666 0.0416266 6.81784 0 0 0
0.72406 0.0998922 6.72467 0 0 0
0.741046 0.0281544 6.84485 0 0 0
0.6598 0.457145 6.08742 0 0 0
0.734055 0.0806147 6.74975 0 0 0
0.633387 0.599579 5.81226 0 0 0
0.635673 0.596251 5.81678 0 0 0
0.735631 0.0930351 6.73262 0 0 0
0.746206 0.036243 6.82238 0 0 0
0.639293 0.586862 5.84296 0 0 0
0.639293 0.586862 5.84296 0 0 0
0.736773 0.0996982 6.72568 0 0 0
0.647734 0.538831 5.91279 0 0 0
0.750787 0.0249496 6.834 0 0 0
0.738558 0.109198 6.71102 0 0 0
0.740928 0.0928479 6.72823 0 0 0
0.642713 0.599861 5.81042 0 0 0
0.839552 -0.377637 7.58872 0 0 0
0.839552 -0.377637 7.58872 0 0 0
0.75236 0.0631961 6.77812 0 0 0
0.759563 0.027296 6.83459 0 0 0
0.758138 0.043737 6.80549 0 0 0
0.75338 0.0868224 6.72737 0 0 0
0.752955 0.0986664 6.71747 0 0 0
0.762265 0.0500284 6.7956 0 0 0
0.752198 0.114437 6.69176 0 0 0
0.761302 0.0770254 6.75134 0 0 0
0.656788 0.597231 5.81434 0 0 0
0.75665 0.122215 6.68493 0 0 0
0.767691 0.0684563 6.76682 0 0 0
0.776895 0.0289971 6.82517 0 0 0
0.767544 0.0901283 6.73245 0 0 0
0.679655 0.518457 5.95763 0 0 0
0.679655 0.518457 5.95763 0 0 0
0.691526 0.477172 6.03407 0 0 0
0.666335 0.599424 5.80669 0 0 0
0.666335 0.599424 5.80669 0 0 0
0.792007 -0.00395206 6.89311 0 0 0
0.772516 0.101377 6.70704 0 0 0
0.682547 0.541982 5.91893 0 0 0
0.712712 0.393117 6.17353 0 0 0
0.679542 0.576245 5.85169 0 0 0
0.786594 0.0804113 6.74861 0 0 0
0.784275 0.116597 6.68611 0 0 0
0.784376 0.116674 6.68674 0 0 0
0.787374 0.105852 6.69637 0 0 0
0.661961 0.693299 5.62479 0 0 0
1.01088 -0.435839 8.48011 0 0 0
0.908198 -0.390516 7.61652 0 0 0
0.814781 0.0359099 6.82546 0 0 0
0.807124 0.089322 6.72967 0 0 0
0.727216 0.481321 6.02571 0 0 0
0.919219 -0.384407 7.61255 0 0 0
0.847332 -0.0456435 6.97452 0 0 0
0.736242 0.463118 6.05556 0 0 0
0.754299 0.351453 6.20561 0 0 0
0.928787 -0.39518 7.61588 0 0 0
0.927037 -0.375107 7.59638 0 0 0
0.82913 0.068255 6.77341 0 0 0
0.926101 -0.334123 7.52483 0 0 0
0.835081 0.0602605 6.78251 0 0 0
0.744638 0.468399 6.04468 0 0 0
0.825219 0.120663 6.68001 0 0 0
0.824844 0.120962 6.67821 0 0 0
0.825219 0.120663 6.68001 0 0 0
0.832459 0.091686 6.72963 0 0 0
0.830061 0.104807 6.70446 0 0 0
0.770207 0.395205 6.17822 0 0 0
0.770207 0.395205 6.17822 0 0 0
0.770207 0.395205 6.17822 0 0 0
0.753895 0.468322 6.04564 0 0 0
0.771847 0.375037 6.18801 0 0 0
0.837246 0.120336 6.67603 0 0 0
0.776732 0.377258 6.18619 0 0 0
0.778776 0.356685 6.19748 0 0 0
0.952422 -0.356772 7.56248 0 0 0
0.834223 0.157643 6.61883 0 0 0
0.84047 0.14513 6.63285 0 0 0
0.746878 0.555104 5.88846 0 0 0
0.746878 0.555104 5.88846 0 0 0
0.753915 0.529936 5.93821 0 0 0
0.786952 0.352143 6.19932 0 0 0
0.807826 0.290556 6.35165 0 0 0
0.863275 0.0872883 6.7405 0 0 0
0.855336 0.12158 6.67677 0 0 0
0.854849 0.126955 6.67148 0 0 0
0.847638 0.161701 6.61616 0 0 0
0.856655 0.115734 6.68484 0 0 0
0.793801 0.375 6.18471 0 0 0
0.793865 0.375142 6.1851 0 0 0
0.869784 0.0934637 6.73163 0 0 0
0.800611 0.354314 6.19626 0 0 0
0.883353 0.0290159 6.83274 0 0 0
0.858037 0.144865 6.63634 0 0 0
0.863135 0.146475 6.63256 0 0 0
0.883951 0.063635 6.78291 0 0 0
0.806555 0.365266 6.18912 0 0 0
0.86697 0.135367 6.64894 0 0 0
0.885387 0.0561765 6.7891 0 0 0
0.868778 0.131004 6.66085 0 0 0
0.913171 -0.0453314 6.98897 0 0 0
0.855195 0.215837 6.53626 0 0 0
0.868635 0.143148 6.63662 0 0 0
0.88103 0.0999039 6.72 0 0 0
0.87087 0.15514 6.63503 0 0 0
0.814082 0.376569 6.18108 0 0 0
0.814082 0.376569 6.18108 0 0 0
0.884175 0.106366 6.71122 0 0 0
0.783127 0.527693 5.93759 0 0 0
0.816903 0.355653 6.19257 0 0 0
0.793835 0.491165 6.01311 0 0 0
0.882766 0.121828 6.67631 0 0 0
0.882766 0.121828 6.67631 0 0 0
0.79633 0.484542 6.02137 0 0 0
0.875364 0.166967 6.59818 0 0 0
0.892031 0.100067 6.72063 0 0 0
0.801648 0.480647 6.03052 0 0 0
0.825695 0.356695 6.19172 0 0 0
0.88981 0.130512 6.66834 0 0 0
0.822839 0.396601 6.16321 0 0 0
0.880407 0.183452 6.58113 0 0 0
0.906698 0.0935793 6.74046 0 0 0
0.903325 0.104173 6.71437 0 0 0
0.903325 0.104173 6.71437 0 0 0
0.88825 0.163843 6.60094 0 0 0
0.899241 0.130458 6.66757 0 0 0
0.899241 0.130458 6.66757 0 0 0
0.834163 0.377594 6.17686 0 0 0
0.83403 0.377446 6.17606 0 0 0
0.908281 0.101484 6.72029 0 0 0
0.904988 0.130446 6.66906 0 0 0
0.909666 0.112962 6.70109 0 0 0
0.905814 0.126235 6.67272 0 0 0
0.840311 0.361792 6.18636 0 0 0
0.915795 0.0898901 6.74092 0 0 0
0.909007 0.117905 6.68606 0 0 0
0.895925 0.172786 6.58759 0 0 0
0.932884 0.0286828 6.85643 0 0 0
0.913273 0.10842 6.7072 0 0 0
0.839298 0.400037 6.15911 0 0 0
0.906645 0.14557 6.64036 0 0 0
0.961888 -0.062814 7.0314 0 0 0
0.898345 0.186142 6.56517 0 0 0
0.918065 0.113333 6.70503 0 0 0
0.911449 0.159489 6.62181 0 0 0
0.828517 0.495625 6.01761 0 0 0
0.910246 0.17056 6.59172 0 0 0
0.852928 0.379118 6.17353 0 0 0
0.852453 0.379078 6.17155 0 0 0
0.92286 0.123321 6.67944 0 0 0
0.850464 0.401635 6.15273 0 0 0
0.913895 0.176225 6.58604 0 0 0
0.918439 0.152514 6.61726 0 0 0
0.913971 0.182738 6.56925 0 0 0
0.843601 0.479693 6.05578 0 0 0
0.921101 0.160961 6.6113 0 0 0
1.04999 -0.338021 7.53454 0 0 0
0.859442 0.397458 6.15277 0 0 0
0.859645 0.397651 6.15382 0 0 0
1.01246 -0.179946 7.24043 0 0 0
0.991402 -0.0817535 7.07362 0 0 0
0.87733 0.324702 6.24793 0 0 0
1.06297 -0.351378 7.55005 0 0 0
0.843513 0.514381 5.98378 0 0 0
0.927985 0.178762 6.57578 0 0 0
0.967826 0.0289819 6.85368 0 0 0
0.951817 0.0984785 6.7283 0 0 0
1.00363 -0.0980869 7.08617 0 0 0
0.877435 0.360775 6.18171 0 0 0
0.877435 0.360775 6.18171 0 0 0
0.930654 0.195575 6.53976 0 0 0
0.961699 0.0885157 6.74704 0 0 0
0.937757 0.179777 6.57476 0 0 0
0.953719 0.129429 6.67209 0 0 0
0.899856 0.303866 6.28993 0 0 0
0.863962 0.492765 6.03855 0 0 0
0.883511 0.379017 6.16588 0 0 0
0.871098 0.473452 6.07274 0 0 0
0.889499 0.354023 6.18599 0 0 0
1.01781 -0.0872058 7.0663 0 0 0
1.01762 -0.0874916 7.06515 0 0 0
0.980477 0.00187558 6.80058 0 0 0
0.950208 0.168947 6.58213 0 0 0
0.95004 0.175902 6.57728 0 0 0
0.875878 0.479462 6.06499 0 0 0
0.872246 0.498718 6.03133 0 0 0
0.969749 0.108815 6.70127 0 0 0
1.0282 -0.0978306 7.09708 0 0 0
0.901803 0.336908 6.22453 0 0 0
0.894361 0.372954 6.16428 0 0 0
0.897051 0.359602 6.17994 0 0 0
0.943466 0.215826 6.49361 0 0 0
0.963747 0.147196 6.62712 0 0 0
0.957167 0.174307 6.57397 0 0 0
0.953478 0.194319 6.53518 0 0 0
1.04016 -0.119711 7.1233 0 0 0
0.947467 0.223607 6.47115 0 0 0
0.90307 0.379687 6.16166 0 0 0
0.90307 0.379687 6.16166 0 0 0
0.952385 0.227873 6.45896 0 0 0
1.01376 0.0226333 6.8521 0 0 0
0.929469 0.306975 6.27484 0 0 0
0.993689 0.103824 6.70464 0 0 0
0.958757 0.229796 6.45633 0 0 0
1.11712 -0.33405 7.51304 0 0 0
1.11712 -0.33405 7.51304 0 0 0
1.05045 -0.0733582 7.04609 0 0 0
1.00415 0.101233 6.70458 0 0 0
1.09362 0.102563 7.2976 0 0 0
1.00646 0.0940775 6.71563 0 0 0
0.96778 0.240707 6.42222 0 0 0
0.974094 0.225302 6.45507 0 0 0
1.00185 0.13695 6.62821 0 0 0
1.04917 -0.0238516 6.9376 0 0 0
0.978935 0.214552 6.46216 0 0 0
1.07623 -0.112779 7.09977 0 0 0
0.933687 0.388602 6.15963 0 0 0
1.0062 0.130955 6.63376 0 0 0
0.98113 0.220516 6.44716 0 0 0
1.04127 0.0268829 6.83724 0 0 0
0.975337 0.252976 6.38826 0 0 0
1.0052 0.159286 6.57298 0 0 0
1.01221 0.139202 6.60935 0 0 0
0.994053 0.21208 6.46102 0 0 0
0.994005 0.211912 6.46084 0 0 0
1.083 -0.0812093 7.03274 0 0 0
1.06814 -0.025781 6.931 0 0 0
0.989444 0.232867 6.42086 0 0 0
0.953215 0.390245 6.15526 0 0 0
0.953215 0.390245 6.15526 0 0 0
1.00199 0.209436 6.46142 0 0 0
0.884913 0.687097 5.70255 0 0 0
1.10605 -0.123874 7.1117 0 0 0
1.04674 0.0697306 6.733 0 0 0
1.02679 0.141724 6.5949 0 0 0
1.04681 0.0802351 6.71118 0 0 0
0.998181 0.248596 6.38923 0 0 0
1.08654 -0.0410191 6.94879 0 0 0
1.00502 0.227449 6.42657 0 0 0
1.11408 -0.130957 7.11971 0 0 0
1.05183 0.0733414 6.72323 0 0 0
1.00071 0.243283 6.39048 0 0 0
1.00865 0.233272 6.4203 0 0 0
1.00865 0.233272 6.4203 0 0 0
