ply
format ascii 1.0 
element vertex 1341
property float32 x 
property float32 y 
property float32 z
property uchar red  
property uchar green
property uchar blue
element face 0
property list uchar int vertex_indices
end_header
-0.598723 0.413088 6.55606 88 87 67
-0.894572 0.61155 6.20581 66 64 43
-0.269785 -0.393994 6.57599 78 75 66
-0.74757 0.521645 6.37376 68 66 51
-0.382764 -0.165435 6.52674 69 66 57
-0.56321 0.405438 6.57128 66 64 49
-0.299986 0.295252 6.88597 81 80 60
-0.266919 0.03938 6.78202 178 175 160
-0.353656 -0.33374 6.42103 77 74 67
-0.328168 0.264613 6.80925 62 60 45
-0.465671 0.382854 6.64173 34 31 22
-0.552762 0.435157 6.52504 182 180 168
-0.668588 0.519707 6.38148 207 207 197
-0.682332 0.532768 6.3654 86 84 69
-0.311752 0.3164 6.80724 151 149 136
-0.37101 -0.181069 6.4051 69 66 59
-0.367309 -0.20152 6.39701 69 66 59
-0.595795 0.486479 6.44072 184 184 172
-0.296234 0.324824 6.80267 142 139 122
-0.661747 0.537009 6.3609 191 187 175
-0.345923 -0.247505 6.36063 77 74 67
-0.301343 0.152448 6.6615 77 73 46
-0.273265 0.075627 6.64798 87 81 65
-0.465976 0.420507 6.5567 27 27 19
-0.475322 0.428576 6.54669 29 29 21
-0.288943 0.113649 6.6252 120 113 94
-0.289095 0.158095 6.63612 66 65 45
-0.64739 0.569708 6.31582 135 132 117
-0.498173 0.476135 6.47693 116 109 91
-0.103371 -0.380975 6.5635 196 180 144
-0.0994489 -0.383704 6.56368 175 149 100
-0.277808 0.124334 6.58011 83 83 55
-0.158025 -0.305041 6.39054 82 81 76
-0.557129 0.582829 6.30435 71 68 53
-0.22297 -0.170793 6.35834 211 211 201
-0.218407 -0.163051 6.35083 157 157 149
-0.0139079 -0.406643 6.50561 85 81 69
-0.229357 0.0422687 6.41549 198 198 186
-0.229357 0.0422687 6.41549 198 198 186
-0.215201 0.0902727 6.44854 196 196 184
-0.19139 -0.169328 6.33246 214 214 204
-0.19139 -0.169328 6.33246 214 214 204
-0.129892 -0.244125 6.3406 210 208 196
-0.123467 -0.253291 6.34348 219 217 205
-0.201526 -0.104732 6.31048 202 202 192
-0.148176 -0.203343 6.31552 202 202 192
1.1599 -0.35952 8.06904 191 190 185
0.0501052 -0.384313 6.47562 217 214 205
-0.16652 -0.137607 6.27694 191 190 172
-0.11247 -0.21599 6.30783 204 199 193
-0.174992 -0.108953 6.26008 178 184 174
-0.203626 -0.0357637 6.25544 210 210 200
-0.15542 -0.138728 6.26176 206 205 200
-0.0880004 -0.22007 6.29946 220 208 184
-0.186628 -0.0658577 6.23982 195 193 178
-0.0818405 -0.221191 6.29758 98 96 97
-0.161463 -0.108635 6.24111 219 219 209
-0.135432 -0.147234 6.25561 218 213 207
-0.129774 -0.148089 6.24507 137 135 123
1.43937 -0.471398 8.22666 208 208 196
1.26964 -0.348002 8.04396 212 207 201
-0.124644 -0.131063 6.22801 207 208 194
-0.583619 0.724362 6.04359 203 203 191
-0.174227 -0.0234003 6.1962 206 206 196
-0.134318 -0.0942343 6.20091 199 199 189
-0.123158 -0.109147 6.19706 215 215 205
-0.169296 -0.00753176 6.18335 204 204 194
0.12785 0.347449 6.77373 220 214 200
-0.133558 -0.0849566 6.18545 187 188 180
-0.172763 0.0183832 6.18399 215 215 207
0.115806 0.359574 6.75515 215 212 207
-0.158161 -0.018914 6.1721 203 199 188
1.32931 -0.35069 8.0141 213 203 178
-0.132122 -0.0681012 6.17838 128 126 113
1.34981 -0.363129 8.02759 208 215 223
-0.167096 0.0981145 6.21088 221 218 211
-0.167096 0.0981145 6.21088 221 218 211
0.148804 0.347877 6.77129 203 201 186
1.37536 -0.382271 8.04177 211 211 201
-0.104657 -0.0822248 6.17046 119 116 109
-0.0738407 -0.129652 6.18538 198 199 191
-0.0738407 -0.129652 6.18538 198 199 191
-0.116033 -0.0581393 6.15754 208 206 193
-0.101336 -0.0808594 6.16007 209 209 197
-0.107774 -0.066708 6.15744 222 220 205
-0.141087 0.0219509 6.14867 123 124 119
-0.139146 0.53436 6.41343 208 208 196
-0.086004 -0.0910219 6.14882 200 200 190
-0.022249 -0.174601 6.18868 205 202 193
-0.0924052 -0.0709788 6.14759 228 219 212
-0.0869232 -0.0832126 6.1459 217 215 203
-0.1086 -0.0348299 6.14196 219 216 207
-0.13452 0.502151 6.3852 213 210 201
-0.10644 -0.0420265 6.13476 198 200 187
0.00382403 0.157353 6.38153 208 205 196
-0.0398921 -0.138962 6.16199 210 210 200
0.21266 0.354584 6.75184 178 176 163
-0.0671051 -0.0966534 6.13919 208 208 198
-0.0908991 -0.0525312 6.12609 140 138 126
-0.0241462 -0.149816 6.1626 209 209 199
-0.0241462 -0.149816 6.1626 209 209 199
-0.0800616 -0.0733247 6.12824 201 202 186
-0.119251 0.0464281 6.13238 229 226 219
-0.107892 0.0413652 6.12088 182 176 164
-0.0824442 -0.0453688 6.10772 221 222 217
-0.0381686 -0.109364 6.13117 189 189 181
-0.106927 0.046277 6.12163 197 193 182
-0.0450092 -0.10408 6.12476 208 208 198
-0.0720315 -0.0665895 6.10796 204 205 197
-0.075263 -0.0631877 6.10566 124 122 110
-0.075263 -0.0631877 6.10566 124 122 110
0.00355755 -0.165615 6.15557 210 210 202
-0.0979666 0.0302285 6.11182 219 217 205
-0.0943299 0.0208311 6.10688 223 223 213
-0.0779921 -0.0431577 6.09429 205 199 185
-0.0819579 -0.03212 6.09338 185 185 173
-0.103823 0.0741824 6.11805 210 210 200
-0.0756772 -0.0418018 6.09447 214 208 194
0.00554633 -0.157504 6.14007 212 212 200
-0.0906738 0.00946593 6.09941 185 183 171
-0.079707 -0.0240141 6.08186 215 212 203
-0.112971 0.57427 6.34637 212 212 202
-0.0973071 0.130429 6.125 211 208 199
-0.0760394 -0.0204876 6.07379 213 210 201
-0.0921667 0.0939536 6.10727 213 212 194
-0.0874349 0.0684704 6.0999 214 216 205
1.50465 -0.30281 7.97657 167 164 157
1.50465 -0.30281 7.97657 167 164 157
-0.0977108 0.17324 6.13742 208 205 196
-0.0950297 0.142431 6.12336 212 210 198
1.57482 -0.328659 8.0321 215 217 206
-0.0841973 0.577439 6.3396 211 209 197
-0.0807765 0.0954406 6.09462 217 215 200
0.0237739 -0.137631 6.10754 155 151 148
0.0365119 -0.152404 6.11297 161 157 146
1.61312 -0.339954 8.05149 195 194 189
0.0363966 -0.156189 6.10994 206 201 195
1.56437 -0.304689 7.99405 205 202 193
-0.054574 -0.0190494 6.04431 215 213 201
-0.0748694 0.592277 6.32195 213 210 201
1.59366 -0.305337 8.00113 207 202 199
-0.0559462 0.0131214 6.04635 220 217 208
0.0314132 -0.102209 6.07271 216 220 206
0.00362534 -0.0662357 6.05279 187 183 171
-0.0370766 0.000535514 6.03472 216 213 204
-0.0510918 0.165866 6.08927 215 213 201
-0.04293 0.598945 6.3122 212 210 198
-0.0382954 0.0526905 6.04013 215 212 203
-0.00345349 -0.0191401 6.03512 214 211 202
-0.0379556 0.135303 6.06491 214 211 202
1.67613 -0.306652 8.00437 220 216 213
0.0192979 0.577588 6.35455 212 208 197
0.0529828 -0.0805075 6.05542 213 210 201
-0.0166382 0.0439239 6.02994 213 210 201
-0.0166382 0.0439239 6.02994 213 210 201
1.13579 -0.0218057 7.44213 172 171 166
1.2433 -0.0914673 7.52989 216 213 204
-0.0238229 0.271659 6.11153 212 209 200
1.28237 -0.118176 7.55202 208 200 189
0.0465567 0.57741 6.3498 207 206 201
1.24004 -0.0813697 7.51625 217 214 205
-0.0226073 0.170987 6.05497 210 208 196
1.73779 -0.3109 8.00245 179 181 180
0.0651755 0.579605 6.35212 210 203 193
0.0569692 -0.0240008 6.03629 214 211 202
-0.00430844 0.397641 6.16904 213 211 199
1.17467 -0.0225092 7.42966 212 209 200
1.46701 -0.165863 7.7216 224 217 201
-0.00899661 0.221968 6.07195 214 210 201
0.0505771 -0.00263075 6.03203 214 211 202
-0.00778427 0.214488 6.06576 221 216 194
0.00250002 0.127954 6.028 215 212 203
1.70276 -0.269848 7.94013 221 218 201
0.00204675 0.155583 6.03264 219 212 204
0.0143726 0.097986 6.01876 216 213 204
0.0856756 -0.0257824 6.04367 215 212 203
0.0599697 0.607651 6.30747 185 181 172
0.0218484 0.124566 6.01821 214 211 202
0.0210236 0.144567 6.02228 215 213 198
0.0312291 0.112111 6.01446 216 212 201
0.0507585 0.0624662 6.01385 217 214 205
1.24763 -0.0518005 7.42694 140 141 136
0.0513901 0.0746342 6.01395 214 211 202
0.0776144 0.038328 6.01607 216 213 204
0.0776144 0.038328 6.01607 216 213 204
0.0873375 0.60933 6.29787 190 187 180
0.0866317 0.614158 6.29486 208 205 196
1.51428 -0.127417 7.66703 0 0 0
0.0980975 0.0421059 6.013 0 0 0
1.47898 -0.107984 7.6235 0 0 0
0.0999417 0.0481736 6.0119 0 0 0
1.80808 -0.265075 7.92932 0 0 0
0.102396 0.0556176 6.00994 0 0 0
1.51291 -0.113297 7.64264 0 0 0
1.85096 -0.284612 7.96729 0 0 0
1.56606 -0.13261 7.69031 0 0 0
0.107217 0.0788772 6.00624 0 0 0
1.5279 -0.11094 7.63155 0 0 0
0.110496 0.0749047 6.00577 0 0 0
0.175913 0.591545 6.33294 0 0 0
-0.0500449 0.702062 6.10673 0 0 0
1.5273 -0.104891 7.62037 0 0 0
0.133156 0.619368 6.28503 0 0 0
0.0650952 0.650089 6.21568 0 0 0
0.202164 0.5832 6.3422 0 0 0
0.221395 0.577434 6.36229 0 0 0
-0.0610436 0.710446 6.08142 0 0 0
1.54257 -0.101992 7.61777 0 0 0
1.58984 -0.117076 7.65898 0 0 0
0.19544 0.597787 6.32294 0 0 0
0.159645 0.616828 6.28792 0 0 0
0.211593 0.589693 6.33428 0 0 0
1.6075 -0.115793 7.65603 0 0 0
1.58699 -0.104387 7.6293 0 0 0
-0.0530987 0.723495 6.06463 0 0 0
1.52356 -0.0708086 7.56721 0 0 0
0.0835271 0.663189 6.19835 0 0 0
1.89329 -0.259412 7.91627 0 0 0
1.54245 -0.0900762 7.57736 0 0 0
1.54005 -0.0782866 7.57353 0 0 0
0.173818 0.0942128 6.00446 0 0 0
2.18525 -0.386935 8.16023 0 0 0
1.57013 -0.0766092 7.57465 0 0 0
1.68448 -0.132317 7.68322 0 0 0
-0.203402 0.805847 5.887 0 0 0
0.183042 0.64033 6.25824 0 0 0
0.256114 0.355351 6.20674 0 0 0
1.99482 -0.272712 7.95507 0 0 0
1.60788 -0.0818449 7.58825 0 0 0
2.02269 -0.28897 7.97961 0 0 0
2.01672 -0.289657 7.9729 0 0 0
1.70713 -0.124009 7.68052 0 0 0
1.81892 -0.181915 7.77762 0 0 0
2.02797 -0.289513 7.96657 0 0 0
0.115223 0.684554 6.17477 0 0 0
0.128963 0.672373 6.18393 0 0 0
1.51934 -0.0177172 7.48156 0 0 0
-0.171675 0.811552 5.87604 0 0 0
0.272619 0.478973 6.23116 0 0 0
-0.206937 0.833747 5.83162 0 0 0
0.147626 0.677265 6.16836 0 0 0
2.06042 -0.27405 7.94775 0 0 0
0.168203 0.669537 6.18287 0 0 0
0.0705956 0.720977 6.09143 0 0 0
2.09213 -0.275863 7.96328 0 0 0
0.0363424 0.738223 6.04421 0 0 0
-0.186928 0.836242 5.82968 0 0 0
0.270041 0.642503 6.26869 0 0 0
2.10111 -0.275004 7.95179 0 0 0
2.10861 -0.285257 7.94539 0 0 0
2.11675 -0.282026 7.94852 0 0 0
1.5856 -0.00577967 7.46099 0 0 0
2.03987 -0.232126 7.87386 0 0 0
0.287884 0.636102 6.25579 0 0 0
-0.0104375 0.780374 5.96679 0 0 0
1.59383 0.001814 7.43995 0 0 0
0.115595 0.724767 6.07664 0 0 0
0.00375148 0.78179 5.96576 0 0 0
2.23626 -0.299259 8.02104 0 0 0
1.64291 -0.0147982 7.45849 0 0 0
1.6152 0.00779128 7.42882 0 0 0
-0.220579 0.889365 5.7348 0 0 0
-0.220579 0.889365 5.7348 0 0 0
0.00485188 0.792086 5.94327 0 0 0
1.81462 -0.0972702 7.59321 0 0 0
1.87852 -0.109899 7.63847 0 0 0
2.2418 -0.289187 7.96865 0 0 0
1.64931 0.00435657 7.42881 0 0 0
-0.104001 0.844629 5.82199 0 0 0
0.012466 0.804617 5.9333 0 0 0
0.0266048 0.792795 5.94271 0 0 0
1.95745 -0.139964 7.6988 0 0 0
1.95745 -0.139964 7.6988 0 0 0
2.24891 -0.272283 7.96219 0 0 0
2.02372 -0.156402 7.75487 0 0 0
0.419942 0.615764 6.28369 0 0 0
0.0490972 0.791815 5.94386 0 0 0
0.0568028 0.78993 5.94853 0 0 0
0.432092 0.614146 6.28908 0 0 0
2.2494 -0.27023 7.93275 0 0 0
1.99094 -0.13889 7.69696 0 0 0
0.680683 0.49857 6.50906 0 0 0
-0.159718 0.886521 5.73851 0 0 0
2.03218 -0.154781 7.72614 0 0 0
1.75531 -0.00669544 7.48071 0 0 0
-0.16662 0.895997 5.72577 0 0 0
0.160507 0.744194 6.02183 0 0 0
2.33271 -0.291028 7.98521 0 0 0
0.0819151 0.78748 5.94888 0 0 0
2.06185 -0.154843 7.73745 0 0 0
1.71879 0.0143516 7.41903 0 0 0
2.0701 -0.158724 7.72974 0 0 0
0.035903 0.815881 5.89717 0 0 0
2.06096 -0.148142 7.71927 0 0 0
1.6623 0.0458192 7.35882 0 0 0
1.72506 0.0186426 7.40821 0 0 0
-0.132373 0.895434 5.7245 0 0 0
1.23968 0.241965 6.94279 0 0 0
2.11807 -0.156415 7.73438 0 0 0
2.35823 -0.266179 7.92901 0 0 0
0.219172 0.748156 6.01492 0 0 0
-0.10558 0.898894 5.72113 0 0 0
2.40478 -0.274927 7.96091 0 0 0
2.1786 -0.167836 7.75902 0 0 0
2.17237 -0.160404 7.74598 0 0 0
2.30654 -0.207524 7.87214 0 0 0
2.15222 -0.1537 7.72483 0 0 0
0.518951 0.623032 6.26378 0 0 0
1.20418 0.271619 6.85657 0 0 0
0.289092 0.7225 6.05025 0 0 0
0.823796 0.466305 6.51994 0 0 0
2.43063 -0.271433 7.95223 0 0 0
2.16874 -0.152637 7.71789 0 0 0
-0.122418 0.920722 5.68077 0 0 0
0.526392 0.62527 6.25909 0 0 0
0.789401 0.490491 6.48446 0 0 0
0.784128 0.497043 6.47931 0 0 0
0.784128 0.497043 6.47931 0 0 0
2.12861 -0.118763 7.67068 0 0 0
1.13663 0.30925 6.77446 0 0 0
2.18491 -0.148174 7.70818 0 0 0
0.929928 0.423816 6.59218 0 0 0
-0.105287 0.91913 5.68175 0 0 0
2.4719 -0.275647 7.95594 0 0 0
-0.111049 0.924007 5.67308 0 0 0
0.836891 0.475525 6.50299 0 0 0
0.935463 0.425701 6.58441 0 0 0
-0.110224 0.927057 5.66813 0 0 0
0.325808 0.722782 6.04885 0 0 0
0.7801 0.511212 6.44638 0 0 0
0.948045 0.424198 6.58537 0 0 0
0.948045 0.424198 6.58537 0 0 0
2.48516 -0.264458 7.94374 0 0 0
1.20611 0.305206 6.80637 0 0 0
1.80571 0.0502143 7.34197 0 0 0
0.113747 0.838793 5.85571 0 0 0
0.982866 0.400257 6.59987 0 0 0
0.570877 0.628159 6.25231 0 0 0
1.21368 0.303344 6.80424 0 0 0
0.142276 0.825372 5.87344 0 0 0
0.147171 0.822931 5.87615 0 0 0
0.147171 0.822931 5.87615 0 0 0
0.974122 0.416408 6.58814 0 0 0
-0.0802283 0.923148 5.66994 0 0 0
0.673511 0.584888 6.32966 0 0 0
-0.0416545 0.909109 5.69998 0 0 0
0.675812 0.583394 6.32935 0 0 0
0.644823 0.60778 6.29046 0 0 0
0.844164 0.500882 6.45377 0 0 0
0.330532 0.737258 5.9984 0 0 0
0.762753 0.54498 6.37525 0 0 0
0.0372774 0.886755 5.74301 0 0 0
0.828362 0.520758 6.43005 0 0 0
2.34343 -0.153253 7.73328 0 0 0
0.715442 0.59263 6.29429 0 0 0
0.715442 0.59263 6.29429 0 0 0
0.419956 0.726881 6.03378 0 0 0
1.20622 0.355965 6.70247 0 0 0
0.178909 0.859975 5.81851 0 0 0
1.37605 0.301065 6.82757 0 0 0
1.30484 0.335564 6.75742 0 0 0
1.47876 0.284079 6.88668 0 0 0
1.11167 0.441674 6.55817 0 0 0
1.11167 0.441674 6.55817 0 0 0
1.12139 0.438844 6.5632 0 0 0
1.3014 0.358049 6.71233 0 0 0
0.717474 0.631417 6.21608 0 0 0
1.39485 0.326197 6.79048 0 0 0
1.38557 0.33622 6.78269 0 0 0
0.434745 0.763411 5.96886 0 0 0
1.13723 0.444451 6.55827 0 0 0
1.13723 0.444451 6.55827 0 0 0
1.34576 0.352285 6.72654 0 0 0
0.81423 0.595385 6.2672 0 0 0
1.35439 0.353406 6.71715 0 0 0
1.27674 0.381599 6.64602 0 0 0
1.25423 0.398917 6.62847 0 0 0
1.3451 0.3644 6.7073 0 0 0
0.853795 0.588018 6.29011 0 0 0
1.17786 0.450313 6.55093 0 0 0
1.84542 0.168989 7.11678 0 0 0
0.0947785 0.943391 5.64172 0 0 0
0.488044 0.766693 5.96603 0 0 0
1.20012 0.45326 6.54716 0 0 0
1.26492 0.414457 6.56757 0 0 0
0.517221 0.766687 5.95447 0 0 0
1.47423 0.348001 6.75177 0 0 0
1.47423 0.348001 6.75177 0 0 0
1.27583 0.415294 6.56529 0 0 0
1.48851 0.355926 6.74519 0 0 0
1.09534 0.535919 6.41818 0 0 0
0.649024 0.723663 6.03249 0 0 0
1.29346 0.445809 6.54016 0 0 0
0.134426 0.979995 5.57671 0 0 0
0.694697 0.730547 6.01463 0 0 0
0.694697 0.730547 6.01463 0 0 0
1.04363 0.605072 6.30749 0 0 0
1.54913 0.370845 6.70242 0 0 0
0.991563 0.647722 6.25731 0 0 0
0.252607 0.94507 5.6467 0 0 0
1.07455 0.601835 6.3046 0 0 0
1.64463 0.36723 6.7593 0 0 0
0.299639 0.929065 5.66143 0 0 0
1.18445 0.563972 6.37953 0 0 0
0.281105 0.943177 5.64434 0 0 0
0.281105 0.943177 5.64434 0 0 0
1.6513 0.363652 6.75046 0 0 0
0.640972 0.782656 5.9194 0 0 0
1.40326 0.444537 6.52516 0 0 0
1.40345 0.457488 6.51426 0 0 0
1.66458 0.376672 6.72001 0 0 0
1.65978 0.376618 6.71598 0 0 0
1.68932 0.360558 6.73423 0 0 0
1.05299 0.659779 6.21205 0 0 0
1.68534 0.389649 6.71054 0 0 0
0.402456 0.931374 5.6823 0 0 0
1.20368 0.607738 6.3032 0 0 0
1.70042 0.410984 6.65794 0 0 0
1.3245 0.574215 6.36269 0 0 0
1.33921 0.570457 6.36571 0 0 0
1.33921 0.570457 6.36571 0 0 0
1.32904 0.573736 6.3505 0 0 0
1.33734 0.574971 6.35791 0 0 0
1.31735 0.581639 6.34108 0 0 0
1.251 0.620263 6.28428 0 0 0
1.23295 0.629303 6.26536 0 0 0
1.26284 0.62236 6.27639 0 0 0
1.35076 0.585183 6.33929 0 0 0
1.32669 0.594198 6.31798 0 0 0
1.58257 0.463004 6.50407 0 0 0
1.58425 0.463702 6.5058 0 0 0
1.99213 0.335436 6.82986 0 0 0
1.35179 0.59256 6.32186 0 0 0
1.45725 0.561589 6.40229 0 0 0
1.35436 0.595059 6.31691 0 0 0
1.35776 0.588613 6.31406 0 0 0
0.410613 0.983213 5.57759 0 0 0
1.60541 0.465297 6.48935 0 0 0
1.42992 0.568107 6.35843 0 0 0
0.447591 0.972881 5.59406 0 0 0
1.48283 0.552541 6.3942 0 0 0
2.03418 0.337454 6.82188 0 0 0
1.04603 0.745027 6.05574 0 0 0
1.15245 0.704931 6.13283 0 0 0
1.0223 0.758129 6.03159 0 0 0
0.450405 0.986854 5.57685 0 0 0
0.541698 0.944497 5.6437 0 0 0
0.555629 0.937862 5.65303 0 0 0
1.49271 0.562232 6.36847 0 0 0
1.02504 0.765885 6.01297 0 0 0
1.4602 0.577226 6.34271 0 0 0
1.46941 0.56993 6.34667 0 0 0
1.22456 0.69272 6.16422 0 0 0
1.70927 0.46433 6.51572 0 0 0
1.42212 0.602416 6.30073 0 0 0
1.47387 0.576682 6.33694 0 0 0
1.48798 0.570899 6.34459 0 0 0
1.04113 0.767623 6.00363 0 0 0
1.73603 0.462505 6.52462 0 0 0
1.23481 0.686465 6.1462 0 0 0
1.44888 0.593443 6.30609 0 0 0
1.48294 0.581981 6.33296 0 0 0
1.69143 0.478441 6.4802 0 0 0
1.69143 0.478441 6.4802 0 0 0
0.489016 0.985238 5.5698 0 0 0
1.11333 0.745233 6.04585 0 0 0
1.07975 0.75975 6.02039 0 0 0
0.747248 0.881162 5.75996 0 0 0
1.70905 0.472118 6.48187 0 0 0
1.46671 0.593871 6.30643 0 0 0
1.91861 0.419099 6.65002 0 0 0
0.707247 0.905994 5.72522 0 0 0
0.487532 0.993881 5.5563 0 0 0
1.43309 0.607892 6.27257 0 0 0
1.20204 0.714833 6.10148 0 0 0
1.25472 0.688746 6.13928 0 0 0
1.08808 0.763276 6.00766 0 0 0
1.24779 0.698292 6.12806 0 0 0
1.19679 0.720329 6.08948 0 0 0
1.01859 0.791806 5.95219 0 0 0
1.77366 0.466473 6.51547 0 0 0
1.47178 0.594138 6.2876 0 0 0
2.0861 0.363228 6.75235 0 0 0
1.17201 0.737999 6.05846 0 0 0
1.28315 0.688058 6.14039 0 0 0
1.24386 0.706765 6.10964 0 0 0
1.29659 0.680415 6.1468 0 0 0
1.29377 0.685811 6.14015 0 0 0
1.28177 0.690917 6.12968 0 0 0
1.38904 0.645673 6.20983 0 0 0
1.59369 0.569007 6.36355 0 0 0
1.39586 0.643983 6.20935 0 0 0
-1.83342 -0.765206 8.67916 175 117 53
-1.81812 -0.732877 8.64 172 117 53
-1.4985 0.106861 7.1309 173 98 41
-1.49542 0.0866239 7.15016 173 98 41
-1.81586 -0.849309 8.81741 172 116 55
-1.40086 0.030642 7.2642 183 124 56
-1.40086 0.030642 7.2642 183 124 56
-1.35408 0.138334 7.0719 167 110 55
-1.42007 -0.174312 7.53901 174 116 52
-1.36287 0.0443902 7.27881 173 114 54
-1.36287 0.0443902 7.27881 173 114 54
-1.09271 0.836187 5.8453 164 97 29
-1.08788 0.825975 5.86519 157 89 28
-1.07095 0.848517 5.81715 148 77 23
-1.266 0.106962 7.07873 156 101 47
-1.266 0.106962 7.07873 156 101 47
-1.03351 0.84431 5.82101 167 100 32
-1.30115 -0.116628 7.50706 177 111 50
-0.986852 0.83623 5.83529 179 110 33
-0.978407 0.850773 5.81455 171 102 33
-0.969335 0.836846 5.82836 167 100 32
-0.963789 0.832459 5.84023 163 92 30
-1.1005 0.0130758 7.20516 206 204 192
-1.08934 0.0383828 7.1801 209 206 197
-1.08395 0.00566214 7.22212 209 209 199
-1.16878 -0.393391 8.02442 166 163 158
-1.16878 -0.393391 8.02442 166 163 158
-1.01943 0.130918 7.06958 183 181 169
-1.02028 -0.00221581 7.22282 210 208 196
-1.00483 0.0622789 7.16472 212 210 198
-1.00845 0.0301311 7.20184 212 210 198
-1.16498 -0.679851 8.45234 209 209 199
-1.14329 -0.657154 8.41538 200 200 188
-1.13605 -0.673406 8.4417 207 207 197
-1.13074 -0.654528 8.41981 208 208 200
-0.751346 0.814366 5.86469 207 207 195
-1.07942 -0.651064 8.45132 191 191 181
-1.06591 -0.634056 8.44735 202 202 192
-0.723939 0.818389 5.85859 199 197 185
-0.729451 0.772416 5.94761 196 196 184
-0.828894 0.283755 6.79081 104 106 82
-0.701765 0.820341 5.85593 191 191 179
-0.776907 0.381507 6.60723 123 126 109
-0.79286 0.280913 6.78746 113 116 89
-0.812822 0.137205 7.08748 72 65 49
-0.779407 0.276047 6.80964 102 103 87
-0.639895 0.754628 5.98467 198 196 184
-0.72686 0.209339 6.98843 23 22 17
-0.731017 0.119622 7.12021 119 117 92
-0.82508 -0.625235 8.3848 203 196 190
-0.725688 -0.624276 8.39842 204 204 192
-0.511561 0.565004 6.34154 168 172 147
-0.66803 -0.621777 8.39256 100 86 77
-0.489087 0.511642 6.43122 137 143 107
-0.357537 0.234324 6.85796 72 72 48
-0.289246 -0.330125 6.52698 205 205 195
-0.295736 0.324725 6.8114 125 117 98
-0.336493 -0.567252 8.30917 205 203 191
-0.206688 0.835975 5.83206 212 207 204
-0.173251 0.838815 5.82565 212 209 200
-0.11581 0.797234 5.91647 210 210 200
-0.122182 -0.365836 6.57769 205 206 190
-0.068839 0.582441 6.34088 102 95 76
-0.0336136 0.0809392 6.03771 212 212 202
-0.0303233 0.597786 6.32203 101 96 76
-0.0241466 0.801391 5.95045 192 193 187
-0.0159399 0.0437203 6.02604 212 212 202
0.00807665 0.123443 6.02736 208 208 198
0.0151045 -0.0378545 6.05057 209 207 194
0.0166016 0.106266 6.0141 205 203 191
0.0201505 0.694076 6.14859 97 93 81
0.0223739 0.806174 5.9336 98 95 80
0.0278147 0.0385904 6.02282 213 210 201
0.033601 -0.143532 6.10769 193 191 178
0.0383506 0.117803 6.01304 205 205 195
0.041673 -0.0846425 6.05913 211 211 201
0.0483784 0.578393 6.35285 92 89 70
0.0494641 0.0673402 6.01015 212 210 198
0.0501853 0.0741537 6.01122 216 214 202
0.0512574 0.0977506 6.00756 210 208 196
0.0614163 0.549152 6.39753 84 78 64
0.0614163 0.549152 6.39753 84 78 64
0.0584715 0.832722 5.87672 137 134 119
0.0645553 0.101115 6.00681 210 210 200
0.0649452 0.790006 5.94635 106 103 88
0.0668596 -0.0227313 6.03262 215 213 201
0.0674409 0.0488307 6.01436 214 211 202
0.0740754 0.0602389 6.01375 214 212 200
0.0740754 0.0602389 6.01375 214 212 200
0.0806153 0.786904 5.94256 64 65 49
0.0873461 -0.114723 6.06455 152 152 144
0.0883892 0.0804988 6.00994 213 211 199
0.0910715 0.0496919 6.01371 210 210 200
0.0997231 0.0482168 6.0109 207 207 197
0.105534 0.0443418 6.01558 217 214 205
0.112523 0.583988 6.3389 112 107 87
0.107919 0.00907183 6.02266 213 210 201
0.107919 0.00907183 6.02266 213 210 201
0.121779 0.453169 6.55544 189 190 176
0.121001 0.498146 6.48173 170 170 160
0.124213 0.558125 6.38574 162 162 152
0.12409 0.0237935 6.02039 212 212 202
0.12409 0.0237935 6.02039 212 212 202
0.131958 0.692915 6.13025 46 49 42
0.130449 -0.0414948 6.04343 212 210 198
0.131034 0.111293 6.00382 211 211 201
0.143362 0.12325 6.00547 209 209 199
0.174432 0.132515 6.0067 212 210 197
0.195939 0.115059 6.00075 209 209 199
0.19904 0.143773 6.00068 216 213 204
0.207537 0.15834 5.99803 215 212 203
0.207537 0.15834 5.99803 215 212 203
0.211247 0.144476 6.00327 211 209 197
0.212159 0.165345 5.99607 215 212 203
0.212159 0.165345 5.99607 215 212 203
0.215989 0.179311 5.996 214 214 204
0.217108 0.184584 5.99921 213 213 203
0.217099 0.18829 5.99603 213 213 203
0.26434 0.304219 6.19697 210 208 196
0.278628 0.358847 6.20614 211 209 197
0.35978 -0.329432 7.9297 212 214 203
0.2823 0.352372 6.20902 209 207 195
0.290228 0.340967 6.21776 211 209 197
0.290049 0.364263 6.21065 212 210 198
0.374315 -0.328527 7.92447 205 199 187
0.296607 0.634873 6.26016 211 208 201
0.374288 -0.153986 7.66079 215 212 203
0.381689 -0.108708 7.58563 218 215 206
0.387007 -0.0698934 7.49447 207 204 195
0.41029 -0.323867 7.92537 212 209 204
0.324692 0.607007 6.26659 208 210 197
0.321156 0.759203 5.98342 216 213 204
0.410222 -0.138713 7.61777 215 212 203
0.364751 0.341324 6.74089 213 210 201
0.359077 0.598178 6.33151 208 208 198
0.46821 -0.432035 8.13205 212 205 195
0.43787 -0.123976 7.58198 215 212 203
0.433099 -0.0673569 7.49585 213 213 201
0.467808 -0.240193 7.77473 215 212 203
0.465441 -0.107048 7.55711 187 183 172
0.47544 -0.0384511 7.45666 215 212 203
0.491338 -0.0894162 7.53923 217 214 205
0.480425 0.0302743 7.33839 208 206 194
0.430156 0.4661 6.56413 212 210 198
0.503057 -0.12777 7.60189 227 224 215
0.498159 -0.0735726 7.5154 216 213 204
0.436159 0.468885 6.56358 216 214 202
0.446703 0.365575 6.70843 193 190 181
0.431137 0.522849 6.44024 208 205 196
0.484864 0.0897278 7.23629 215 212 203
0.446963 0.4907 6.53036 212 209 200
0.519032 -0.0617206 7.49197 216 214 202
0.42378 0.734519 6.02189 0 0 0
0.526432 -0.0347707 7.46291 0 0 0
0.529331 -0.0570852 7.49073 0 0 0
0.53448 -0.0711966 7.50393 0 0 0
0.433031 0.711827 6.06746 0 0 0
0.520225 0.0843385 7.25332 0 0 0
0.585876 -0.421864 8.13079 0 0 0
0.470427 0.596942 6.3224 0 0 0
0.470427 0.596942 6.3224 0 0 0
0.549328 0.0488315 7.31128 0 0 0
0.562785 -0.0541263 7.47157 0 0 0
0.504198 0.383878 6.67594 0 0 0
0.555442 0.0817554 7.26168 0 0 0
0.578203 0.0566243 7.29331 0 0 0
0.591732 0.0340164 7.328 0 0 0
0.532967 0.484589 6.53201 0 0 0
0.594713 0.0822705 7.25361 0 0 0
0.625593 0.0104417 7.35596 0 0 0
0.653477 0.0612549 7.27818 0 0 0
0.667177 0.0611174 7.2848 0 0 0
0.587413 0.590946 6.31266 0 0 0
0.707137 -0.0501259 7.45588 0 0 0
0.706703 -0.0171325 7.39554 0 0 0
0.704075 0.0280777 7.32681 0 0 0
0.784673 -0.375315 8.08093 0 0 0
0.731488 -0.0401217 7.43215 0 0 0
0.806144 -0.397991 8.10789 0 0 0
0.740283 -0.0489152 7.44521 0 0 0
0.735118 -0.0128264 7.39117 0 0 0
0.737039 -0.0276504 7.40446 0 0 0
0.810785 -0.413943 8.12945 0 0 0
0.661898 0.479854 6.52885 0 0 0
0.660418 0.496717 6.51109 0 0 0
0.681765 0.378736 6.656 0 0 0
0.674602 0.483006 6.53459 0 0 0
0.759092 0.0330888 7.31345 0 0 0
0.758189 0.0783435 7.24562 0 0 0
0.639611 0.729723 6.03451 0 0 0
0.889982 -0.397709 8.11571 0 0 0
0.79802 0.117744 7.18739 0 0 0
0.810958 0.0506098 7.27092 0 0 0
0.814857 0.0375222 7.30494 0 0 0
0.837079 0.039582 7.29274 0 0 0
0.850665 0.0171949 7.33139 0 0 0
0.838901 0.111846 7.1789 0 0 0
0.98304 -0.359151 8.04815 0 0 0
0.987589 -0.370676 8.05997 0 0 0
0.838005 0.414737 6.61504 0 0 0
0.821673 0.505857 6.44888 0 0 0
0.909155 0.177873 7.06443 0 0 0
0.80884 0.6038 6.26872 0 0 0
1.06142 -0.382422 8.07594 0 0 0
1.00867 -0.108592 7.60396 0 0 0
0.96961 0.0689128 7.24573 0 0 0
0.952043 0.149582 7.10324 0 0 0
0.839553 0.641488 6.20548 0 0 0
0.968444 0.131665 7.14022 0 0 0
0.975575 0.160431 7.08495 0 0 0
0.980517 0.142757 7.12043 0 0 0
0.980517 0.142757 7.12043 0 0 0
1.00366 0.0592092 7.27321 0 0 0
1.01111 0.12041 7.16835 0 0 0
0.948022 0.400292 6.60881 0 0 0
1.08158 -0.0242124 7.43643 0 0 0
1.05656 0.105334 7.20011 0 0 0
1.0469 0.160259 7.09828 0 0 0
0.999308 0.322043 6.72782 0 0 0
1.14106 -0.0888661 7.55569 0 0 0
1.09237 0.0901297 7.20271 0 0 0
0.96802 0.568236 6.38037 0 0 0
1.05076 0.240765 6.91409 0 0 0
1.06678 0.222776 6.9456 0 0 0
1.15935 -0.0728374 7.51513 0 0 0
1.05467 0.412085 6.58817 0 0 0
0.989267 0.703079 6.11811 0 0 0
0.993603 0.705125 6.13532 0 0 0
1.11696 0.265482 6.8421 0 0 0
1.12566 0.263142 6.85321 0 0 0
1.31583 -0.354347 8.00554 0 0 0
1.16263 0.143861 7.05318 0 0 0
1.09046 0.39563 6.5984 0 0 0
1.25583 -0.129341 7.56668 0 0 0
1.25375 -0.0784559 7.47443 0 0 0
1.03474 0.692878 6.1577 0 0 0
1.16326 0.232612 6.92161 0 0 0
1.14926 0.286696 6.8213 0 0 0
1.18191 0.195297 6.99206 0 0 0
1.17645 0.244382 6.90585 0 0 0
1.01743 0.796849 5.96251 0 0 0
1.20216 0.168536 7.04149 0 0 0
1.28892 -0.0943824 7.51544 0 0 0
1.18826 0.239448 6.92347 0 0 0
1.17384 0.280818 6.83866 0 0 0
1.1717 0.298578 6.80306 0 0 0
1.20049 0.226612 6.95012 0 0 0
1.07785 0.648631 6.23795 0 0 0
1.08001 0.662873 6.21112 0 0 0
1.20428 0.255201 6.89573 0 0 0
1.33611 -0.171591 7.6415 0 0 0
1.31863 -0.090494 7.51892 0 0 0
1.19984 0.29981 6.80688 0 0 0
1.18905 0.343081 6.70867 0 0 0
1.06666 0.787378 5.98672 0 0 0
1.27451 0.120847 7.15293 0 0 0
1.36152 -0.11889 7.58906 0 0 0
1.35919 -0.0878282 7.54994 0 0 0
1.24252 0.261662 6.90182 0 0 0
1.18714 0.448553 6.55355 0 0 0
1.09453 0.764852 6.02143 0 0 0
1.38722 -0.120895 7.60823 0 0 0
1.38225 -0.10002 7.56651 0 0 0
1.23386 0.33218 6.75366 0 0 0
1.39967 -0.125182 7.6177 0 0 0
1.38721 -0.0863007 7.5408 0 0 0
1.1838 0.552691 6.41007 0 0 0
1.1223 0.750429 6.06197 0 0 0
1.29357 0.239565 6.95411 0 0 0
1.13165 0.75714 6.04415 0 0 0
1.21368 0.565237 6.39084 0 0 0
1.29498 0.38398 6.65095 0 0 0
1.20336 0.724104 6.10913 0 0 0
1.21854 0.713754 6.13004 0 0 0
1.20399 0.75971 6.02414 0 0 0
1.36114 0.339198 6.75879 0 0 0
1.22914 0.767401 6.01728 0 0 0
1.28107 0.652393 6.22942 0 0 0
1.24436 0.748417 6.04812 0 0 0
1.24436 0.748417 6.04812 0 0 0
1.43201 0.239548 6.95647 0 0 0
1.2615 0.715542 6.12121 0 0 0
1.26488 0.721917 6.10615 0 0 0
1.33139 0.57916 6.36614 0 0 0
1.2763 0.722476 6.10102 0 0 0
1.29438 0.677899 6.18152 0 0 0
1.26872 0.7482 6.05694 0 0 0
1.28449 0.706884 6.12353 0 0 0
1.28267 0.725755 6.1021 0 0 0
1.28327 0.743506 6.05698 0 0 0
1.30983 0.685071 6.1697 0 0 0
1.29912 0.711125 6.11608 0 0 0
1.31095 0.707189 6.12536 0 0 0
1.37732 0.548662 6.42776 0 0 0
1.32143 0.684182 6.16582 0 0 0
1.32159 0.688385 6.15719 0 0 0
1.31838 0.707767 6.1184 0 0 0
1.30885 0.739514 6.07311 0 0 0
-1.39512 0.560746 6.32843 153 81 31
-1.36865 0.624618 6.22107 143 71 33
-1.36429 0.61113 6.24564 154 84 33
-1.37834 0.566045 6.31995 143 72 30
-1.33242 0.686461 6.11916 164 87 31
-1.30396 0.730441 6.03484 145 77 32
-1.2672 0.821421 5.87752 157 85 26
-1.35543 0.587759 6.28792 139 72 27
-1.33367 0.646498 6.18821 140 68 28
-1.49172 0.173524 6.93073 166 101 45
-1.29731 0.715327 6.06442 157 88 33
-1.32781 0.634396 6.21112 143 72 28
-1.32781 0.634396 6.21112 143 72 28
-1.30587 0.689352 6.11452 141 69 29
-1.29919 0.701841 6.09022 137 68 27
-1.24931 0.823144 5.87356 161 85 27
-1.34193 0.57421 6.3138 158 86 28
-1.32263 0.62147 6.23505 155 84 30
-1.33397 0.580174 6.30497 163 95 32
-1.33143 0.585639 6.29595 166 98 37
-1.45795 0.191808 6.89957 168 99 42
-1.32836 0.591848 6.28687 164 96 33
-1.33515 0.570373 6.32134 142 78 32
-1.23553 0.831656 5.85473 161 85 25
-1.23553 0.831656 5.85473 161 85 25
-1.29872 0.663916 6.16071 140 71 29
-1.27514 0.715604 6.06317 153 80 29
-1.32275 0.590135 6.29045 152 87 33
-1.30359 0.636615 6.21005 158 89 32
-1.28599 0.676797 6.13671 147 76 30
-1.30811 0.611176 6.25538 150 88 31
-1.30811 0.611176 6.25538 150 88 31
-1.31331 0.592992 6.28631 141 74 29
-1.31074 0.587694 6.29651 148 82 30
-1.22283 0.818277 5.87832 161 85 25
-1.31343 0.574664 6.31759 155 84 30
-1.31697 0.55891 6.34355 164 94 32
-1.30478 0.591219 6.29088 149 82 30
-1.31349 0.56191 6.33877 162 92 32
-1.28 0.652123 6.1822 166 97 38
-1.28 0.652123 6.1822 166 97 38
-1.25759 0.70455 6.08344 160 90 30
-1.31217 0.554799 6.35119 166 96 34
-1.24516 0.733353 6.0336 153 84 29
-1.20833 0.827854 5.85968 166 86 25
-1.20833 0.827854 5.85968 166 86 25
-1.30403 0.570495 6.32585 161 91 31
-1.30709 0.560577 6.34151 164 96 33
-1.33724 0.474421 6.49749 164 99 33
-1.28942 0.599424 6.27799 162 93 34
-1.28942 0.599424 6.27799 162 93 34
-1.27318 0.641322 6.20192 147 81 33
-1.28952 0.595077 6.28564 163 95 34
-1.28952 0.595077 6.28564 163 95 34
-1.28526 0.602553 6.27212 161 95 35
-1.29314 0.577517 6.31461 171 107 36
-1.29993 0.556736 6.34885 167 99 34
-1.23828 0.721218 6.05523 157 88 29
-1.33227 0.463461 6.51771 175 108 38
-1.25672 0.667826 6.15122 143 79 33
-1.29921 0.55082 6.35908 159 91 30
-1.29921 0.55082 6.35908 159 91 30
-1.32218 0.484362 6.48116 171 102 33
-1.28105 0.594295 6.28725 166 97 38
-1.19133 0.833939 5.85104 159 79 30
-1.29223 0.552565 6.35776 173 107 33
-1.29223 0.552565 6.35776 173 107 33
-1.2933 0.548496 6.36438 175 109 33
-1.28939 0.55967 6.34568 167 100 32
-1.27798 0.589735 6.29522 164 95 36
-1.31756 0.472384 6.50338 176 107 38
-1.28431 0.562593 6.34131 172 108 36
-1.24982 0.656296 6.1719 161 90 34
-1.27689 0.576653 6.31793 167 102 34
-1.18255 0.831124 5.85421 147 70 28
-1.17315 0.855925 5.81192 165 91 30
-1.17315 0.855925 5.81192 165 91 30
-1.35233 0.353944 6.70468 165 93 35
-1.26503 0.601316 6.27637 164 96 33
-1.26601 0.59769 6.2826 163 95 32
-1.26601 0.59769 6.2826 163 95 32
-1.26601 0.59769 6.2826 163 95 32
-1.27753 0.561912 6.34355 172 104 39
-1.27084 0.58159 6.30894 179 113 39
-1.31101 0.466455 6.51445 165 101 37
-1.2669 0.582594 6.30821 181 115 37
-1.27099 0.567436 6.33436 169 99 40
-1.27117 0.56099 6.34643 162 91 35
-1.27117 0.56099 6.34643 162 91 35
-1.29769 0.483349 6.48373 168 102 42
-1.25696 0.596828 6.28471 174 107 36
-1.21429 0.710613 6.07358 152 83 28
-1.25773 0.588878 6.29766 175 108 40
-1.26067 0.577887 6.3169 161 92 33
-1.25082 0.604111 6.27094 176 109 39
-1.25082 0.604111 6.27094 176 109 39
-1.3071 0.440993 6.55838 155 94 47
-1.30226 0.453683 6.53583 167 106 41
-1.22792 0.658186 6.168 176 109 38
-1.22792 0.658186 6.168 176 109 38
-1.24722 0.607344 6.26484 178 112 38
-1.29179 0.479495 6.49025 172 109 42
-1.23812 0.629855 6.22195 160 95 37
-1.23812 0.629855 6.22195 160 95 37
-1.33038 0.355817 6.70176 170 99 35
-1.24819 0.589069 6.29744 163 95 34
-1.25775 0.557173 6.35406 169 106 35
-1.25234 0.566621 6.3376 172 104 41
-1.23731 0.601612 6.27412 166 98 35
-1.23328 0.605585 6.26703 171 103 40
-1.21292 0.646822 6.19029 179 113 37
-1.23757 0.574899 6.32193 178 114 42
-1.20657 0.659686 6.16555 170 106 35
-1.21937 0.624311 6.23278 167 99 36
-1.30014 0.388516 6.64996 160 101 45
-1.22963 0.589335 6.29479 176 109 39
-1.25918 0.498696 6.45885 176 110 49
-1.25918 0.498696 6.45885 176 110 49
-1.1343 0.840198 5.83742 164 96 33
-1.25629 0.491869 6.46963 162 100 49
-1.2137 0.606227 6.26273 177 108 39
-1.25497 0.485868 6.47924 160 98 47
-1.17387 0.71183 6.06523 166 101 35
-1.17387 0.71183 6.06523 166 101 35
-1.25865 0.470087 6.50502 170 102 41
-1.15342 0.765872 5.97012 165 98 30
-1.22313 0.565729 6.33634 177 117 45
-1.20957 0.594054 6.28378 173 109 48
-1.32564 0.248542 6.89375 165 113 56
-1.18101 0.667714 6.14987 172 105 35
-1.20316 0.600155 6.27137 170 110 48
-1.15711 0.727492 6.0383 170 106 34
-1.19007 0.620242 6.235 166 104 45
-1.28013 0.351559 6.71322 165 97 36
-1.28013 0.351559 6.71322 165 97 36
-1.19615 0.597114 6.27474 181 116 48
-1.23866 0.473515 6.49927 177 109 44
-1.24268 0.459379 6.52229 172 105 37
-1.1431 0.741632 6.01309 182 116 42
-1.22202 0.51419 6.42827 170 109 46
-1.19147 0.60104 6.26732 175 114 51
-1.26613 0.368257 6.68266 151 85 35
-1.19111 0.587787 6.29075 153 94 50
-1.16882 0.648079 6.18439 166 106 44
-1.16882 0.648079 6.18439 166 106 44
-1.17629 0.603492 6.26189 151 93 47
-1.21789 0.482174 6.48343 179 111 46
-1.21789 0.482174 6.48343 179 111 46
-1.14205 0.703796 6.08084 171 100 34
-1.236 0.417745 6.58815 150 83 38
-1.17044 0.597314 6.27252 164 103 56
-1.2509 0.353419 6.7067 155 90 36
-1.2509 0.353419 6.7067 155 90 36
-1.1711 0.588172 6.2887 170 109 52
-1.13229 0.702826 6.08116 170 106 42
-1.26139 0.297241 6.80159 160 98 41
-1.26139 0.297241 6.80159 160 98 41
-1.08658 0.825327 5.85811 157 89 28
-1.11779 0.730558 6.02992 173 106 36
-1.07635 0.830537 5.84629 170 104 28
-1.19798 0.463281 6.51454 183 116 45
-1.15007 0.598721 6.268 158 100 50
-1.14538 0.607467 6.25094 160 101 57
-1.13555 0.624655 6.21743 165 105 55
-1.14017 0.608788 6.24796 152 93 51
-1.13894 0.612746 6.24022 153 97 50
-1.06691 0.827213 5.85085 165 98 28
-1.142 0.598897 6.26669 164 104 50
-1.12026 0.662888 6.14743 184 120 56
-1.2008 0.405124 6.60483 179 105 40
-1.13613 0.599458 6.26478 176 115 52
-1.17553 0.477857 6.4858 181 116 48
-1.12955 0.61647 6.23191 149 90 48
-1.12263 0.636154 6.19414 153 99 52
-1.12263 0.636154 6.19414 153 99 52
-1.13257 0.604931 6.25344 173 111 54
-1.11702 0.649565 6.16987 167 113 53
-1.24754 0.238424 6.89956 181 124 57
-1.22152 0.313179 6.76894 165 96 37
-1.1322 0.592986 6.27524 185 121 57
-1.12504 0.605255 6.25146 178 114 53
-1.11523 0.625348 6.21327 168 105 51
-1.11523 0.625348 6.21327 168 105 51
-1.12456 0.590414 6.27878 183 120 53
-1.04379 0.836161 5.83038 169 102 32
-1.11661 0.606686 6.24769 184 119 51
-1.23158 0.237195 6.89835 164 106 56
-1.23158 0.237195 6.89835 164 106 56
-1.20215 0.326493 6.74372 164 95 38
-1.20215 0.326493 6.74372 164 95 38
-1.17904 0.393347 6.62132 165 97 32
-1.21632 0.272157 6.83677 172 112 52
-1.10871 0.603974 6.2501 184 119 51
-1.22238 0.234597 6.90241 182 122 60
-1.02873 0.834097 5.8319 160 91 32
-1.08621 0.654224 6.16094 175 114 51
-1.09439 0.624982 6.2111 183 118 52
-1.09906 0.609355 6.24039 186 121 53
-1.04653 0.773613 5.94488 181 106 38
-1.04653 0.773613 5.94488 181 106 38
-1.04802 0.761175 5.96797 185 117 36
-1.04802 0.761175 5.96797 185 117 36
-1.09453 0.608567 6.24072 187 123 52
-1.16993 0.353093 6.68953 165 97 36
-1.14138 0.454568 6.52666 158 91 38
-1.0856 0.620473 6.21907 185 120 52
-1.2057 0.220934 6.92106 182 123 57
-1.11929 0.505306 6.43193 172 111 56
-1.17028 0.326072 6.73649 178 110 47
-1.03792 0.748659 5.98981 173 106 38
-1.07946 0.60317 6.24695 181 116 52
-1.07794 0.592727 6.26659 186 122 51
-1.14949 0.355304 6.68424 180 113 45
-1.13988 0.381964 6.63689 146 80 28
-1.07231 0.602375 6.24792 182 117 53
-1.12178 0.443244 6.54465 170 100 38
-1.0174 0.775598 5.93784 171 102 33
-1.02113 0.761357 5.96471 165 95 33
-1.02113 0.761357 5.96471 165 95 33
-1.15487 0.315044 6.7534 158 93 39
-1.06299 0.612036 6.23073 178 114 52
-1.01676 0.750616 5.98404 185 116 39
-1.17371 0.223506 6.91327 186 122 50
-1.06198 0.594054 6.2612 177 112 56
-1.06198 0.594054 6.2612 177 112 56
-0.98605 0.835805 5.82981 179 110 33
-1.09303 0.445454 6.53898 165 98 43
-1.13111 0.287422 6.79498 179 114 50
-1.011 0.684142 6.0989 171 110 47
-1.11206 0.302717 6.76634 176 113 46
-1.02269 0.605574 6.23698 180 116 54
-0.996051 0.698406 6.073 186 122 50
-1.0181 0.613704 6.22385 177 113 51
-1.10021 0.316078 6.74463 178 113 45
-1.09138 0.345323 6.69637 177 110 42
-1.11517 0.255195 6.84657 172 110 51
-1.11517 0.255195 6.84657 172 110 51
-1.10636 0.27506 6.81161 172 107 49
-0.989797 0.684241 6.09565 186 119 51
-0.989797 0.684241 6.09565 186 119 51
-1.05281 0.474042 6.48418 155 98 45
-0.96581 0.750884 5.97385 181 106 38
-1.00869 0.603315 6.23976 184 121 54
-0.971098 0.726146 6.02161 182 113 44
-1.10954 0.228477 6.8973 168 106 47
-1.05028 0.44786 6.53187 170 109 42
-1.05028 0.44786 6.53187 170 109 42
-1.05028 0.44786 6.53187 170 109 42
-1.08718 0.303902 6.76315 167 100 47
-0.964394 0.736801 6.00053 183 109 44
-1.06809 0.373075 6.64809 170 106 35
-0.998171 0.6077 6.23099 183 122 57
-0.994892 0.617146 6.21485 186 123 56
-0.994892 0.617146 6.21485 186 123 56
-0.99997 0.595884 6.24991 170 108 49
-0.972299 0.671976 6.11349 179 116 49
-0.982789 0.612453 6.22239 163 102 48
-1.03731 0.42228 6.57204 170 107 36
-1.08026 0.230579 6.88993 155 97 49
-0.977986 0.598208 6.24367 160 99 45
-1.02103 0.436903 6.54637 176 107 40
-1.00993 0.476385 6.47615 177 116 53
-1.02726 0.406934 6.59507 170 102 41
-0.943939 0.684925 6.08683 165 104 49
-1.04437 0.306686 6.75405 202 173 139
-1.02678 0.37263 6.64604 169 103 45
-0.92041 0.754556 5.96422 181 112 43
-1.00148 0.463385 6.49918 188 121 51
-1.00148 0.463385 6.49918 188 121 51
-0.932349 0.701538 6.05883 165 106 48
-0.947079 0.631831 6.17887 173 112 57
-1.04217 0.277647 6.79798 214 212 200
-1.02013 0.364063 6.66035 195 169 136
-0.943957 0.615628 6.20654 185 122 53
-1.02516 0.308233 6.7492 211 211 201
-0.905092 0.743588 5.98483 166 97 40
-0.899813 0.756398 5.96157 168 98 36
-1.01494 0.322925 6.72528 210 210 200
-1.00766 0.352407 6.67863 212 210 198
-1.00079 0.368097 6.65415 211 209 197
-0.921012 0.647664 6.14742 179 116 47
-0.930517 0.611583 6.21051 178 114 50
-1.0064 0.294071 6.76822 207 204 195
-0.926181 0.600367 6.23146 179 119 56
-0.919105 0.615748 6.2043 174 112 51
-0.885012 0.745593 5.98129 170 102 37
-0.919476 0.602297 6.22722 201 180 151
-0.915604 0.608801 6.21542 209 192 164
-0.974714 0.383507 6.62908 205 205 193
-0.903987 0.636427 6.1674 178 123 67
-0.907637 0.619059 6.19686 209 201 188
-0.912066 0.60046 6.23058 212 210 198
-0.90675 0.602031 6.22626 209 210 196
-0.984407 0.296069 6.76387 210 210 200
-0.906588 0.595444 6.23774 212 209 200
-0.900679 0.602347 6.22585 213 210 201
-0.874904 0.691975 6.06933 200 174 141
-0.877778 0.676644 6.09657 201 186 163
-0.886727 0.637363 6.16489 194 194 184
-0.956528 0.342896 6.69156 207 207 197
-0.873689 0.658893 6.12733 211 209 197
-0.863057 0.680222 6.09029 210 208 196
-0.858937 0.65396 6.13573 212 210 198
-0.941511 0.299921 6.75663 112 114 109
-0.876146 0.517656 6.37407 108 109 95
-0.876699 0.417673 6.5633 98 101 82
-0.852209 0.50689 6.39212 66 69 50
-0.791086 0.742474 5.98678 209 209 197
-0.871555 0.398476 6.59638 110 113 94
-0.84585 0.461399 6.47115 56 59 48
-0.853477 0.405895 6.57914 62 65 48
-0.774077 0.744616 5.98348 209 209 197
-0.826986 0.456069 6.47876 33 33 25
-0.821498 0.41708 6.54958 35 37 26
-0.809271 0.40488 6.57012 124 128 103
-0.787316 0.354701 6.65615 162 166 151
-0.209067 -0.528795 8.24103 153 84 25
-1.01324 0.117463 7.08165 206 204 192
-0.411712 -0.316521 6.69435 94 93 62
-0.407908 -0.165769 6.78238 55 53 40
-0.399865 -0.175077 6.76957 55 53 38
-0.361852 -0.397403 6.66954 215 213 201
-0.370796 0.104717 6.93293 81 82 51
-0.391857 -0.24131 6.67783 68 65 50
-0.391857 -0.24131 6.67783 68 65 50
-0.377164 -0.323166 6.60313 214 212 200
-0.379843 -0.237729 6.61105 62 57 27
-0.371198 -0.326599 6.54492 209 209 199
-0.373628 -0.220653 6.58296 142 132 63
-0.372048 -0.319721 6.51669 214 214 204
-0.379044 -0.213618 6.56629 57 52 22
-0.380383 -0.136097 6.51656 46 47 31
-0.13461 -0.365556 6.57746 77 74 67
-0.129112 -0.376279 6.57611 74 71 64
-0.127881 -0.372032 6.57442 76 73 66
-0.119051 -0.376675 6.56973 71 68 61
-0.119721 -0.372773 6.56909 72 69 62
-0.109804 -0.388516 6.56419 71 68 61
-0.106147 -0.391243 6.56377 73 70 63
-0.106147 -0.391243 6.56377 73 70 63
-0.10007 -0.390681 6.56083 73 70 63
-0.298547 0.327853 6.78995 34 34 26
-0.296644 0.328353 6.79005 34 34 26
-0.0931011 -0.385225 6.55118 70 67 60
-0.37237 -0.0750722 6.46945 199 199 189
-0.346597 -0.247768 6.35984 206 203 194
-0.366839 -0.153425 6.37424 69 67 52
-0.360765 -0.151029 6.35045 53 52 32
-0.239582 0.0134209 6.39567 170 168 153
-0.187857 -0.113809 6.28068 172 171 167
-0.123455 -0.16543 6.25472 203 203 195
-0.177191 -0.0908298 6.24423 201 201 189
-0.209765 0.0384826 6.25805 203 203 191
-0.210067 0.0386419 6.2578 203 203 191
-0.120129 -0.134383 6.21984 203 203 193
-0.115376 -0.13461 6.21518 202 202 192
-0.061071 0.441546 6.5457 209 209 197
-0.061071 0.441546 6.5457 209 209 197
-0.179143 2.91879e-05 6.19359 181 179 166
-0.107475 0.488217 6.46368 210 210 200
-0.163027 0.0411781 6.17444 150 147 140
-0.0851994 -0.0940055 6.15887 209 208 203
-0.122363 -0.0318078 6.14552 204 204 192
-0.135368 0.00565763 6.14454 176 177 169
-0.114877 -0.0196198 6.13447 210 207 200
-0.107841 -0.0279195 6.13122 213 213 203
-0.132069 0.0330532 6.14265 202 204 193
-0.132069 0.0330532 6.14265 202 204 193
-0.0858602 -0.061776 6.12675 204 204 194
-0.0772685 -0.0721006 6.12424 210 207 192
-0.105444 0.00385806 6.12034 210 210 198
-0.0973216 -0.0152681 6.11332 207 207 195
-0.108131 0.0758023 6.12371 177 175 163
-0.096428 0.0697477 6.11293 210 207 198
-0.0807851 -0.0119128 6.08198 202 204 193
-0.0785093 -0.0119564 6.07844 205 206 198
-0.0785093 -0.0119564 6.07844 205 206 198
-0.0798075 0.0115081 6.08251 210 210 200
-0.0941778 0.510059 6.32135 216 213 206
-0.0820439 0.425945 6.27063 200 198 186
-0.0790442 0.0867853 6.0952 198 196 181
-0.0682398 0.053222 6.0741 209 210 202
-0.0903918 0.211844 6.13331 202 200 185
-0.0718614 0.427153 6.24812 214 212 200
-0.0812545 0.201283 6.12023 169 162 146
-0.048789 0.0120097 6.04329 210 210 200
-0.0347127 0.123371 6.05594 215 212 203
-0.0131512 0.0500304 6.0308 213 210 201
1.34803 0.592035 6.31943 0 0 0
1.02393 0.706461 6.12355 0 0 0
1.40634 0.647297 6.217 0 0 0
1.24333 0.71448 6.10555 0 0 0
1.26814 0.716931 6.09278 0 0 0
1.37008 0.695705 6.12203 0 0 0
1.38807 0.70632 6.12706 0 0 0
1.30248 0.736274 6.05601 0 0 0
1.79791 0.620779 6.26566 0 0 0
1.10351 0.795773 5.94522 0 0 0
1.05656 0.818365 5.90234 0 0 0
1.29751 0.820869 5.91487 0 0 0
-1.171 -0.0673224 7.37867 164 96 35
-0.744558 -0.292132 7.73365 153 82 30
-1.36599 0.104168 7.17627 168 100 35
-1.26741 0.0314174 7.2507 168 104 33
-1.32711 0.0856969 7.18868 165 97 36
-1.06906 -0.0920893 7.39512 161 96 32
-1.3178 0.079292 7.18989 162 93 34
-1.32862 0.0918691 7.1832 165 97 34
-1.33926 0.088723 7.15764 163 94 35
-1.12319 -0.0595461 7.33246 161 91 32
-1.12737 -0.0596015 7.32701 161 91 32
-1.34085 0.104395 7.16251 155 90 32
-1.31205 0.0749502 7.17837 155 89 31
-1.04549 -0.101162 7.391 161 93 32
-1.07473 -0.0651041 7.32779 168 98 39
-1.26414 0.0707827 7.13844 162 93 26
-1.34351 0.126196 7.06901 170 101 36
-1.10995 -0.0168101 7.24791 166 96 36
-1.32835 0.137868 7.06363 161 90 28
-1.09749 -0.0126727 7.24491 169 98 34
-1.09909 -0.00230721 7.23562 158 88 29
-1.26389 0.106223 7.08617 160 89 33
-1.05641 -0.0194553 7.25757 160 90 28
-0.722123 -0.194171 7.55423 152 83 28
-1.0391 -0.0160163 7.25962 156 86 26
-1.11198 0.0226813 7.18808 164 93 29
-1.00952 -0.0165992 7.25938 160 88 30
-1.20217 0.138546 7.05997 202 181 160
-1.06023 0.0546286 7.16907 206 206 196
-1.17091 0.14596 7.05824 193 191 178
-0.83587 -0.0416291 7.3281 199 182 152
-0.969941 0.0265767 7.19411 87 134 180
-0.994305 0.0468227 7.17508 72 136 182
-0.206855 -0.329056 7.84887 160 96 35
-0.936509 0.0520538 7.17281 113 115 101
-1.01873 0.106622 7.08941 202 202 190
-1.02066 0.129153 7.06385 162 181 187
-0.828679 0.0332432 7.2137 101 100 79
-0.977723 0.115472 7.08835 207 207 197
-1.14358 0.205299 6.9446 199 199 187
-1.18324 0.236505 6.89122 189 189 177
-1.19178 0.245138 6.88402 192 192 180
-0.766733 0.0337096 7.23111 189 189 177
-0.945542 0.119394 7.07637 207 207 195
-0.72109 0.0145642 7.2685 204 204 194
-1.14448 0.225913 6.91145 197 195 183
-1.1166 0.218281 6.91687 205 205 193
-1.13822 0.229777 6.89862 193 193 181
-0.935532 0.12917 7.05913 175 181 169
-1.18203 0.257821 6.85341 199 199 187
-1.13472 0.251807 6.87508 211 211 199
-0.731774 0.0734217 7.19652 195 198 179
-1.09982 0.239716 6.87717 68 69 61
-0.886675 0.145745 7.05199 113 109 80
-0.706447 0.0667722 7.19899 202 204 190
-0.88811 0.14943 7.04116 93 88 66
-1.08871 0.245474 6.86264 73 79 65
-1.08871 0.245474 6.86264 73 79 65
-0.719736 0.0935742 7.16755 108 95 63
-1.0773 0.252971 6.84622 161 165 142
-0.653201 0.0726727 7.19751 162 145 75
-0.288679 -0.0153132 7.54099 117 121 107
-1.05162 0.25721 6.83156 192 192 180
-1.17221 0.327274 6.73656 208 208 198
-1.17221 0.327274 6.73656 208 208 198
-0.232442 -0.088413 7.51321 209 207 195
-0.232442 -0.088413 7.51321 209 207 195
-1.01369 0.258131 6.83405 208 208 198
-1.01369 0.258131 6.83405 208 208 198
0.647981 -0.462148 8.20446 170 179 134
-1.0852 0.305233 6.76837 209 207 192
0.61889 -0.430529 8.12153 145 146 130
-0.933758 0.254449 6.84443 125 170 193
-0.933758 0.254449 6.84443 125 170 193
0.367332 -0.326206 7.88889 182 182 170
-0.950338 0.268474 6.81168 115 140 134
0.646585 -0.408978 8.10259 196 196 184
0.658112 -0.40326 8.09344 173 173 161
0.668585 -0.403852 8.0849 196 196 184
-1.08944 0.3601 6.66768 110 117 84
0.74682 -0.431811 8.14096 195 195 183
0.762388 -0.429902 8.15907 195 195 183
0.751875 -0.430044 8.12755 186 186 176
-0.684428 0.210857 6.97215 160 163 132
-1.07275 0.374005 6.64403 110 112 88
-1.05148 0.377239 6.63965 115 118 89
-1.09774 0.400639 6.60408 134 137 110
0.881085 -0.418766 8.15009 211 211 199
0.547215 -0.308573 7.84708 198 198 186
-0.803591 0.276224 6.78928 120 124 109
0.574595 -0.29546 7.87353 202 203 189
-1.05344 0.404991 6.59601 127 129 107
-0.768066 0.274978 6.79898 177 181 166
-1.02888 0.407735 6.59366 147 153 109
-0.347022 0.0124641 7.04748 81 83 62
0.928424 -0.395469 8.09886 214 212 200
-1.03486 0.422783 6.5715 121 126 96
-0.391509 -0.193861 6.84958 51 49 37
0.934635 -0.40203 8.0951 214 211 202
1.18451 -0.502187 8.27528 207 207 197
-0.877965 0.349696 6.67386 122 127 87
-0.407817 -0.327399 6.70451 57 56 38
0.973652 -0.353936 8.02701 204 204 194
-1.01006 0.462643 6.49559 84 86 65
-0.360777 -0.369129 6.62425 213 213 201
1.02005 -0.35553 8.01473 209 209 199
-0.906995 0.428635 6.54588 72 71 53
-0.881648 0.417759 6.55851 90 93 64
-0.371008 -0.337474 6.59736 211 211 201
-0.63146 0.318454 6.71814 79 81 60
-0.848096 0.417709 6.55363 85 84 64
1.42954 -0.472194 8.21866 207 207 195
-0.930887 0.479741 6.45288 65 64 43
1.17149 -0.345002 8.0005 196 194 182
-0.371425 -0.321714 6.49606 208 208 196
-0.380203 -0.21911 6.53771 53 52 34
-0.271279 -0.355879 6.54196 217 215 203
1.22877 -0.336307 8.00031 213 210 201
1.27095 -0.349186 8.02525 212 212 202
1.38501 -0.398297 8.0443 212 212 202
1.35275 -0.377125 7.99144 85 83 71
1.37467 -0.386932 7.99912 84 81 72
1.32863 -0.333478 7.97469 85 81 70
-0.358329 -0.21567 6.44612 208 208 198
-0.286815 0.133997 6.71995 65 64 46
1.32501 -0.350227 7.95624 78 75 66
-0.383973 -0.187292 6.43138 209 205 194
-0.879066 0.517552 6.37177 75 72 57
-0.114542 -0.351592 6.56686 70 67 60
-0.859968 0.518429 6.37078 68 67 49
-0.106144 -0.325553 6.56893 68 63 57
-0.271079 0.0570907 6.63027 188 186 173
-0.366355 -0.154424 6.37639 65 63 48
-0.973094 0.597266 6.24207 60 58 45
-0.28246 0.129647 6.60394 72 70 49
-0.95487 0.59878 6.23637 43 41 29
-0.956106 0.604968 6.22765 43 40 31
1.56969 -0.301798 7.97528 83 78 72
1.58738 -0.304013 7.97606 149 130 88
1.69956 -0.304725 7.96187 169 120 90
-0.160464 -0.242469 6.33837 71 68 61
-0.166405 -0.181689 6.31772 77 78 70
1.82682 -0.307258 7.98799 155 109 73
1.80965 -0.29127 7.96295 135 102 69
-0.214678 -0.0665388 6.30517 205 205 195
-0.842418 0.656915 6.12801 182 181 163
1.8389 -0.264692 7.893 170 138 77
1.53007 -0.150256 7.67732 86 86 76
1.88758 -0.254412 7.8918 95 82 65
-0.144329 -0.120512 6.23101 203 203 193
0.194829 0.351575 6.75543 179 181 167
