ply
format ascii 1.0 
element vertex 1390
property float32 x 
property float32 y 
property float32 z
property uchar red  
property uchar green
property uchar blue
element face 0
property list uchar int vertex_indices
end_header
-10.5766 41.9983 47.4598 195 169 136
-10.6792 41.2105 48.9411 165 102 49
-10.477 41.6368 48.0279 206 203 194
-10.0249 45.2176 45.9564 206 204 192
-10.2937 41.673 48.032 212 210 198
-10.1405 42.1072 47.7609 109 106 97
-10.1375 41.6228 48.3032 211 209 197
-9.62191 45.6192 45.8881 212 210 198
-9.96013 42.6525 47.8886 185 122 53
-9.96013 42.6525 47.8886 179 114 46
-9.79438 43.2388 47.7405 212 210 198
-10.0779 40.571 49.86 203 188 159
-10.0779 40.571 49.86 201 199 187
-9.94607 41.1625 49.4133 201 199 187
-9.67594 42.7069 48.2068 186 119 51
-9.59085 43.5019 47.8948 186 119 51
-9.21959 46.2535 46.6231 211 209 196
-9.09538 46.8475 46.1384 210 207 198
-9.50541 43.1332 48.2775 183 118 52
-9.31133 44.9774 48.1698 209 206 197
-9.51252 46.0357 49.9858 209 209 199
-9.31983 42.402 48.8535 197 197 187
-9.2071 45.3464 48.313 174 112 51
-9.2071 45.3464 48.313 212 210 198
-9.03042 43.0236 48.69 209 209 199
-9.19205 43.3037 49.7385 209 192 164
-8.91399 43.9124 48.4077 211 209 197
-8.54513 47.5278 46.6516 210 210 198
-8.5983 47.1321 47.1714 205 205 193
-8.68768 43.7439 48.9012 101 98 89
-8.60664 42.7533 49.3541 208 208 196
-8.67424 41.8302 49.8088 138 137 119
-8.42982 45.3574 49.193 138 137 119
-8.4192 42.9631 49.4743 211 209 196
-8.33033 45.2613 49.4478 211 209 196
-8.30062 43.3895 49.4762 209 210 194
-8.28779 46.1365 49.5081 211 209 197
-8.21783 46.5334 49.1565 135 133 118
-8.19774 45.6461 49.7599 211 208 199
-8.11021 46.3149 49.6048 210 208 196
-8.11021 46.3149 49.6048 212 210 198
-8.11847 43.368 49.7394 210 208 196
-7.98672 44.0014 49.9279 209 207 195
-3.69267 16.3597 27.9161 196 196 184
-3.64425 16.1735 27.7597 196 196 184
-6.41136 35.5747 49.2479 202 198 186
-6.41136 35.5747 49.2479 165 167 154
-3.52646 16.0502 27.6549 212 210 198
-3.39304 15.2605 27.2012 210 208 196
-3.45487 15.7375 29.4023 204 205 191
-5.6273 37.2229 48.0561 208 208 198
-3.32677 15.1714 29.0588 208 208 198
-3.39664 16.2622 29.7383 210 210 200
-3.42222 18.2873 30.0659 210 210 200
-4.81266 32.2062 42.7013 208 208 198
-3.3394 18.0573 29.8675 202 202 192
-3.30066 17.6245 29.5438 212 210 198
-3.24142 15.5449 29.0569 194 192 180
-3.30615 17.7798 29.6371 203 200 191
-3.20677 16.4678 28.7688 212 210 198
-3.20727 17.0527 29.1052 147 153 127
-3.17587 16.6687 28.8668 123 126 109
-3.23872 17.6993 29.5394 115 116 98
-3.25383 18.1472 29.7852 187 187 177
-3.07593 15.7917 28.3429 212 209 200
-3.07109 15.7611 28.2708 40 43 32
-3.22768 17.9864 29.7652 188 188 178
-3.07924 16.9901 29.0044 206 203 194
-3.06812 16.8893 28.92 198 201 190
-2.99261 15.7463 28.2613 107 110 89
-3.03163 16.8562 28.8856 39 41 30
-2.94512 15.5224 28.1671 215 213 201
-2.94512 15.5224 28.1671 202 202 192
-2.95072 15.8991 28.343 97 95 72
-3.05795 17.6789 29.3929 112 112 86
-2.95282 16.2565 28.4213 96 95 74
-2.96065 16.3343 28.5836 27 26 21
-2.9253 16.0362 28.3335 201 201 191
-2.92425 16.1756 28.3499 80 81 65
-2.91655 16.2317 28.3573 109 112 91
-2.893 16.1018 28.4135 199 199 187
-3.0467 19.8348 29.9722 109 109 83
-2.94722 17.2871 29.0121 24 23 18
-2.86746 16.1898 28.3611 24 23 18
-3.06606 21.0951 30.7066 209 207 195
-2.91416 17.4343 29.1912 100 104 81
-3.01864 20.5275 30.2597 24 23 18
-2.80404 15.3898 28.0811 106 110 85
-3.06008 21.1808 30.7597 201 201 189
-2.95313 19.4221 29.6502 210 210 200
-2.8442 16.4137 28.5864 130 126 101
-2.82337 16.1228 28.3613 145 149 116
-2.98684 20.4424 30.2036 145 149 116
-2.92989 19.4403 29.6157 209 209 199
-2.77129 15.4279 28.0806 95 98 71
-2.76025 15.2901 28.1743 141 145 120
-2.84296 17.2865 28.9098 95 98 69
-2.98814 21.075 30.604 83 78 58
-2.92712 20.6859 30.2876 106 109 88
-2.89005 20.2909 30.0066 135 136 102
-2.89005 20.2909 30.0066 28 29 23
-2.84632 19.6588 29.5954 199 199 189
-2.82355 19.3755 29.4344 121 122 78
-2.74573 16.6997 28.7026 133 133 107
-2.71678 18.0525 28.8534 209 209 201
-2.78476 15.3295 29.572 213 213 201
-2.64141 15.3872 28.0049 209 209 199
-2.74057 19.0554 29.2215 216 214 202
-2.70291 17.7349 28.8445 112 115 98
-2.8404 20.9322 30.3285 212 212 202
-2.80563 15.6873 29.9481 205 205 193
-2.63412 15.5574 28.2351 210 210 202
-2.83605 21.0923 30.4425 216 213 204
-2.60801 15.3532 28.1733 100 101 83
-2.65755 17.8933 28.7084 44 45 37
-2.67524 18.5256 28.9367 210 210 200
-2.75562 15.5636 29.7331 23 22 17
-2.73671 19.9051 29.6224 137 139 102
-2.80172 20.9891 30.35 129 131 109
-2.7168 19.5334 29.431 94 96 75
-2.63922 16.2086 28.6028 119 118 98
-2.65228 18.2277 28.8143 119 118 98
-2.79537 21.1278 30.4462 203 203 193
-2.59658 15.5523 28.2441 119 117 92
-2.70016 19.8098 29.5399 210 210 198
-2.67937 19.4383 29.3301 22 22 14
-2.746 20.6866 30.0676 22 22 14
-2.74802 20.7086 30.1036 114 116 94
-2.71391 15.448 29.7893 211 211 201
-2.74734 20.8725 30.242 213 213 203
-2.7483 20.8667 30.2274 146 151 121
-2.64369 18.8605 29.0493 124 128 105
-2.56179 15.3591 28.1027 203 196 190
-2.60801 16.9303 28.6616 31 31 21
-2.76114 21.0803 30.3768 124 127 110
-2.6918 15.337 29.6438 214 214 204
-2.56507 16.109 28.2865 142 103 72
-2.57091 16.1863 28.4514 216 213 204
-2.6683 15.2164 29.5925 214 215 201
-2.62143 19.1477 29.1214 214 212 200
-2.56084 16.1198 28.4516 192 148 85
-2.66139 19.995 29.601 204 165 90
-2.6626 20.0085 29.6249 134 139 117
-2.56597 17.8791 28.6143 30 30 22
-2.64639 15.14 29.1499 123 130 112
-2.54057 16.2412 28.3858 134 139 117
-2.54275 17.7234 28.574 135 121 48
-2.52485 16.1746 28.3521 115 119 96
-2.59377 19.3267 29.2046 123 127 92
-2.61155 15.1488 29.4892 106 105 77
-2.68857 21.2759 30.4524 118 122 107
-2.59537 14.8226 28.8949 118 122 107
-2.60212 15.0613 29.4481 165 170 140
-2.56878 19.2112 29.1082 162 168 122
-2.57192 19.3361 29.1785 137 141 124
-2.54837 18.9309 28.9768 127 131 108
-2.55149 19.1046 29.0393 117 117 89
-2.48237 15.6572 28.3025 118 119 101
-2.48156 15.7391 28.3594 87 94 76
-2.65381 21.3207 30.3897 168 172 147
-2.47022 15.9941 28.3001 168 172 147
-2.46816 16.8015 28.3892 129 130 98
-2.50688 18.8838 28.8861 92 99 66
-2.59884 20.7116 29.9443 142 147 124
-2.5479 15.0641 29.399 142 147 124
-2.43611 15.3011 28.1272 76 74 49
-2.522 14.8142 29.2099 87 86 55
-2.50728 14.6421 28.8147 108 109 78
-2.45489 15.9999 28.437 134 140 114
-2.52868 14.9925 29.3202 126 100 75
-2.52868 14.9925 29.3202 70 67 50
-2.45857 18.5955 28.6957 78 82 47
-2.45102 18.2737 28.5863 117 120 91
-2.42109 17.4679 28.3691 117 120 91
-2.4084 15.955 28.4137 72 71 50
-2.4084 15.955 28.4137 92 95 66
-2.60104 21.9781 30.76 104 91 74
-2.55591 21.5746 30.4863 100 100 74
-2.57562 21.9859 30.7724 120 111 78
-2.40258 18.8363 28.7002 76 78 54
-2.3802 16.0478 28.4512 76 78 54
-2.34821 16.8775 28.2314 116 95 74
-2.80221 26.0588 33.7532 81 80 59
-2.55767 22.1658 30.8763 116 116 118
-2.78371 25.8614 33.6089 94 95 64
-2.54954 22.044 30.7723 117 104 96
-2.33479 17.3785 28.2167 174 172 173
-2.34025 16.6507 28.2891 209 208 203
-2.37634 14.4788 28.5853 69 68 50
-2.39208 14.8373 28.9613 71 67 55
-2.32197 19.3105 28.6464 180 175 172
-2.7034 26.1179 33.6289 41 41 29
-2.70882 26.2863 33.8744 148 129 112
-2.25899 16.3169 28.0667 84 79 59
-2.25891 19.3752 28.6425 64 62 49
-2.2629 19.7033 28.8155 70 67 50
-2.25079 16.0376 28.7319 59 53 41
-2.59726 25.5723 33.1848 68 67 46
-2.36112 21.8143 30.3939 189 189 179
-2.25894 14.8437 29.0484 66 61 42
-2.24878 14.7393 28.8193 98 98 60
-2.22428 14.7781 28.9354 91 91 65
-2.21204 14.5919 28.7855 80 81 50
-2.21204 14.5919 28.7855 81 80 59
-3.05 34.3489 40.0426 87 82 62
-2.16688 19.3085 28.5423 89 90 84
-2.17621 14.306 28.2557 101 101 99
-3.30352 38.8691 43.8445 103 101 76
-3.2825 38.5423 43.4831 103 101 76
-2.14745 19.463 28.6334 200 200 190
-2.13062 19.3682 28.5781 179 179 169
-2.13131 19.3631 28.5664 43 44 28
-2.07742 17.7357 27.8148 205 205 193
-3.31004 39.7752 44.4993 204 204 194
-2.23678 21.7055 30.2413 84 83 63
-2.19196 21.0034 29.6898 208 206 193
-2.47796 26.2508 33.6509 193 192 174
-2.15793 20.5432 29.3248 207 206 188
-2.21028 21.7829 30.2738 202 202 192
-2.16686 20.8582 29.5716 101 101 77
-2.20201 21.5554 30.0703 204 204 192
-2.13476 20.2382 29.1499 207 204 185
-2.0421 16.7497 27.8654 109 105 93
-2.0421 16.7497 27.8654 204 204 192
-2.14925 20.6766 29.4759 197 195 180
-2.90995 34.2986 39.9249 208 208 198
-2.11129 20.0611 29.0368 207 204 199
-2.02476 16.7279 27.8755 181 179 167
-2.31575 24.2638 32.0857 205 205 193
-2.18401 21.8022 30.1862 204 204 194
-2.00869 17.7743 27.7568 209 211 200
-2.12012 20.5618 29.3753 209 211 200
-2.30218 24.2185 31.9406 206 206 196
-2.19256 22.2348 30.5263 196 196 188
-2.14238 21.4423 29.9972 208 208 200
-2.14107 21.5386 30.0564 206 206 196
-2.03069 19.1486 28.407 151 151 139
-2.03166 19.2089 28.4575 208 209 195
-2.12318 21.1899 29.7291 203 204 190
-2.12318 21.1899 29.7291 203 204 190
-2.17661 22.3366 30.6314 208 206 193
-2.98049 36.7927 41.9912 208 209 193
-2.06903 20.2437 29.1423 210 207 198
-1.99676 18.6745 28.1079 210 207 198
-1.99676 18.6745 28.1079 204 202 189
-1.96342 16.9229 27.7378 188 186 173
-2.24447 24.1365 31.9037 192 191 173
-1.95314 17.2079 27.7054 207 205 192
-2.09529 21.4518 29.974 181 181 171
-2.01106 19.5184 28.6664 206 206 196
-2.01198 19.888 28.8505 171 172 158
-2.0371 20.5051 29.2638 190 190 178
-2.05095 20.9418 29.5742 206 206 194
-2.31728 26.2697 33.6065 207 207 199
-1.95643 14.1194 28.3891 201 201 189
-2.08671 22.1548 30.4554 198 198 190
-2.02225 20.8111 29.4979 206 206 196
-1.89591 16.4244 27.6911 147 148 134
-1.88603 17.5063 27.5852 158 156 144
-1.88603 17.5063 27.5852 192 192 180
-1.91242 18.4027 28.0051 189 189 177
-2.13736 23.8215 31.5484 209 210 194
-2.13936 23.9058 31.6786 160 160 150
-2.01531 21.285 29.8139 186 186 174
-1.92601 19.2359 28.505 202 203 187
-1.96455 20.2511 29.1483 196 196 184
-1.92017 19.5774 28.6923 173 170 161
-1.92017 19.5774 28.6923 204 202 189
-1.93815 20.087 28.9972 204 202 189
-1.89415 18.9701 28.3462 200 200 190
-1.90239 19.373 28.5877 201 202 188
-2.01292 22.0635 30.2807 206 206 196
-1.82642 16.6387 27.5504 201 201 189
-1.8788 19.0546 28.3842 195 192 183
-1.84417 18.1009 27.8554 210 210 198
-1.88614 19.2653 28.4919 161 162 148
-1.88614 19.2653 28.4919 210 210 198
-1.82947 17.7276 27.6843 190 190 178
-1.83184 17.9734 27.7891 201 199 186
-2.02073 22.6293 30.6619 208 208 196
-1.8582 19.0013 28.3502 178 178 166
-1.92139 20.5359 29.3178 202 202 190
-1.90362 20.3957 29.2161 176 177 163
-1.81245 17.9585 27.7973 212 210 198
-1.92914 21.1141 29.6478 211 208 199
-1.94256 21.5261 29.9546 203 201 186
-2.13943 25.705 32.9903 189 190 176
-1.80239 17.7948 27.7477 161 159 147
-1.90905 20.7741 29.4231 206 206 196
-2.00123 22.9535 30.8768 80 79 59
-1.89568 20.509 29.2657 166 166 158
-2.0258 23.6218 31.3505 195 196 182
-2.0258 23.6218 31.3505 207 207 195
-2.01719 23.5766 31.3987 202 200 185
-1.88867 20.6181 29.3423 202 200 188
-1.79284 18.1522 27.8759 199 197 185
-1.88374 20.7483 29.3854 199 197 185
-1.86506 20.2854 29.1624 208 208 198
-1.86354 20.2394 29.096 199 197 182
-1.76929 17.8109 27.7356 199 197 182
-2.02669 24.2566 31.8591 208 208 198
-1.92224 21.872 30.1281 196 194 182
-1.96449 22.9099 30.8516 208 208 196
-1.77834 18.2542 27.9567 200 197 188
-1.86454 20.7514 29.4402 207 208 194
-1.96827 23.2029 31.0831 206 206 194
-1.85046 20.399 29.2289 206 206 194
-1.85248 20.5229 29.2748 211 209 197
-1.73158 16.7374 27.4236 200 200 190
-1.7303 16.7098 27.3706 206 204 192
-1.80943 19.624 28.7171 179 179 167
-1.82631 20.1153 29.0196 179 179 167
-1.82703 20.1283 29.0431 200 200 188
-1.94426 22.9986 30.9382 195 196 180
-1.87503 21.5318 29.9412 202 203 189
-1.99471 24.3173 31.866 206 206 196
-1.85692 21.1652 29.6922 202 202 190
-1.81352 20.3662 29.1643 204 204 194
-1.81352 20.3662 29.1643 173 174 166
-1.74938 18.7676 28.2704 177 177 165
-1.88999 22.3973 30.4942 190 191 185
-1.8536 21.6937 30.0399 190 191 185
-1.69554 17.2036 27.4448 205 205 195
-1.82839 21.3046 29.7939 203 203 193
-1.76095 19.5124 28.6657 203 203 193
-1.74565 14.3614 28.4048 205 205 195
-1.78268 20.5513 29.3284 162 162 152
-1.83819 22.0726 30.2621 205 204 199
-1.83819 22.0726 30.2621 150 146 134
-1.68878 17.9139 27.7958 193 194 180
-1.65299 16.5061 27.2071 208 208 198
-1.73046 19.3095 28.5467 207 207 197
-1.71016 18.754 28.2639 200 200 190
-1.75752 20.1927 29.0788 148 146 131
-1.79568 21.2035 29.732 201 204 193
-1.79398 21.1934 29.7318 64 63 45
-1.64872 16.8304 27.3562 174 173 171
-1.69592 18.5851 28.1654 174 173 171
-1.70924 19.2569 28.5262 208 209 195
-1.6803 18.5319 28.1245 150 148 133
-1.76534 20.9741 29.5616 150 148 133
-1.71967 20.2343 29.0931 176 176 164
-1.75132 21.1295 29.6295 173 170 161
-1.64104 17.89 27.7817 107 100 82
-1.84155 23.5033 31.2399 194 195 181
-1.62312 17.374 27.514 198 198 186
-1.66657 18.8447 28.2937 198 198 186
-1.7781 22.2245 30.3783 211 211 201
-1.61568 17.5746 27.6473 209 209 199
-1.67479 19.5383 28.7044 68 62 46
-1.60117 17.2821 27.4641 213 213 203
-1.59187 16.8929 27.3349 195 195 185
-1.68441 20.3339 29.1753 101 92 75
-1.64303 19.1444 28.479 195 197 186
-1.69205 20.5477 29.3281 109 100 83
-1.58843 17.4737 27.6686 212 210 197
-1.69389 20.8551 29.5003 196 194 181
-1.6343 14.468 28.4349 211 211 201
-1.5772 17.2361 27.4796 198 196 183
-1.63322 14.4031 28.4538 208 208 198
-1.63827 14.5808 28.5457 201 199 184
-1.57069 17.0103 27.3832 204 204 194
-1.66998 20.2303 29.1323 65 64 44
-1.64293 14.7458 28.6719 214 214 204
-1.61499 18.9407 28.3721 212 212 202
-1.6193 19.0693 28.4413 50 47 38
-1.76848 23.1635 31.0654 162 162 152
-1.76332 23.0977 30.9496 194 194 182
-1.69354 21.3523 29.8024 194 194 182
-1.69239 21.3897 29.8596 212 212 204
-1.61627 14.5649 28.5379 66 65 47
-1.57752 18.1632 27.9354 202 198 186
-1.6546 20.6697 29.3693 211 212 198
-1.59353 18.8384 28.3403 93 89 78
-1.59353 18.8384 28.3403 93 89 78
-1.5465 17.2177 27.4553 212 212 202
-1.5465 17.2177 27.4553 199 199 187
-1.64214 20.3686 29.1701 112 107 87
-1.72655 22.8422 30.8352 112 107 87
-1.69232 21.939 30.1412 212 210 198
-1.69232 21.939 30.1412 211 212 198
-1.64986 20.9099 29.5476 211 212 198
-1.65532 21.1329 29.6428 93 90 71
-1.54098 17.5218 27.5965 212 213 199
-1.54122 17.6217 27.6167 194 192 177
-1.62725 20.4845 29.2742 194 192 177
-1.59224 19.369 28.629 83 77 61
-1.52334 17.2505 27.4735 210 210 198
-1.61891 20.6108 29.3608 215 213 201
-1.53658 17.9436 27.8185 68 66 53
-1.6661 22.0224 30.234 68 66 53
-1.64381 21.8606 30.1419 200 197 178
-1.56794 14.7963 28.5629 95 88 70
-1.50484 17.4019 27.5468 157 156 152
-1.59395 20.4327 29.2358 157 156 152
-1.53955 19.0353 28.4146 183 180 173
-1.54563 19.8886 28.9216 79 81 60
-1.54554 19.9062 28.9512 212 212 202
-1.58975 21.3999 29.7901 215 213 201
-1.53591 14.9379 28.7968 199 199 189
-1.54614 20.1402 29.105 212 212 202
-1.52069 19.4214 28.6398 210 210 200
-1.57233 21.1408 29.6533 214 214 204
-1.48237 18.2593 27.9647 212 212 202
-1.44938 17.4477 27.5503 211 211 201
-1.52711 20.1911 29.0938 214 215 201
-1.54868 20.9554 29.5369 214 215 201
-1.56292 21.4303 29.819 212 212 202
-1.46292 18.1067 27.8929 93 90 73
-1.48791 19.378 28.6285 211 211 201
-1.43099 17.3582 27.4797 206 205 187
-1.57242 22.0993 30.2496 210 210 200
-1.57242 22.0993 30.2496 209 209 199
-1.49933 19.9835 28.9873 217 215 202
-1.49866 20.3128 29.1567 212 212 202
-1.46079 19.1671 28.5188 98 91 73
-1.46065 19.2871 28.5699 112 106 92
-1.42245 18.2599 27.9859 210 210 200
-1.4368 19.0089 28.4325 59 57 42
-1.39528 18.1314 27.9369 212 212 202
-1.54531 22.9686 30.9042 210 210 200
-1.44606 19.8815 28.9138 79 73 59
-1.43908 19.6267 28.7723 213 213 203
-1.44987 20.0356 28.9982 148 146 133
-1.476 21.1139 29.6658 183 181 169
-1.39944 18.5098 28.1256 215 212 203
-1.47521 21.1947 29.6831 215 212 203
-1.37438 18.1085 27.8995 210 210 200
-1.39415 18.7681 28.3366 70 70 58
-1.53083 23.3264 31.1453 213 213 203
-1.47654 21.7551 30.0418 212 212 204
-1.45333 21.1303 29.6677 212 212 204
-1.35976 18.3029 28.0178 63 63 53
-1.32559 17.6424 27.6242 108 105 90
-1.38344 19.7449 28.8754 125 128 97
-1.39338 20.1987 29.1117 213 213 203
-1.34919 18.5933 28.1999 211 211 201
-1.3485 18.5683 28.1623 157 157 147
-1.3594 19.0226 28.4175 211 211 201
-1.36489 19.2892 28.5934 221 221 211
-1.38211 20.0801 29.0556 115 115 89
-1.37079 19.7262 28.8415 213 213 203
-1.42614 21.9677 30.1873 212 212 202
-1.33469 18.7104 28.3188 94 89 70
-1.34063 18.9823 28.4224 210 210 200
-1.41861 21.8324 30.1027 208 208 196
-1.42314 22.119 30.3161 192 190 177
-1.30286 18.5498 28.1468 215 213 201
-1.30286 18.5498 28.1468 212 212 202
-1.32878 19.6151 28.7806 208 210 197
-1.34015 20.1257 29.0788 216 214 201
-1.345 20.1632 29.1247 216 214 201
-1.41135 22.7686 30.7658 210 207 200
-1.41135 22.7686 30.7658 216 216 206
-1.39761 22.6055 30.6015 216 216 206
-1.37956 22.1481 30.3364 208 208 198
-1.37124 21.9421 30.1714 199 201 190
-1.31094 20.3073 29.1824 217 214 205
-1.28984 19.9936 29.0011 201 198 189
-1.29255 20.9007 29.521 201 198 189
-1.24795 19.149 28.5407 210 207 198
-1.34414 22.7614 30.7645 217 215 202
-1.31797 22.2119 30.3782 214 213 192
-1.29523 21.4861 29.9607 211 209 197
-1.25181 20.3727 29.2138 182 179 162
-1.28499 22.0848 30.294 212 208 197
-1.23241 21.3371 29.8446 209 210 202
-1.23186 22.0325 30.2804 190 187 168
-1.23193 22.0229 30.2676 190 187 168
-1.13237 18.0764 28.1083 186 184 171
-1.2247 22.407 30.5582 60 60 48
-1.1985 21.8841 30.1982 171 168 151
-1.19179 22.3447 30.5296 211 211 201
-1.18848 22.2267 30.4487 212 210 198
-1.17381 21.8749 30.2084 212 212 202
-1.15032 22.4554 30.6008 65 67 56
-1.07129 19.6975 28.9136 212 212 202
-1.02219 20.1342 29.1402 126 122 110
-0.996385 20.4193 29.2813 209 209 199
-1.03565 22.3674 30.6075 209 209 199
-1.07082 24.0895 31.8863 88 81 63
-0.986513 22.0188 30.2957 208 208 198
-0.953276 22.2463 30.4534 174 171 162
-0.917316 21.4484 29.943 212 212 202
-0.908902 22.6456 30.7213 211 211 201
-0.914382 23.2206 31.1089 211 211 201
-0.908647 23.3297 31.1947 212 212 202
-0.910892 23.4539 31.2732 212 212 202
-0.894734 22.7134 30.7619 91 84 68
-0.877797 22.101 30.3506 212 212 202
-0.870945 24.3133 31.8498 211 211 201
-0.854343 23.3484 31.1729 181 182 174
-0.834382 22.5753 30.7017 90 83 67
-0.824833 22.4987 30.6819 89 82 64
-0.83704 23.3634 31.1702 213 213 203
-0.832657 23.9409 31.5748 210 210 200
-0.813762 23.7907 31.4736 210 210 200
-0.81465 24.8597 32.2104 224 221 212
-0.795691 24.1876 31.7684 211 211 201
-0.781051 23.6631 31.3913 67 68 52
-0.819129 26.1556 33.1956 207 205 193
-0.819129 26.1556 33.1956 210 210 200
-0.810102 26.6892 33.5828 209 207 194
-0.848348 29.3863 35.6362 111 107 78
-0.870734 30.8203 36.679 212 212 202
-0.863596 31.5904 37.2439 210 210 200
-0.970348 39.0101 44.4286 210 210 200
-0.728797 31.7303 37.3643 210 210 200
-0.630939 33.0846 38.2906 214 214 204
-0.513967 34.4492 39.2445 214 214 204
-0.504975 33.9644 40.562 212 209 200
-0.504975 33.9644 40.562 209 209 199
0.477834 3.15916 5.92428 209 209 199
0.5186 3.18324 4.4334 208 208 198
0.550343 3.2443 4.13776 82 84 62
-10.9857 43.0195 49.9371 208 208 198
-10.288 44.3927 49.6203 211 211 201
-4.31172 16.765 30.7826 208 208 198
-4.0341 17.4155 29.4741 55 51 40
-4.05547 17.688 29.7108 212 212 200
-3.46254 14.9868 27.1521 212 212 200
-3.41893 14.8425 26.999 207 205 192
-3.55322 15.9887 27.6121 205 205 195
-3.46964 15.938 27.5458 185 183 171
-4.92599 30.3569 41.4109 219 217 205
-4.88479 30.0388 41.0936 215 213 201
-4.97609 31.0159 41.8942 47 43 31
-3.26182 15.5503 28.9871 210 210 200
-4.84534 30.4874 41.2972 223 220 211
-3.39742 17.6264 29.6042 93 94 80
-3.20151 16.067 28.5325 87 90 63
-3.32623 17.315 29.4083 209 209 197
-3.51131 19.1899 30.8001 205 205 195
-3.37354 17.9628 29.8341 205 205 195
-3.27281 17.11 29.2106 218 214 202
-3.3413 17.8363 29.6478 216 214 202
-3.30947 17.7479 29.5892 217 215 203
-3.26484 17.7374 29.5875 217 215 202
-3.07578 15.9602 28.2993 211 208 199
-4.10512 26.8662 37.3095 210 210 198
-3.02844 15.9068 28.2814 210 210 198
-3.24609 18.0164 29.7387 95 87 74
-3.18779 17.7923 29.5742 217 215 202
-3.18779 17.7923 29.5742 176 174 162
-3.12021 17.477 29.3161 215 211 199
-3.12021 17.477 29.3161 213 210 201
-2.95045 15.7855 28.1101 211 211 199
-2.924 15.8052 28.1763 97 90 74
-2.96178 16.1523 28.3118 212 209 200
-3.20711 18.6597 30.0693 210 210 198
-3.23881 19.0123 30.2758 170 166 154
-3.51414 22.0113 32.1292 209 209 199
-2.74203 15.0357 29.0689 219 215 214
-2.8705 15.7551 28.1335 198 194 191
-2.73912 15.1579 29.2342 205 203 191
-2.75122 15.274 29.2848 219 219 209
-2.90292 16.1909 28.3838 211 211 201
-2.7514 15.6328 29.6646 210 206 197
-2.67024 14.8733 28.9812 214 213 195
-2.72842 15.0458 27.9056 104 99 79
-2.19191 1.5272 3.56967 104 99 79
-2.79652 15.9696 28.2718 211 208 199
-2.61442 14.8964 28.9391 215 212 203
-2.64544 15.4625 29.4884 209 209 199
-2.91306 17.2484 28.9934 223 221 209
-2.57935 15.1771 29.2292 212 210 198
-2.91072 17.6094 29.0808 212 209 200
-2.9761 18.4164 29.4284 210 207 198
-2.63159 15.1863 27.8547 216 213 204
-2.64902 15.5336 28.0836 215 212 203
-3.20396 21.2313 31.0583 195 192 183
-3.16077 20.885 30.7758 209 206 197
-2.41802 14.5888 28.7046 216 213 204
-3.04687 19.8604 30.0237 209 206 197
-2.93463 18.9957 29.5047 217 214 205
-2.38736 14.5936 28.6659 208 208 198
-3.05917 20.3639 30.276 208 208 198
-3.10606 20.9022 30.6474 204 202 190
-2.90388 18.8551 29.3717 204 202 190
-2.36444 14.5451 28.6194 75 71 59
-3.14262 21.5206 31.1123 65 62 47
-3.06675 20.682 30.4701 53 53 45
-3.06336 20.6574 30.4521 55 52 43
-2.51015 15.464 28.0936 77 70 60
-2.79542 18.0453 29.0208 216 213 204
-2.80483 18.1667 29.0449 209 206 197
-2.95942 19.8698 29.8692 104 99 80
-2.67934 17.2153 28.6069 209 209 199
-2.69601 17.5578 28.7684 169 167 155
-2.9855 20.4603 30.2319 169 167 155
-2.30178 14.6973 28.7162 205 204 199
-2.30178 14.6973 28.7162 205 204 199
-2.79681 18.6969 29.1409 211 211 201
-2.76814 18.5133 29.0691 205 205 195
-2.55328 16.623 28.4303 211 209 197
-2.26222 14.3775 28.3245 211 209 197
-2.62323 17.2499 28.6073 212 210 198
-2.40214 15.516 28.1567 184 182 170
-2.87244 19.7666 29.7011 189 187 175
-2.66075 17.7388 28.711 215 212 203
-2.72934 18.4172 29.0201 212 212 202
-2.95328 20.8499 30.4344 88 81 65
-2.43141 15.9212 28.2107 214 211 202
-2.21618 14.505 28.4989 57 55 43
-2.21618 14.505 28.4989 205 205 193
-2.53039 16.8357 28.3897 61 60 55
-2.64796 17.9301 28.7112 211 211 201
-2.9489 21.1399 30.6122 215 213 201
-2.9489 21.1399 30.6122 212 210 198
-2.72398 18.6999 29.0737 76 73 64
-2.95918 21.2788 30.7083 210 210 200
-2.56046 17.1441 28.4071 85 77 64
-3.00359 21.9051 31.1969 215 213 201
-2.90223 20.7042 30.2858 215 212 203
-2.5771 17.4082 28.5375 212 209 200
-2.5771 17.4082 28.5375 211 211 201
-2.49491 16.6944 28.3209 97 85 69
-2.98404 21.7575 31.0762 100 95 76
-2.75643 19.1834 29.3282 100 95 76
-2.90194 20.7891 30.3257 111 104 86
-2.619 17.8811 28.6731 95 89 73
-2.81414 20.0403 29.7741 212 209 200
-2.86792 20.865 30.3573 212 209 200
-2.40798 16.3904 28.2507 98 93 73
-2.77707 19.9984 29.731 208 208 198
-2.58134 17.9925 28.6257 215 213 201
-2.5808 17.9979 28.6366 207 205 193
-2.86421 21.0925 30.5147 210 210 200
-2.804 20.3919 29.9816 211 209 197
-2.4243 16.8724 28.1981 211 211 201
-2.40915 16.7479 28.1714 49 47 34
-2.42231 16.9768 28.2011 214 211 202
-2.587 18.5691 28.8465 116 111 92
-2.61007 18.8754 29.0415 212 210 198
-2.69762 19.8194 29.5628 143 141 129
-2.05227 14.2073 28.0657 212 212 202
-2.54393 18.3817 28.7521 212 212 200
-2.74518 20.7306 30.1447 213 213 203
-2.5599 18.6874 28.8925 213 211 199
-2.31404 16.4338 28.1131 212 212 202
-2.43117 17.5514 28.3769 212 212 202
-2.48172 18.0905 28.5715 69 69 61
-2.78886 21.6657 30.8118 211 209 197
-2.82598 22.0958 31.124 54 55 41
-2.27688 16.347 28.0436 40 36 25
-2.51626 18.5753 28.791 40 36 25
-2.42456 17.6795 28.3845 91 84 76
-2.42456 17.6795 28.3845 210 208 196
-2.38382 17.2829 28.1981 68 64 53
-2.72268 21.2301 30.4622 214 212 200
-2.653 20.377 29.8722 215 213 201
-2.57634 19.4693 29.2662 92 86 74
-2.67137 20.6754 30.0633 99 95 83
-2.58397 19.6662 29.3816 99 95 83
-2.71146 21.3471 30.5166 219 220 206
-2.56201 19.5864 29.3118 110 107 92
-2.62238 20.3976 29.8425 215 213 201
-2.68781 21.2861 30.4531 51 46 27
-2.45839 18.5731 28.6599 51 46 27
-2.47063 18.7457 28.7745 184 180 171
-2.60352 20.3067 29.7605 178 177 159
-2.18226 16.3031 28.0178 210 210 200
-2.53098 19.6129 29.2418 210 210 200
-2.57907 20.3205 29.7431 214 214 204
-2.30316 17.3638 28.1664 211 209 197
-2.63944 21.1959 30.3749 212 210 198
-2.29608 17.4251 28.1555 217 214 199
-2.40892 18.5291 28.5987 213 211 199
-2.68394 21.9505 30.8912 93 89 78
-2.66569 21.7693 30.7535 141 138 131
-2.36551 18.1469 28.4032 210 208 196
-2.37511 18.3705 28.4825 208 208 198
-2.34193 18.0811 28.3429 209 209 199
-2.27261 17.457 28.141 123 119 108
-2.27261 17.457 28.141 211 209 197
-2.37187 18.4604 28.5069 172 169 160
-2.50693 20.1201 29.5148 128 125 110
-2.36299 18.4723 28.4546 149 145 136
-2.32624 18.1615 28.3728 215 213 201
-2.58373 21.4535 30.4591 214 214 204
-2.54665 21.0295 30.1593 210 208 196
-2.69113 22.9893 31.5721 209 210 202
-2.65668 22.5578 31.2635 209 210 202
-2.61688 22.1612 30.9476 216 214 202
-2.31454 18.4756 28.3443 131 128 111
-2.61451 22.4445 31.1384 214 212 200
-2.14669 17.1185 27.9026 129 127 114
-2.5359 21.8237 30.6025 214 211 202
-2.20721 17.8353 28.0734 217 214 205
-2.20721 17.8353 28.0734 174 172 159
-2.5199 21.7678 30.5747 141 138 123
-2.50533 21.6558 30.5069 211 208 199
-1.73152 14.3329 28.0065 214 211 202
-3.88152 42.9106 47.669 215 212 203
-2.2912 18.7932 28.3449 210 207 198
-2.45302 21.1216 30.0685 211 208 199
-1.70977 14.2131 27.912 147 144 127
-2.79797 26.1205 33.8379 147 141 127
-2.20194 17.9906 28.0125 59 60 46
-2.50532 22.103 30.8104 213 210 201
-2.25284 18.7367 28.2599 213 210 201
-2.74724 26.4868 34.0753 213 210 201
-2.27518 19.6247 28.8239 211 208 199
-2.6465 25.4603 33.2696 211 208 199
-2.6465 25.4603 33.2696 203 200 191
-1.89849 16.3607 27.5707 203 200 191
-2.04802 17.6736 27.7886 208 205 196
-1.95574 16.9789 27.7143 209 206 197
-2.70221 27.6142 34.8331 206 203 194
-1.91495 16.8318 27.5926 162 157 137
-1.91826 16.8328 27.5814 21 18 13
-2.13983 19.135 28.4357 215 212 203
-1.54926 14.6898 28.3307 67 64 59
-3.22364 36.8745 42.2867 169 165 138
-2.63329 26.9551 34.2886 169 165 138
-2.25704 21.2294 29.9128 213 210 201
-2.46948 24.6735 32.5232 170 170 158
-2.09715 19.0597 28.3706 138 136 121
-2.26422 21.6163 30.1922 212 209 200
-2.357 23.3289 31.4893 153 153 143
-1.94735 17.6216 27.6767 212 210 198
-2.16205 20.3785 29.2806 209 209 197
-2.16373 20.3587 29.2487 209 209 199
-2.09065 19.3711 28.5596 197 197 185
-2.2302 21.5934 30.1732 197 197 185
-2.31214 22.9101 31.1315 151 148 133
-2.31214 22.9101 31.1315 213 210 201
-2.31116 23.0906 31.2998 113 113 105
-2.18376 21.0431 29.7645 164 161 152
-2.12969 20.2623 29.1868 164 164 154
-1.89166 17.3636 27.5743 199 199 187
-1.47616 15.2183 28.7242 171 171 159
-1.81643 16.85 27.4848 211 211 201
-2.34541 23.951 31.8772 200 200 188
-3.1989 39.5174 44.382 178 177 159
-3.06415 37.3695 42.5785 213 210 201
-1.71631 16.2252 27.1526 180 177 162
-2.24177 23.2031 31.2917 209 209 199
-2.53954 28.6268 35.593 209 209 199
-2.54752 28.5835 35.5152 191 189 174
-2.29506 24.1213 31.9609 214 211 202
-1.8287 17.4272 27.557 199 196 189
-1.76151 16.814 27.3911 207 207 197
-2.15556 21.824 30.2217 209 209 199
-2.14663 21.7799 30.231 201 202 194
-2.01635 19.7906 28.8304 194 194 182
-2.08593 21.0041 29.661 189 188 170
-1.89042 18.4109 28.0113 202 202 194
-2.0906 21.2963 29.8625 202 202 194
-1.91474 18.8238 28.2526 208 208 198
-1.75685 17.044 27.4286 209 209 199
-1.70848 16.7523 27.3474 208 208 198
-2.0566 21.1823 29.7751 197 197 185
-2.06923 21.5081 30.0028 197 197 185
-1.75878 17.4491 27.5659 200 198 186
-1.84674 18.5753 28.114 197 195 182
-1.71004 17.0545 27.386 209 209 199
-1.67975 16.8355 27.3258 213 213 203
-2.05304 22.1069 30.4118 194 195 179
-1.77957 18.2329 27.9218 202 204 193
-1.87797 19.6003 28.7203 202 204 193
-1.67805 17.1844 27.4162 178 176 163
-1.64204 16.9647 27.3289 205 207 196
-1.79489 18.9339 28.3379 187 187 175
-1.6536 17.1619 27.4028 190 190 178
-1.71656 17.9026 27.746 190 190 178
-1.80394 19.0731 28.4109 207 205 193
-1.83706 19.5629 28.7154 180 178 165
-2.04468 22.8949 30.9493 77 73 48
-1.92383 20.9051 29.531 149 146 127
-1.92383 20.9051 29.531 212 210 198
-1.65465 17.3435 27.4678 210 207 198
-1.66679 17.5006 27.5232 209 206 197
-1.69114 17.8826 27.7403 215 213 201
-1.93937 21.5376 29.9665 209 207 195
-1.71962 18.5387 28.1052 209 206 197
-1.91659 21.3808 29.8314 197 200 189
-1.64363 17.5898 27.5869 211 208 199
-2.07395 24.3066 31.9634 209 204 198
-1.93558 22.01 30.3182 171 169 157
-1.79187 19.8412 28.8788 204 204 194
-1.75779 19.3481 28.5638 209 206 197
-1.8686 21.058 29.6569 198 198 186
-1.90289 21.5905 30.0033 213 210 201
-1.84385 20.682 29.4055 195 195 187
-1.68121 18.499 28.0754 211 209 197
-2.02067 23.8543 31.6014 216 213 204
-1.61447 17.7399 27.6752 208 204 192
-1.72315 19.3908 28.598 214 211 202
-1.96905 23.552 31.3955 215 212 203
-1.82219 21.2514 29.7849 209 207 195
-1.9623 23.6393 31.4423 211 212 207
-1.63512 18.6813 28.2 208 208 198
-1.63512 18.6813 28.2 210 208 196
-1.82586 21.5133 29.8974 205 201 192
-1.54544 17.5978 27.5765 205 201 192
-1.68958 19.7196 28.7988 187 184 165
-1.77235 21.0715 29.6203 82 75 57
-1.72407 20.4138 29.2463 201 198 183
-1.51852 17.5531 27.5733 201 198 183
-1.47922 17.2998 27.4355 204 205 197
-1.51306 17.7554 27.6662 195 192 175
-1.66535 20.0755 29.0441 214 212 200
-1.59288 19.3537 28.6103 214 211 202
-1.65425 20.5706 29.3415 210 208 196
-1.5415 19.0132 28.386 144 140 131
-1.65001 20.8055 29.4788 208 206 194
-1.41964 17.5162 27.546 208 205 196
-1.42101 17.6519 27.6138 210 207 198
-1.4229 17.6568 27.6124 214 211 202
-1.61604 20.6238 29.3775 216 213 204
-1.59545 20.3295 29.1909 213 213 201
-1.59736 20.325 29.1801 207 204 195
-1.64211 20.9882 29.5755 216 213 204
-1.40193 17.5736 27.5697 214 212 200
-1.45637 18.4512 28.0728 211 208 199
-1.45637 18.4512 28.0728 212 212 202
-1.58662 20.5128 29.2868 216 213 204
-1.63006 21.2366 29.7326 209 206 197
-1.66476 22.1328 30.3336 213 211 199
-1.55265 20.3058 29.1531 213 211 199
-1.55265 20.3058 29.1531 212 210 198
-1.6429 21.9526 30.1865 210 207 198
-1.32533 17.163 27.3651 209 209 199
-1.46134 19.282 28.5644 211 208 199
-1.44246 19.0678 28.4498 214 213 209
-1.39837 18.3952 28.0438 209 207 194
-1.46801 19.7438 28.8383 211 212 198
-1.46998 19.89 28.9246 210 208 195
-1.5942 22.8629 30.8434 145 145 133
-1.50456 21.7318 30.0605 213 210 201
-1.49589 21.6313 29.9795 210 207 202
-1.37023 19.728 28.8446 210 208 195
-1.47368 21.462 29.8862 208 205 196
-1.3405 19.8934 28.9402 135 133 120
-1.28902 19.5654 28.7473 209 209 197
-1.41059 21.8652 30.1529 209 209 197
-1.38672 21.4236 29.8416 209 210 196
-1.38672 21.4236 29.8416 188 186 174
-1.33989 20.9328 29.5581 144 140 131
-1.38003 21.7569 30.0897 206 203 194
-1.30674 20.7269 29.4283 206 203 194
-1.40368 22.9084 30.8919 75 71 68
-1.19833 19.3042 28.5975 75 71 68
-1.31098 22.1188 30.334 75 71 68
-1.20608 20.433 29.2523 168 165 156
-1.24261 21.4636 29.9231 209 209 209
-1.23936 21.599 30.0121 206 200 186
-1.25121 21.7786 30.1203 206 207 199
-1.24749 22.4849 30.6013 214 211 202
-1.21766 22.4317 30.5987 211 209 197
-1.19439 22.1193 30.3764 211 209 197
-1.17292 21.8689 30.2064 208 206 193
-1.06022 19.5977 28.7453 206 206 196
-1.14371 22.4902 30.6611 205 205 195
-1.12935 22.677 30.7908 205 205 195
-1.04397 21.4121 29.901 204 204 194
-1.01802 21.1316 29.7188 204 204 194
-0.997284 21.7783 30.1667 143 139 128
-0.919949 21.7747 30.1275 213 213 203
-0.932903 22.8232 30.8439 214 211 202
-1.07021 36.5995 42.6411 213 210 201
-1.01004 34.859 41.2351 215 212 203
-0.845767 23.2525 31.1387 207 208 200
-0.863476 23.843 31.5305 215 212 205
-0.846133 26.4158 33.4162 215 212 205
-0.870269 36.929 42.7378 214 211 202
-0.866799 37.3988 43.0944 214 211 202
-0.935203 44.6739 48.7544 194 194 194
-0.842499 31.8128 37.5367 215 212 205
-0.773073 39.2531 44.4797 215 212 205
-0.777795 45.3333 49.1672 214 212 199
-0.698599 41.4856 46.1696 215 212 203
-0.661015 41.7754 46.329 211 211 199
-0.657327 41.6283 46.2113 215 212 203
-0.704071 45.8329 49.453 183 182 177
-0.704071 45.8329 49.453 214 211 206
3.18971 45.0557 49.6296 213 213 205
-1.10439 4.29096 7.52977 213 213 205
-1.22186 4.46665 5.34226 217 214 205
-4.46499 -0.291866 1.85833 211 206 210
-13.242 34.1427 49.9482 216 213 204
-12.6449 33.776 49.5697 208 203 173
-4.5667 0.191605 2.50214 210 207 200
-12.4446 47.4819 49.4974 210 211 206
-12.3072 47.3144 49.4621 223 217 201
-12.3072 47.3144 49.4621 219 210 205
-12.2472 47.3321 49.4012 208 210 205
-12.2744 47.4489 49.3998 216 216 208
-12.146 47.3724 49.3136 214 212 197
-12.1599 47.5798 49.2807 211 208 199
-12.1581 47.7248 49.3488 203 200 195
-12.0326 47.5098 49.145 203 200 195
-11.9421 47.4148 49.1382 210 207 198
-11.8589 47.247 49.2812 212 209 200
-11.7946 47.1845 49.2899 213 211 199
-11.7788 47.4653 49.1636 196 189 170
-11.686 47.8337 49.619 205 202 193
-11.5863 47.6951 49.1295 213 210 203
-4.95727 21.4219 35.4142 212 208 197
-4.95727 21.4219 35.4142 212 208 197
-4.3704 16.8968 30.8824 216 213 204
-5.33366 26.5574 41.09 215 212 203
-3.96648 14.9544 29.1944 210 208 196
-3.95454 15.0246 29.1756 212 209 200
-6.52456 35.9952 49.4209 212 209 200
-5.58444 29.4922 43.8236 216 213 204
-6.16384 34.0847 47.5924 209 209 199
-4.38375 19.3064 31.7337 215 212 203
-4.16296 17.7443 29.8811 215 212 203
-4.1066 17.5772 29.6663 211 208 199
-4.07814 17.4671 29.547 216 213 204
-4.49948 21.1804 32.8254 209 206 197
-9.72974 49.8041 49.9791 211 208 201
-4.09402 17.7928 29.7134 217 214 205
-3.98255 17.0773 29.1772 88 81 65
-4.45886 21.0845 32.7412 0 0 0
-4.11846 18.0302 29.8996 0 0 0
-4.11848 18.041 29.9137 0 0 0
-3.49331 14.3914 26.8831 0 0 0
-5.07409 30.9088 41.9706 0 0 0
-5.61473 36.9486 47.7432 0 0 0
-3.54414 15.9915 27.5932 0 0 0
-4.837 30.2878 41.0663 0 0 0
-3.14914 15.512 28.1969 0 0 0
-2.74392 14.9126 28.9297 0 0 0
-3.09611 15.4424 27.9698 0 0 0
-4.73678 31.4208 41.9113 0 0 0
-2.73613 15.2228 29.1236 0 0 0
-2.69522 14.9453 28.9056 0 0 0
-4.21389 25.6 36.2191 0 0 0
-2.64475 14.9196 28.8764 0 0 0
-3.43317 18.5197 30.1824 0 0 0
-3.41928 18.3622 30.0295 0 0 0
-3.34917 17.807 29.6028 0 0 0
-3.28961 17.4779 29.3622 0 0 0
-2.65866 15.4984 29.3223 0 0 0
-3.04101 15.8143 28.1134 0 0 0
-3.24302 17.3525 29.2232 0 0 0
-2.55456 14.6003 28.5163 0 0 0
-3.13793 16.5663 28.6329 0 0 0
-2.54193 14.6923 28.6251 0 0 0
-2.54193 14.6923 28.6251 0 0 0
-3.16317 16.9464 28.9168 0 0 0
-3.16317 16.9464 28.9168 0 0 0
-3.22962 17.4675 29.28 0 0 0
-3.05281 16.126 28.2706 0 0 0
-3.20529 17.363 29.2076 0 0 0
-2.56555 15.1874 28.9788 0 0 0
-3.22484 17.646 29.4073 0 0 0
-2.94994 15.9188 28.0855 0 0 0
-2.95051 16.0417 28.1825 0 0 0
-2.75149 15.0446 27.7239 0 0 0
-2.73933 14.9839 27.6892 0 0 0
-2.38618 14.5731 28.4136 0 0 0
-3.25339 18.6627 30.0127 0 0 0
-3.09794 17.5627 29.222 0 0 0
-3.06788 17.5668 29.2101 0 0 0
-2.82948 16.0708 28.1702 0 0 0
-3.00452 17.3384 29.0276 0 0 0
-2.968 17.1277 28.8539 0 0 0
-2.51868 15.1567 28.1782 0 0 0
-3.08341 18.0289 29.4724 0 0 0
-2.64729 15.3936 27.872 0 0 0
-2.86874 16.7469 28.5623 0 0 0
-2.22186 14.4892 28.2902 0 0 0
-2.89331 17.0896 28.7834 0 0 0
-2.91314 17.2267 28.8645 0 0 0
-3.0709 18.3663 29.5998 0 0 0
-2.59436 15.6299 27.9699 0 0 0
-3.0394 18.3621 29.5152 0 0 0
-2.87582 17.3655 28.9109 0 0 0
-3.47556 21.949 31.9798 0 0 0
-2.54838 15.6539 27.9704 0 0 0
-3.257 20.2434 30.6398 0 0 0
-3.40648 21.6741 31.7 0 0 0
-3.42459 21.8628 31.8361 0 0 0
-2.58581 16.1265 28.1975 0 0 0
-2.56447 16.0707 28.1497 0 0 0
-2.57127 16.0618 28.121 0 0 0
-2.88995 18.0964 29.1071 0 0 0
-3.27701 21.0867 31.087 0 0 0
-2.68688 17.0658 28.5553 0 0 0
-2.70354 17.2454 28.588 0 0 0
-3.19343 20.6607 30.6675 0 0 0
-2.51481 16.3357 28.1596 0 0 0
-3.02586 19.5258 29.8136 0 0 0
-3.04757 19.8073 29.9608 0 0 0
-2.71622 17.6242 28.6616 0 0 0
-2.71622 17.6242 28.6616 0 0 0
-2.57899 16.9175 28.3425 0 0 0
-2.80531 18.2132 28.9994 0 0 0
-2.62662 17.2101 28.4816 0 0 0
-2.98041 19.3816 29.671 0 0 0
-2.43615 16.3078 28.1352 0 0 0
-3.31155 22.6209 32.1312 0 0 0
-2.47607 16.4702 28.1499 0 0 0
-2.71442 17.7467 28.7341 0 0 0
-2.41382 16.2478 28.0868 0 0 0
-3.1339 20.7794 30.5985 0 0 0
-3.22517 21.9113 31.4863 0 0 0
-2.96967 19.5621 29.7282 0 0 0
-3.07897 20.5093 30.3694 0 0 0
-2.73413 18.0713 28.7962 0 0 0
-2.74691 18.2233 28.8952 0 0 0
-3.08514 21.0707 30.7418 0 0 0
-2.52839 17.1344 28.2772 0 0 0
-2.52839 17.1344 28.2772 0 0 0
-2.56339 17.3777 28.4086 0 0 0
-3.07116 21.0185 30.6686 0 0 0
-3.01586 20.5608 30.3295 0 0 0
-1.73 14.1414 27.721 0 0 0
-2.32428 16.4089 28.063 0 0 0
-2.47054 17.0195 28.2175 0 0 0
-2.60855 17.7572 28.5322 0 0 0
-3.14379 22.4693 31.7636 0 0 0
-2.4971 17.3327 28.2699 0 0 0
-2.71903 18.7506 29.0425 0 0 0
-2.95011 20.75 30.3499 0 0 0
-2.3621 16.7592 28.004 0 0 0
-2.81201 19.6725 29.5722 0 0 0
-2.4338 17.261 28.1906 0 0 0
-2.86672 20.2973 30.0026 0 0 0
-2.82187 19.8589 29.681 0 0 0
-2.93727 20.9871 30.4913 0 0 0
-3.00497 21.7782 31.1117 0 0 0
-2.51458 17.9338 28.5293 0 0 0
-2.78146 19.83 29.6393 0 0 0
-2.64159 18.8744 29.0776 0 0 0
-2.26112 16.6299 27.9356 0 0 0
-2.34769 17.0398 28.0577 0 0 0
-2.59205 18.5526 28.8495 0 0 0
-2.28091 16.8533 27.9707 0 0 0
-2.28091 16.8533 27.9707 0 0 0
-2.59315 18.8299 28.9565 0 0 0
-2.21993 16.6777 27.8664 0 0 0
-2.57853 18.917 29.001 0 0 0
-2.51375 18.5655 28.7891 0 0 0
-1.52866 15.4318 28.7288 0 0 0
-2.58112 19.1888 29.1524 0 0 0
-2.62848 19.5466 29.3598 0 0 0
-4.49328 2.75011 5.01973 0 0 0
-2.79356 21.1138 30.4398 0 0 0
-2.84656 21.7516 30.9228 0 0 0
-2.60936 19.6343 29.4005 0 0 0
-2.87084 22.2239 31.277 0 0 0
-2.87084 22.2239 31.277 0 0 0
-2.2402 17.1415 27.9736 0 0 0
-2.64352 19.8817 29.5293 0 0 0
-2.57174 19.3453 29.1882 0 0 0
-2.54897 19.1987 29.087 0 0 0
-2.59075 19.5719 29.3385 0 0 0
-2.98381 24.6501 33.376 0 0 0
-2.6247 19.9513 29.5662 0 0 0
-2.6247 19.9513 29.5662 0 0 0
-4.38654 44.5957 49.8097 0 0 0
-2.8043 21.8349 30.9385 0 0 0
-2.47345 18.7111 28.7285 0 0 0
-2.78256 21.6847 30.8396 0 0 0
-2.45118 18.6987 28.7253 0 0 0
-2.15326 16.9397 27.8464 0 0 0
-2.56465 19.7775 29.426 0 0 0
-2.7025 21.1244 30.3825 0 0 0
-2.60382 20.1428 29.6657 0 0 0
-2.60114 20.1507 29.6803 0 0 0
-2.60382 20.1428 29.6657 0 0 0
-2.57778 19.9426 29.5295 0 0 0
-2.57778 19.9426 29.5295 0 0 0
-2.75428 21.8135 30.8816 0 0 0
-2.75428 21.8135 30.8816 0 0 0
-2.34857 18.1653 28.3811 0 0 0
-2.49211 19.2276 29.0085 0 0 0
-2.28822 17.8294 28.184 0 0 0
-2.42489 18.7955 28.6976 0 0 0
-2.42489 18.7955 28.6976 0 0 0
-2.65032 21.0434 30.3018 0 0 0
-2.57722 20.292 29.7197 0 0 0
-4.29036 45.0025 49.8469 0 0 0
-2.61759 20.9548 30.2053 0 0 0
-2.61759 20.9548 30.2053 0 0 0
-2.44758 19.1814 28.9015 0 0 0
-2.41433 18.8829 28.6986 0 0 0
-2.45118 19.425 29.0322 0 0 0
-2.45118 19.425 29.0322 0 0 0
-2.31368 18.3055 28.3171 0 0 0
-2.52615 20.2349 29.6164 0 0 0
-2.38467 18.8651 28.647 0 0 0
-2.46749 19.6925 29.2155 0 0 0
-2.45185 19.6115 29.1493 0 0 0
-2.48474 20.0724 29.4717 0 0 0
-2.64506 22.0405 30.9276 0 0 0
-2.14581 17.5695 27.9286 0 0 0
-2.86212 25.0836 33.3294 0 0 0
-2.93615 25.964 33.9651 0 0 0
-2.56999 21.335 30.3796 0 0 0
-2.5737 21.5057 30.5307 0 0 0
-2.62486 22.0946 30.9484 0 0 0
-1.97221 16.9156 27.6953 0 0 0
-2.74656 24.0122 32.3986 0 0 0
-2.18235 17.8899 27.951 0 0 0
-2.30667 18.7955 28.4097 0 0 0
-2.54484 21.7325 30.6369 0 0 0
-2.30831 18.8689 28.4369 0 0 0
-2.30793 18.8805 28.4496 0 0 0
-1.95403 17.0205 27.6874 0 0 0
-2.09986 17.6915 27.8546 0 0 0
-1.90092 16.7815 27.5158 0 0 0
-1.9479 17.0419 27.6128 0 0 0
-2.49932 21.6779 30.5409 0 0 0
-2.28182 19.0177 28.4627 0 0 0
-2.07637 17.7502 27.8168 0 0 0
-1.73311 16.1851 27.1319 0 0 0
-1.91733 17.2565 27.6166 0 0 0
-2.20292 18.9651 28.3727 0 0 0
-2.73707 26.0739 33.7547 0 0 0
-2.73707 26.0739 33.7547 0 0 0
-2.05583 18.6219 28.3883 0 0 0
-1.88136 17.2837 27.5712 0 0 0
-3.57756 40.9237 45.8308 0 0 0
-1.87195 17.3181 27.6191 0 0 0
-3.55948 41.1875 46.0235 0 0 0
-2.64546 25.7913 33.5398 0 0 0
-2.69507 26.5322 34.0916 0 0 0
-2.70065 26.6817 34.176 0 0 0
-2.28801 21.3895 30.0927 0 0 0
-2.28801 21.3895 30.0927 0 0 0
-3.10583 34.4275 40.3973 0 0 0
-3.10583 34.4275 40.3973 0 0 0
-2.122 19.3921 28.6139 0 0 0
-2.58408 25.7281 33.4213 0 0 0
-1.82783 17.604 27.6248 0 0 0
-1.76064 17.2762 27.4912 0 0 0
-1.76064 17.2762 27.4912 0 0 0
-1.76064 17.3458 27.4973 0 0 0
-2.06832 19.7121 28.8346 0 0 0
-2.03079 19.3459 28.5706 0 0 0
-1.8868 18.3731 28.0145 0 0 0
-2.13263 20.7564 29.5815 0 0 0
-1.74455 17.6985 27.6511 0 0 0
-1.98413 19.681 28.7874 0 0 0
-1.77503 18.0661 27.8382 0 0 0
-2.11408 21.3046 29.91 0 0 0
-2.9137 34.7855 40.4973 0 0 0
-2.111 21.8368 30.2971 0 0 0
-2.05648 21.3458 29.9256 0 0 0
-2.04596 21.2081 29.8203 0 0 0
-1.59522 17.3946 27.5 0 0 0
-1.93143 20.1478 29.0959 0 0 0
-1.93554 20.2436 29.1409 0 0 0
-1.55809 17.3202 27.4557 0 0 0
-1.89061 20.0862 29.0485 0 0 0
-1.86127 19.8446 28.9005 0 0 0
-2.00485 21.3201 29.8695 0 0 0
-2.08276 22.7024 30.864 0 0 0
-2.04277 22.2454 30.532 0 0 0
-1.85854 20.3205 29.2086 0 0 0
-1.80461 19.7653 28.8364 0 0 0
-1.65497 18.6466 28.1864 0 0 0
-1.75216 19.48 28.6805 0 0 0
-1.94454 21.4999 29.9851 0 0 0
-1.71667 19.3831 28.6483 0 0 0
-2.10689 24.0752 31.8201 0 0 0
-1.71206 19.5745 28.7365 0 0 0
-2.02788 23.0605 31.0806 0 0 0
-1.72118 19.7418 28.8533 0 0 0
-1.53171 18.2563 27.9699 0 0 0
-1.59287 18.8729 28.3289 0 0 0
-1.50112 18.1868 27.9271 0 0 0
-1.60395 19.2275 28.5403 0 0 0
-1.57723 19.1997 28.5154 0 0 0
-1.39702 17.7487 27.6862 0 0 0
-1.67582 20.4421 29.2676 0 0 0
-1.32624 17.6405 27.6009 0 0 0
-1.69561 21.0384 29.6575 0 0 0
-1.69561 21.0384 29.6575 0 0 0
-1.33412 17.8153 27.7043 0 0 0
-1.46037 18.9214 28.3505 0 0 0
-1.69303 21.2003 29.7582 0 0 0
-1.32701 18.1599 27.92 0 0 0
-1.32701 18.1599 27.92 0 0 0
-1.49858 19.8069 28.8862 0 0 0
-1.46638 19.6464 28.7926 0 0 0
-1.52187 20.2066 29.1238 0 0 0
-1.39731 19.0767 28.4442 0 0 0
-1.55152 20.6239 29.4017 0 0 0
-1.33533 18.633 28.1846 0 0 0
-1.3377 18.6294 28.1761 0 0 0
-1.5742 20.8858 29.547 0 0 0
-1.5742 20.8858 29.547 0 0 0
-1.54944 20.8961 29.5332 0 0 0
-1.27681 18.4629 28.0894 0 0 0
-1.6518 22.1874 30.4067 0 0 0
-1.35896 19.2763 28.5734 0 0 0
-1.51992 21.1154 29.7007 0 0 0
-1.51992 21.1154 29.7007 0 0 0
-1.43971 20.5785 29.353 0 0 0
-1.39036 20.5364 29.3321 0 0 0
-1.38931 20.5519 29.3485 0 0 0
-1.31091 19.8277 28.8944 0 0 0
-4.46445 2.72175 4.56356 0 0 0
-1.23395 20.0424 29.0549 0 0 0
-1.31634 21.1081 29.6958 0 0 0
-1.21164 22.1206 30.4143 0 0 0
-1.0616 40.538 45.8404 0 0 0
0.00470014 21.0528 31.9834 0 0 0
-0.825934 24.3054 31.8817 0 0 0
-0.732391 24.5887 32.1276 0 0 0
-0.793507 26.2397 33.3322 0 0 0
-0.8463 31.0762 36.9987 0 0 0
-0.600779 44.0467 48.0222 0 0 0
-0.55232 42.7802 47.0932 0 0 0
-0.569812 44.5193 48.3603 0 0 0
-3.5118 4.48825 6.25414 0 0 0
-3.25018 4.67423 6.78186 0 0 0
-15.9326 36.2769 48.5741 0 0 0
-15.7866 36.1349 48.511 0 0 0
-15.8809 36.6582 48.796 0 0 0
-15.7626 36.5704 48.6558 0 0 0
-13.1565 33.5537 49.3821 0 0 0
-15.6871 38.3839 48.8276 0 0 0
-13.3377 33.9645 49.367 0 0 0
-13.3377 33.9645 49.367 0 0 0
-15.5931 38.2226 48.7708 0 0 0
-15.5931 38.2226 48.7708 0 0 0
-12.8736 33.2454 49.6317 0 0 0
-12.6801 32.8731 49.4479 0 0 0
-15.5391 38.3112 48.546 0 0 0
-13.4163 34.7178 49.8279 0 0 0
-11.9747 32.0015 49.9516 0 0 0
-11.9204 31.8685 49.8955 0 0 0
-15.4671 38.3214 48.4488 0 0 0
-12.2111 32.9406 49.5281 0 0 0
-6.64155 0.36142 4.63746 0 0 0
-11.9982 32.7145 49.8764 0 0 0
-12.5343 34.1129 49.7769 0 0 0
-12.4903 34.3654 49.9857 0 0 0
-12.0311 33.3622 49.8012 0 0 0
-6.64179 0.173228 4.18857 0 0 0
-5.95481 25.0458 39.8209 0 0 0
-5.83546 24.7079 39.526 0 0 0
-5.9513 25.4239 40.0455 0 0 0
-5.84509 25.4507 39.9557 0 0 0
-5.7833 25.1129 39.5258 0 0 0
-4.96198 21.4172 35.9705 0 0 0
-4.92472 21.3346 35.9298 0 0 0
-4.43956 16.7873 31.0423 0 0 0
-4.93645 21.138 35.3781 0 0 0
-4.43003 16.7919 30.8595 0 0 0
-4.39155 16.5586 30.6332 0 0 0
-4.90456 21.1301 35.0759 0 0 0
-4.41888 17.1789 31.0923 0 0 0
-4.10202 15.2616 29.4076 0 0 0
-4.01784 15.1671 29.2383 0 0 0
-4.056 15.6468 29.4078 0 0 0
-4.34293 18.1756 31.45 0 0 0
-4.44581 19.0626 32.131 0 0 0
-4.44581 19.0626 32.131 0 0 0
-11.8748 47.7597 49.6768 0 0 0
-11.9062 47.9004 49.6181 0 0 0
-4.76878 21.6541 34.2257 0 0 0
-11.6972 47.8302 49.7616 0 0 0
-3.91354 15.2665 28.3984 0 0 0
-4.28205 18.1879 30.9737 0 0 0
-4.323 18.3754 31.1019 0 0 0
-4.36739 18.6672 31.3234 0 0 0
-11.6187 47.938 49.6095 0 0 0
-3.40099 14.3575 28.2453 0 0 0
-4.37995 19.0884 31.5821 0 0 0
-3.70218 14.5261 27.3572 0 0 0
-11.5852 48.4549 49.3864 0 0 0
-3.99873 17.1815 29.2283 0 0 0
-2.91972 14.9125 28.9073 0 0 0
-3.7432 15.9038 28.0323 0 0 0
-5.2272 31.9659 43.084 0 0 0
-4.88553 29.6328 40.8556 0 0 0
-5.0933 31.8033 42.7087 0 0 0
-2.59624 14.644 28.5136 0 0 0
-2.57397 14.5926 28.4764 0 0 0
-10.7096 49.5163 49.9958 0 0 0
-4.73655 29.4545 40.3161 0 0 0
-3.25809 17.6963 29.4519 0 0 0
-3.23755 17.8241 29.5004 0 0 0
-2.07755 13.8358 27.574 0 0 0
-2.86647 15.8145 28.0109 0 0 0
-3.83135 24.178 34.7837 0 0 0
-3.20155 18.3863 29.8279 0 0 0
-3.93023 26.264 36.6676 0 0 0
-3.06182 17.5536 29.1923 0 0 0
-3.06182 17.5536 29.1923 0 0 0
-3.25929 18.9509 30.2038 0 0 0
-2.60953 15.8142 28.0054 0 0 0
-3.19508 18.9331 30.0644 0 0 0
-2.76775 16.6837 28.4597 0 0 0
-2.46517 15.8421 28.0246 0 0 0
-2.9111 17.8864 29.0841 0 0 0
-2.58869 16.4683 28.2558 0 0 0
-2.97909 18.4324 29.366 0 0 0
-3.25355 20.2457 30.6471 0 0 0
-2.42353 16.2449 28.0696 0 0 0
-2.48376 16.4293 28.1389 0 0 0
-3.08288 19.3471 29.8979 0 0 0
-2.38923 16.2116 28.0369 0 0 0
-2.70686 17.5199 28.6965 0 0 0
-2.70686 17.5199 28.6965 0 0 0
-2.80194 17.9879 28.9234 0 0 0
-2.66615 17.4234 28.5565 0 0 0
-2.6426 17.691 28.6423 0 0 0
-3.03193 20.0539 30.103 0 0 0
-2.71214 18.3428 28.9276 0 0 0
-2.62788 17.9728 28.6443 0 0 0
-3.01449 20.3627 30.2374 0 0 0
-2.70259 18.4428 28.8961 0 0 0
-3.0761 21.0925 30.7747 0 0 0
-2.9174 19.978 29.8939 0 0 0
-2.71058 18.7972 29.1037 0 0 0
-3.24097 23.6945 32.8375 0 0 0
-3.24097 23.6945 32.8375 0 0 0
-2.53588 18.4101 28.7906 0 0 0
-2.33293 17.4362 28.2103 0 0 0
-2.38374 17.6126 28.2683 0 0 0
-2.61362 18.8832 29.0343 0 0 0
-2.50807 18.3623 28.689 0 0 0
-2.55783 18.6784 28.8928 0 0 0
-2.85651 20.884 30.3916 0 0 0
-2.40199 18.0431 28.3961 0 0 0
-2.83632 20.9339 30.3741 0 0 0
-2.02585 16.4944 27.5861 0 0 0
-2.45933 18.5066 28.7139 0 0 0
-2.41315 18.2041 28.4907 0 0 0
-2.58739 19.34 29.258 0 0 0
-2.54972 19.1216 29.0708 0 0 0
-2.52081 28.145 37.6851 0 0 0
-2.12381 17.0757 27.8212 0 0 0
-2.28617 17.8503 28.2074 0 0 0
-2.45034 18.7871 28.7706 0 0 0
-2.03331 16.8499 27.6736 0 0 0
-2.03331 16.8499 27.6736 0 0 0
-2.36946 18.3047 28.449 0 0 0
-2.35651 18.2934 28.412 0 0 0
-2.66551 21.1746 30.4155 0 0 0
-2.39284 18.8146 28.6722 0 0 0
-2.11383 17.5169 27.9367 0 0 0
-2.67122 21.3078 30.5095 0 0 0
-2.14812 17.5845 27.9384 0 0 0
-2.33145 18.3706 28.3484 0 0 0
-2.33145 18.3706 28.3484 0 0 0
-1.87187 16.4735 27.3771 0 0 0
-1.96131 17.0486 27.7006 0 0 0
-2.58457 20.7821 30.0743 0 0 0
-2.63907 21.4265 30.564 0 0 0
-2.54482 20.4869 29.8339 0 0 0
-2.35742 18.76 28.5444 0 0 0
-2.3912 19.0201 28.7181 0 0 0
-2.69222 22.067 31.0211 0 0 0
-2.34698 18.7963 28.5725 0 0 0
-1.85431 16.541 27.328 0 0 0
-2.49982 20.1224 29.5276 0 0 0
-2.37623 19.1266 28.7163 0 0 0
-2.75545 23.8433 32.3311 0 0 0
-2.35205 19.1506 28.6808 0 0 0
-2.64163 22.546 31.2862 0 0 0
-2.84813 25.4043 33.5408 0 0 0
-2.84813 25.4043 33.5408 0 0 0
-2.75998 24.2081 32.5774 0 0 0
-2.56122 22.4705 31.1466 0 0 0
-1.74831 16.7552 27.2848 0 0 0
-1.67749 16.4816 27.134 0 0 0
-1.67264 16.3792 27.0425 0 0 0
-1.88146 17.591 27.6464 0 0 0
-2.25348 19.7791 28.9434 0 0 0
-1.70541 17.2927 27.4444 0 0 0
-1.70541 17.2927 27.4444 0 0 0
-2.12428 19.3764 28.5976 0 0 0
-2.48449 24.6185 32.6291 0 0 0
-2.08381 19.3844 28.5928 0 0 0
-2.19156 20.7996 29.6288 0 0 0
-1.62957 17.2335 27.3694 0 0 0
-1.91593 18.9459 28.3406 0 0 0
-2.17251 21.0554 29.7911 0 0 0
-1.59473 17.6711 27.6102 0 0 0
-2.05335 20.4703 29.335 0 0 0
-2.05335 20.4703 29.335 0 0 0
-2.5133 28.6993 35.692 0 0 0
-2.27446 24.4192 32.2419 0 0 0
-2.28361 26.3478 33.7254 0 0 0
-1.64518 19.3453 28.6138 0 0 0
-2.2572 26.0112 33.4419 0 0 0
-2.03822 22.822 30.9507 0 0 0
-2.07899 23.709 31.596 0 0 0
-1.92617 21.8703 30.2362 0 0 0
