ply
format ascii 1.0 
element vertex 1484
property float32 x 
property float32 y 
property float32 z
property uchar red  
property uchar green
property uchar blue
element face 0
property list uchar int vertex_indices
end_header
1.61151 22.7013 29.7984 0 0 0
1.92075 18.6247 35.1134 0 0 0
1.44074 23.3877 25.9545 0 0 0
1.44074 23.3877 25.9545 0 0 0
1.60518 22.7901 28.8342 0 0 0
1.63767 22.8048 29.0975 0 0 0
1.84602 20.5101 32.662 0 0 0
1.98666 18.3601 35.0275 0 0 0
1.9933 18.9856 35.0892 0 0 0
1.98139 18.7261 35.0587 0 0 0
1.69325 20.2507 29.702 0 0 0
1.90905 20.3457 32.9828 0 0 0
1.91405 20.2189 33.0676 0 0 0
1.95251 19.554 33.6785 0 0 0
1.95947 19.6189 33.7773 0 0 0
1.75682 20.8833 30.2249 0 0 0
1.76002 20.6308 30.0647 0 0 0
1.72334 22.573 29.4172 0 0 0
2.01649 19.5047 34.0158 0 0 0
2.07349 18.9798 34.6796 0 0 0
2.07843 19.1378 34.6518 0 0 0
1.7865 22.0074 29.8259 0 0 0
2.18075 15.8196 36.1153 0 0 0
1.75543 22.187 29.0661 0 0 0
1.85219 22.2874 30.6397 0 0 0
1.73266 22.69 28.6788 0 0 0
2.099 18.9298 34.8279 0 0 0
1.90493 20.4832 31.3523 0 0 0
1.95736 20.6789 31.798 0 0 0
1.93374 20.3969 31.2634 0 0 0
2.29942 15.171 37.101 0 0 0
2.29942 15.171 37.101 0 0 0
1.87103 22.5336 30.1345 0 0 0
1.62072 23.4106 26.0392 0 0 0
1.95146 20.4236 31.221 0 0 0
1.62719 23.3433 26.0348 0 0 0
2.19328 17.9163 35.0212 0 0 0
2.21412 16.7618 35.1858 0 0 0
1.92984 22.4864 30.6204 0 0 0
1.64281 23.4029 26.0284 0 0 0
1.64281 23.4029 26.0284 0 0 0
2.20678 18.71 34.9234 0 0 0
2.20763 18.7914 34.8486 0 0 0
1.92807 22.8932 30.3095 0 0 0
1.91773 20.1023 29.8027 0 0 0
1.94727 22.5389 30.3986 0 0 0
2.23661 18.3278 34.6868 0 0 0
2.25097 18.283 34.8231 0 0 0
1.9688 22.6702 30.1838 0 0 0
1.96647 20.4402 29.9436 0 0 0
1.94374 22.7975 29.5664 0 0 0
1.90793 23.1691 28.896 0 0 0
2.27368 17.6515 34.4003 0 0 0
1.98409 23.2201 29.8393 0 0 0
2.33194 18.5622 34.9997 0 0 0
2.35905 18.4911 35.023 0 0 0
2.34459 18.8059 34.7819 0 0 0
2.34813 18.8804 34.6234 0 0 0
2.34813 18.8804 34.6234 0 0 0
2.34458 19.0851 34.6068 0 0 0
2.39847 17.8422 35.1699 0 0 0
2.37536 19.066 34.7668 0 0 0
2.00473 19.7918 29.3243 0 0 0
2.38994 18.5764 34.5859 0 0 0
1.8162 23.5965 26.2413 0 0 0
2.09132 22.5176 30.3665 0 0 0
2.11024 22.5663 30.3391 0 0 0
2.07768 20.2656 29.678 0 0 0
2.0834 20.3032 29.7237 0 0 0
2.09597 22.1773 29.9757 0 0 0
2.14534 22.3146 30.4429 0 0 0
2.4828 17.3936 35.0487 0 0 0
2.10772 22.7827 29.697 0 0 0
2.18754 22.5068 30.5431 0 0 0
2.51831 17.6766 35.0609 0 0 0
2.48752 18.7421 34.5878 0 0 0
2.52476 18.4605 35.0436 0 0 0
2.19881 22.6704 30.462 0 0 0
2.51279 18.3849 34.755 0 0 0
2.2239 22.9591 30.6305 0 0 0
2.2182 22.619 30.5417 0 0 0
2.17098 22.2189 30.0188 0 0 0
2.5532 18.3818 35.1196 0 0 0
2.54226 17.9755 34.9067 0 0 0
2.57247 18.1827 35.305 0 0 0
2.07743 23.2418 28.5406 0 0 0
2.18708 22.581 30.278 0 0 0
2.51942 18.967 34.6286 0 0 0
2.52705 18.7368 34.6085 0 0 0
2.2292 22.6204 30.4685 0 0 0
2.23981 22.5461 30.5119 0 0 0
2.54997 19.2432 34.7138 0 0 0
2.60966 18.1235 35.3554 0 0 0
2.60966 18.1235 35.3554 0 0 0
2.20266 22.1053 30.074 0 0 0
2.25844 22.6213 30.5442 0 0 0
2.26484 22.5001 30.5169 0 0 0
2.62322 17.7954 35.0656 0 0 0
2.28575 22.5843 30.4597 0 0 0
2.6333 17.6086 35.0003 0 0 0
2.6333 17.6086 35.0003 0 0 0
2.29242 22.5732 30.473 0 0 0
2.29301 22.4574 30.4311 0 0 0
2.66499 17.7238 35.0742 0 0 0
2.28491 22.5352 30.2786 0 0 0
2.32125 22.7506 30.461 0 0 0
2.21351 22.6712 29.046 0 0 0
2.64311 18.47 34.6448 0 0 0
2.6486 18.4995 34.7021 0 0 0
2.32738 22.4008 30.4269 0 0 0
2.6516 18.722 34.6471 0 0 0
2.3513 23.0078 30.6677 0 0 0
2.68099 18.2747 34.9246 0 0 0
2.67277 18.6785 34.8092 0 0 0
2.27231 19.9279 29.4854 0 0 0
2.00517 23.5171 25.9728 0 0 0
2.32434 22.4601 30.2545 0 0 0
2.72573 17.5927 35.1142 0 0 0
2.3068 22.7452 30.003 0 0 0
2.20215 23.1181 28.3354 0 0 0
2.55399 20.4822 32.6809 0 0 0
2.72028 18.7956 34.784 0 0 0
2.39102 22.6714 30.4917 0 0 0
2.34752 22.1544 30.093 0 0 0
2.38964 22.4266 30.4494 0 0 0
2.30392 20.1428 29.4478 0 0 0
2.32636 20.2773 29.6362 0 0 0
2.54825 20.4745 32.4109 0 0 0
2.41819 22.7841 30.5151 0 0 0
2.39187 22.4961 30.2325 0 0 0
2.38009 22.6965 30.04 0 0 0
2.78457 18.1711 34.9044 0 0 0
2.78457 18.1711 34.9044 0 0 0
2.79001 18.0338 34.9233 0 0 0
2.35527 22.9872 29.4018 0 0 0
2.76393 18.9821 34.5574 0 0 0
2.40562 22.8465 29.681 0 0 0
2.81472 18.6835 34.7809 0 0 0
2.83204 18.7602 34.7118 0 0 0
3.38006 15.2675 41.0136 0 0 0
2.49365 23.0809 30.3488 0 0 0
2.91715 18.1326 35.2322 0 0 0
3.31357 14.7349 40.0484 0 0 0
2.36356 23.1085 28.5061 0 0 0
2.88709 18.2944 34.7909 0 0 0
2.88709 18.2944 34.7909 0 0 0
3.38169 15.1681 40.4814 0 0 0
3.38169 15.1681 40.4814 0 0 0
3.43494 14.9513 40.5319 0 0 0
2.91632 18.9333 34.5446 0 0 0
2.50503 20.3086 29.5873 0 0 0
3.45692 14.6073 40.5022 0 0 0
2.97999 18.479 34.9134 0 0 0
2.95464 18.342 34.6625 0 0 0
3.24191 15.8929 37.9785 0 0 0
2.87782 20.3419 33.7039 0 0 0
2.51986 19.9373 29.4753 0 0 0
3.47611 15.1623 40.5806 0 0 0
2.99289 19.0844 34.7069 0 0 0
2.99289 19.0844 34.7069 0 0 0
2.62859 22.8532 30.4736 0 0 0
2.64237 22.7703 30.5854 0 0 0
3.02704 18.3462 35.0061 0 0 0
2.9208 20.3892 33.7826 0 0 0
2.9208 20.3892 33.7826 0 0 0
2.50577 22.2587 28.8964 0 0 0
3.02717 18.5759 34.8102 0 0 0
3.54712 15.1308 40.5652 0 0 0
3.0357 19.103 34.6174 0 0 0
3.60061 15.1402 40.9123 0 0 0
2.68549 22.5748 30.4706 0 0 0
3.76755 14.0257 42.6976 0 0 0
3.11074 18.0735 35.214 0 0 0
3.07589 19.2064 34.6554 0 0 0
3.08182 19.2407 34.6203 0 0 0
2.95494 20.0553 33.3354 0 0 0
3.10433 18.5377 34.7261 0 0 0
2.71328 22.7389 30.3795 0 0 0
2.74583 22.7189 30.582 0 0 0
3.12869 18.6025 34.4235 0 0 0
3.1499 19.228 34.6377 0 0 0
3.1518 18.7958 34.6295 0 0 0
3.15812 19.2873 34.616 0 0 0
2.6893 19.9862 29.4578 0 0 0
3.17461 19.3905 34.604 0 0 0
3.17188 19.1664 34.5594 0 0 0
3.21193 18.46 34.8295 0 0 0
3.22151 17.5847 34.8101 0 0 0
2.75013 22.6702 29.7768 0 0 0
2.83141 22.6601 30.4223 0 0 0
2.74823 20.0281 29.5142 0 0 0
3.24268 18.5232 34.7583 0 0 0
3.20544 19.1344 34.2584 0 0 0
3.17071 20.5545 33.7915 0 0 0
3.31547 19.2499 35.2681 0 0 0
3.27165 18.4032 34.6422 0 0 0
3.27818 19.3003 34.4982 0 0 0
3.35157 18.1925 35.016 0 0 0
3.2846 19.0572 34.2785 0 0 0
3.24346 20.4014 33.6509 0 0 0
3.38301 18.3523 34.8662 0 0 0
3.38301 18.3523 34.8662 0 0 0
3.35106 18.5782 34.3252 0 0 0
2.82972 22.9902 28.9781 0 0 0
3.40662 18.2895 34.6349 0 0 0
2.91792 20.1555 29.5343 0 0 0
2.92908 20.2242 29.6349 0 0 0
3.40432 19.444 34.4211 0 0 0
3.35973 19.2019 34.0055 0 0 0
2.92144 20.0471 29.5185 0 0 0
2.65058 23.5276 26.7382 0 0 0
2.65058 23.5276 26.7382 0 0 0
2.81028 23.1193 28.3345 0 0 0
3.40306 19.2128 34.075 0 0 0
3.42829 19.3744 34.334 0 0 0
3.39852 19.2294 34.0814 0 0 0
2.86093 22.8815 28.5917 0 0 0
3.42503 19.1112 34.1435 0 0 0
3.51456 18.4335 34.7686 0 0 0
2.91469 23.0294 28.6029 0 0 0
2.71427 23.4053 26.5838 0 0 0
3.52396 18.8874 34.4457 0 0 0
3.52396 18.8874 34.4457 0 0 0
3.53503 18.7653 34.4001 0 0 0
3.54944 18.6922 34.4547 0 0 0
3.08093 22.5151 29.9616 0 0 0
3.04243 20.3004 29.5927 0 0 0
3.044 20.4531 29.6251 0 0 0
3.044 20.4531 29.6251 0 0 0
4.22769 15.4703 40.9909 0 0 0
3.58449 18.6401 34.6528 0 0 0
3.53132 19.1626 34.0296 0 0 0
3.6505 18.5892 34.9341 0 0 0
3.1406 22.1714 30.0461 0 0 0
3.59758 18.9537 34.1683 0 0 0
2.97856 23.075 28.1479 0 0 0
2.99482 23.0582 28.1931 0 0 0
3.58549 18.9963 33.9166 0 0 0
3.67098 18.5257 34.583 0 0 0
3.00726 23.018 28.3567 0 0 0
3.01386 23.0202 28.3558 0 0 0
3.63835 19.3088 34.2864 0 0 0
3.03248 22.4145 28.5682 0 0 0
3.71842 18.4192 34.6909 0 0 0
3.6254 19.2377 33.9228 0 0 0
3.60725 18.9074 33.7611 0 0 0
3.03765 23.157 28.2406 0 0 0
4.39768 15.3362 40.852 0 0 0
4.39768 15.3362 40.852 0 0 0
3.71529 18.7628 34.2883 0 0 0
3.68512 18.1071 34.0682 0 0 0
3.7603 18.5937 34.495 0 0 0
3.65519 18.6405 33.4401 0 0 0
3.71704 19.0716 33.8981 0 0 0
3.71449 18.3552 33.9098 0 0 0
3.69693 19.1681 33.6496 0 0 0
3.7765 18.9223 34.1983 0 0 0
3.11886 23.0226 28.1289 0 0 0
3.74209 19.335 33.7441 0 0 0
3.82222 18.8606 34.3262 0 0 0
3.88126 18.457 34.6354 0 0 0
3.81735 19.0151 34.0245 0 0 0
3.26272 22.4838 29.0974 0 0 0
3.2749 22.5154 29.1349 0 0 0
3.34677 22.2072 29.6134 0 0 0
3.17186 23.0048 28.0664 0 0 0
3.17186 23.0048 28.0664 0 0 0
3.97311 18.1896 35.0817 0 0 0
3.85909 19.1151 33.8875 0 0 0
3.29523 22.7643 28.9665 0 0 0
3.443 21.3041 30.2177 0 0 0
3.26366 22.8653 28.3614 0 0 0
3.96371 19.0497 34.3375 0 0 0
3.9288 19.2592 33.7376 0 0 0
3.92959 19.2528 33.7348 0 0 0
3.95539 19.1595 33.8424 0 0 0
3.12635 23.4748 26.7479 0 0 0
0.775397 2.42363 6.52029 0 0 0
4.92723 15.3596 41.4016 0 0 0
4.14787 18.6391 34.8107 0 0 0
4.08812 18.9858 33.9943 0 0 0
3.58264 22.2935 29.6454 0 0 0
5.04119 15.5502 41.6625 0 0 0
4.38395 18.0145 35.9479 0 0 0
3.60886 21.9704 29.6143 0 0 0
3.59447 20.1692 29.4625 0 0 0
5.03666 15.169 41.0864 0 0 0
5.10137 15.6534 41.5773 0 0 0
4.27163 19.0567 34.6844 0 0 0
5.10125 16.0765 41.1192 0 0 0
4.26611 18.7425 34.3204 0 0 0
3.68557 22.1186 29.6865 0 0 0
4.23414 19.4664 33.9887 0 0 0
4.19536 19.2905 33.6914 0 0 0
4.23414 19.4664 33.9887 0 0 0
4.24222 18.9988 33.9529 0 0 0
4.23295 19.1345 33.8257 0 0 0
3.85814 21.5959 30.595 0 0 0
3.85814 21.5959 30.595 0 0 0
3.85814 21.5959 30.595 0 0 0
3.7508 22.152 29.7342 0 0 0
3.75128 20.7104 29.7592 0 0 0
4.26925 19.2346 33.609 0 0 0
3.82456 20.9488 30.0471 0 0 0
3.74329 20.1962 29.3876 0 0 0
5.28554 15.8302 41.3434 0 0 0
4.29193 19.7764 33.567 0 0 0
4.29969 19.4817 33.3737 0 0 0
3.7103 22.8359 28.7711 0 0 0
3.7103 22.8359 28.7711 0 0 0
3.76807 22.7374 29.1825 0 0 0
3.75587 19.9465 29.122 0 0 0
4.05781 20.4713 31.3499 0 0 0
4.51779 19.2907 34.5853 0 0 0
4.42557 19.3926 33.8553 0 0 0
4.45031 19.5961 34.0627 0 0 0
4.40438 19.9291 33.7226 0 0 0
4.43149 19.3178 33.8755 0 0 0
3.88863 20.6877 29.7198 0 0 0
3.92371 20.8584 29.9589 0 0 0
4.57272 19.3978 34.6091 0 0 0
3.86812 20.0984 29.2916 0 0 0
4.60916 18.5611 34.8576 0 0 0
4.43526 19.5784 33.561 0 0 0
4.45216 19.4748 33.3532 0 0 0
4.60413 18.87 34.4884 0 0 0
3.94852 20.4487 29.572 0 0 0
4.47852 19.4118 33.5212 0 0 0
4.64437 18.901 34.7327 0 0 0
4.5533 19.6551 34.0475 0 0 0
4.8346 18.0825 36.0976 0 0 0
4.56935 20.9663 34.0324 0 0 0
4.48687 19.4599 33.3847 0 0 0
4.65232 19.4672 34.557 0 0 0
4.59514 20.0483 34.1026 0 0 0
4.00939 20.662 29.654 0 0 0
4.0543 20.8716 29.9442 0 0 0
4.68624 19.5856 34.5921 0 0 0
3.95104 22.6663 29.1314 0 0 0
3.97032 20.1073 29.2737 0 0 0
4.05251 22.5981 29.8428 0 0 0
4.65122 19.576 34.1679 0 0 0
4.65122 19.576 34.1679 0 0 0
4.0568 22.466 29.8068 0 0 0
4.59399 19.9554 33.6214 0 0 0
4.73413 19.5013 34.6136 0 0 0
4.01411 22.0819 29.3848 0 0 0
4.04872 20.2296 29.4296 0 0 0
4.68042 19.6161 34.0089 0 0 0
4.17515 21.4246 30.3051 0 0 0
4.5501 19.8168 32.9649 0 0 0
4.87316 19.6315 35.0267 0 0 0
4.81917 19.5746 34.6322 0 0 0
4.81917 19.5746 34.6322 0 0 0
4.61628 19.6211 33.1651 0 0 0
4.77378 19.7377 34.2131 0 0 0
4.79206 19.8078 34.33 0 0 0
4.18073 20.8619 29.9045 0 0 0
4.13186 20.6432 29.6015 0 0 0
4.85906 19.5797 34.7151 0 0 0
4.83239 19.819 34.3536 0 0 0
4.87894 19.7208 34.6583 0 0 0
4.82983 19.7283 34.3116 0 0 0
4.1575 20.3659 29.519 0 0 0
4.80848 19.0461 34.1097 0 0 0
4.84438 19.6274 34.3514 0 0 0
4.66492 19.696 33.0573 0 0 0
4.99095 18.8213 35.3789 0 0 0
4.83883 19.4241 34.2654 0 0 0
4.29469 21.5233 30.3698 0 0 0
4.84466 19.9485 34.1686 0 0 0
5.32296 18.5036 37.4455 0 0 0
4.687 19.8841 33.0209 0 0 0
4.95491 19.8212 34.8202 0 0 0
4.90641 20.2119 34.2513 0 0 0
4.25998 22.6149 29.7985 0 0 0
4.75915 19.7196 33.1448 0 0 0
4.3046 20.8914 29.9121 0 0 0
4.25399 20.6674 29.5998 0 0 0
4.95615 19.7565 34.4325 0 0 0
4.35858 21.4807 30.2692 0 0 0
4.89971 20.2413 33.856 0 0 0
4.8836 19.8051 33.7343 0 0 0
4.85376 20.0942 33.4449 0 0 0
4.47528 23.0857 30.7771 0 0 0
4.89701 19.8949 33.6814 0 0 0
6.05203 16.2002 41.5817 0 0 0
4.34026 21.0712 29.7864 0 0 0
4.36492 21.1789 29.9321 0 0 0
5.6968 17.4547 38.9752 0 0 0
5.56394 18.428 37.8918 0 0 0
4.38182 20.0165 29.8295 0 0 0
6.10299 15.9252 41.3942 0 0 0
4.44136 23.1596 30.0908 0 0 0
4.93334 19.9959 33.3858 0 0 0
5.30156 19.0758 35.8292 0 0 0
5.04905 19.105 33.9825 0 0 0
5.60733 18.123 37.7442 0 0 0
4.33877 20.1085 29.166 0 0 0
4.33877 20.1085 29.166 0 0 0
4.96969 20.192 33.265 0 0 0
5.2574 19.6041 35.1174 0 0 0
4.953 19.8411 33.1114 0 0 0
5.14192 19.7324 34.2413 0 0 0
4.54594 19.9634 30.2287 0 0 0
4.6443 23.3799 30.8836 0 0 0
4.48186 20.7793 29.7444 0 0 0
4.69165 23.2134 31.0973 0 0 0
4.43195 20.0972 29.284 0 0 0
5.73985 18.3129 37.8062 0 0 0
5.6739 18.0673 37.326 0 0 0
4.94822 16.9727 32.5805 0 0 0
5.08359 19.875 33.4205 0 0 0
5.07213 19.9236 33.3368 0 0 0
4.738 23.344 31.1403 0 0 0
4.71748 23.5282 30.9508 0 0 0
5.21663 19.3983 34.2079 0 0 0
5.88216 18.4695 38.4622 0 0 0
4.53939 20.1236 29.7122 0 0 0
4.46878 20.3297 29.2229 0 0 0
4.45716 20.0676 29.1333 0 0 0
4.98084 20.0357 32.4973 0 0 0
5.20528 19.8242 33.9075 0 0 0
5.04103 19.5994 32.8405 0 0 0
5.10081 20.0709 33.0929 0 0 0
5.92081 18.0667 38.3243 0 0 0
5.01066 20.083 32.366 0 0 0
4.60175 20.7538 29.6894 0 0 0
4.60175 20.7538 29.6894 0 0 0
5.03257 20.0106 32.1456 0 0 0
5.49716 18.5653 35.0678 0 0 0
4.70774 19.8478 29.9733 0 0 0
5.41684 19.4738 34.46 0 0 0
5.07351 20.0769 32.1999 0 0 0
6.47559 16.0293 41.0214 0 0 0
6.47559 16.0293 41.0214 0 0 0
5.90322 18.2604 37.2676 0 0 0
5.41117 19.1652 33.9958 0 0 0
0.752973 2.65136 4.72497 0 0 0
5.47716 19.2726 34.365 0 0 0
5.11091 19.9581 31.7073 0 0 0
5.13961 19.8729 31.9754 0 0 0
5.39552 19.4341 33.4984 0 0 0
5.83849 18.4772 36.2218 0 0 0
5.12076 19.5488 31.7061 0 0 0
5.94984 17.4402 36.8308 0 0 0
4.86172 21.1564 30.0819 0 0 0
5.40212 19.2845 33.3946 0 0 0
5.07232 19.326 31.2064 0 0 0
5.75838 18.812 35.3993 0 0 0
5.04176 19.6409 30.9294 0 0 0
5.35044 19.3346 32.7416 0 0 0
5.40026 19.1761 32.9879 0 0 0
5.20008 19.4405 31.5866 0 0 0
5.11042 19.12 31.0851 0 0 0
5.94878 17.5566 36.1129 0 0 0
5.92329 18.2842 35.9012 0 0 0
5.12679 19.4303 31.0795 0 0 0
4.98882 21.1705 30.0633 0 0 0
4.98882 21.1705 30.0633 0 0 0
5.23537 19.3453 31.4931 0 0 0
4.86274 25.427 29.2349 0 0 0
6.12163 17.2202 36.7128 0 0 0
5.49755 18.1577 33.0276 0 0 0
5.45612 19.0254 32.6588 0 0 0
5.48761 18.2034 32.8328 0 0 0
5.2027 19.635 31.0129 0 0 0
5.91776 17.7192 35.2551 0 0 0
5.2456 19.4536 31.2299 0 0 0
6.15816 17.0461 36.5472 0 0 0
5.51832 18.138 32.8957 0 0 0
5.10613 19.1565 30.3873 0 0 0
5.28832 19.5876 31.3076 0 0 0
5.28832 19.5876 31.3076 0 0 0
5.04848 24.5547 29.8066 0 0 0
6.00417 17.6881 35.4003 0 0 0
5.39445 19.1479 31.7607 0 0 0
5.13101 21.3538 30.1824 0 0 0
6.04023 16.5605 35.5118 0 0 0
6.11825 17.1013 35.8257 0 0 0
6.11825 17.1013 35.8257 0 0 0
6.15894 17.4189 36.0649 0 0 0
5.55856 18.7293 32.4385 0 0 0
5.41043 19.7752 31.5671 0 0 0
5.00451 25.0418 29.2093 0 0 0
5.47443 19.5665 31.9088 0 0 0
5.57208 18.836 32.32 0 0 0
5.57208 18.836 32.32 0 0 0
5.50869 19.2838 31.9406 0 0 0
5.58215 19.1554 32.3632 0 0 0
5.65527 18.8843 32.6455 0 0 0
5.18226 20.4279 29.8796 0 0 0
5.58197 19.8453 32.1522 0 0 0
5.62961 19.5081 32.2751 0 0 0
6.05169 16.4681 34.7659 0 0 0
7.41005 14.3664 42.4139 0 0 0
5.81129 19.0034 33.2635 0 0 0
5.58794 19.7551 31.9142 0 0 0
5.77467 18.7145 32.9559 0 0 0
5.62209 19.9378 32.0408 0 0 0
5.61648 20.2296 31.9894 0 0 0
5.61648 20.2296 31.9894 0 0 0
5.57167 20.2932 31.7069 0 0 0
5.29462 24.0789 30.1101 0 0 0
6.22536 16.4792 35.3814 0 0 0
6.22536 16.4792 35.3814 0 0 0
5.58677 20.3461 31.7005 0 0 0
5.64749 20.0154 32.0238 0 0 0
6.00509 20.0281 34.0309 0 0 0
6.17443 17.5702 34.88 0 0 0
5.22878 25.7041 29.5446 0 0 0
0.77448 2.74843 4.37043 0 0 0
5.72115 20.3025 32.2796 0 0 0
6.03706 17.967 34.0451 0 0 0
6.03706 17.967 34.0451 0 0 0
5.75034 19.9783 32.4286 0 0 0
6.27398 16.5977 35.3396 0 0 0
5.81041 19.7794 32.7085 0 0 0
6.09078 17.9048 34.2593 0 0 0
6.06206 18.2846 34.0868 0 0 0
5.42701 23.5511 30.5128 0 0 0
6.32795 16.8243 35.4025 0 0 0
6.80792 14.7898 38.1949 0 0 0
5.74822 19.9548 32.1934 0 0 0
6.39769 16.1481 35.8295 0 0 0
6.3374 16.7528 35.4768 0 0 0
5.67271 20.338 31.7525 0 0 0
6.0758 19.479 33.9098 0 0 0
5.47567 23.6783 30.5654 0 0 0
5.74985 20.1711 32.0549 0 0 0
5.24338 26.0666 29.245 0 0 0
5.32419 24.927 29.6734 0 0 0
6.50623 15.9445 36.2024 0 0 0
6.05546 19.2424 33.6922 0 0 0
6.26743 16.4212 34.8861 0 0 0
5.86995 20.2981 32.649 0 0 0
5.84073 20.2012 32.5006 0 0 0
6.44403 15.922 35.8348 0 0 0
5.50034 23.6757 30.5071 0 0 0
6.14108 19.018 33.985 0 0 0
6.0014 20.1634 33.1835 0 0 0
5.29791 25.945 29.2466 0 0 0
5.88314 20.2889 32.3943 0 0 0
5.88314 20.2889 32.3943 0 0 0
5.57394 23.592 30.6485 0 0 0
6.01347 20.2124 33.0409 0 0 0
6.03839 20.1843 33.1683 0 0 0
6.42586 18.5658 35.2568 0 0 0
6.66963 16.842 36.5164 0 0 0
6.03407 20.3361 33.0264 0 0 0
6.67351 17.3552 36.4705 0 0 0
6.00556 20.467 32.8543 0 0 0
5.63993 22.1567 30.8073 0 0 0
5.63993 22.1567 30.8073 0 0 0
6.71052 17.544 36.5994 0 0 0
6.12203 20.2933 33.4027 0 0 0
5.58786 21.9576 30.5251 0 0 0
5.58786 21.9576 30.5251 0 0 0
6.60526 17.6466 35.9336 0 0 0
6.11037 20.2671 33.1814 0 0 0
6.44974 19.1289 35.0054 0 0 0
6.19782 20.105 33.6187 0 0 0
6.58014 16.8618 35.6677 0 0 0
6.24726 19.7873 33.8533 0 0 0
6.80722 16.8209 36.8778 0 0 0
6.70987 17.3927 36.3509 0 0 0
6.19686 18.9332 33.5312 0 0 0
7.58786 14.2831 40.9414 0 0 0
7.58786 14.2831 40.9414 0 0 0
6.39139 19.9028 34.4566 0 0 0
6.8654 17.7302 36.9078 0 0 0
6.16752 20.4239 33.1871 0 0 0
6.07621 20.6979 32.5213 0 0 0
6.10783 20.6193 32.6813 0 0 0
6.46744 20.0099 34.5756 0 0 0
6.90846 17.7681 36.8223 0 0 0
5.97093 20.7232 31.823 0 0 0
6.06551 20.6432 32.3156 0 0 0
7.04111 18.1864 37.279 0 0 0
6.975 16.867 36.9674 0 0 0
6.16492 20.8097 32.6287 0 0 0
6.2996 20.7798 33.2983 0 0 0
5.85699 23.8054 30.9128 0 0 0
7.24656 17.0812 38.1796 0 0 0
7.23599 17.5534 38.0685 0 0 0
6.60647 20.0618 34.7348 0 0 0
7.23315 18.0764 37.7573 0 0 0
7.14457 17.6279 37.3063 0 0 0
5.88294 22.0423 30.6999 0 0 0
6.30659 20.4742 32.8561 0 0 0
6.17922 21.1615 32.0684 0 0 0
6.54267 20.1138 33.9513 0 0 0
6.00581 22.4317 30.995 0 0 0
6.00581 22.4317 30.995 0 0 0
5.6101 25.7207 28.8714 0 0 0
5.97872 24.0798 30.7517 0 0 0
6.00348 24.0546 30.8552 0 0 0
7.46002 18.4866 37.9389 0 0 0
7.62187 18.1079 38.7422 0 0 0
7.62187 18.1079 38.7422 0 0 0
8.16664 16.4069 41.3793 0 0 0
8.17377 16.1643 41.3543 0 0 0
6.60881 21.231 33.4255 0 0 0
5.92569 25.8496 29.8856 0 0 0
6.14422 21.2047 30.9547 0 0 0
7.74337 17.5991 38.9214 0 0 0
6.77575 20.845 34.0571 0 0 0
7.71504 18.6425 38.706 0 0 0
6.78233 20.7171 33.9515 0 0 0
6.77353 20.858 33.8893 0 0 0
7.79489 18.9285 38.8298 0 0 0
5.88255 25.8363 29.329 0 0 0
6.28762 21.2981 31.2785 0 0 0
7.62848 18.7795 37.7604 0 0 0
5.92266 25.8009 29.3191 0 0 0
6.20286 22.0735 30.6678 0 0 0
7.68147 19.2868 37.9221 0 0 0
7.86629 18.691 38.7657 0 0 0
6.90543 20.5817 34.0328 0 0 0
6.3177 24.5031 31.0702 0 0 0
6.32021 24.3922 31.0747 0 0 0
6.92432 21.4964 33.9642 0 0 0
5.96925 25.8659 29.2535 0 0 0
6.88338 21.1354 33.6725 0 0 0
6.87993 20.8444 33.6522 0 0 0
6.35697 24.4024 31.0731 0 0 0
6.35697 24.4024 31.0731 0 0 0
6.32208 22.0892 30.6831 0 0 0
7.97421 18.5261 38.5902 0 0 0
6.40772 25.0525 31.0063 0 0 0
6.40772 25.0525 31.0063 0 0 0
6.42405 21.3603 30.9816 0 0 0
6.33573 22.0027 30.5547 0 0 0
7.8096 17.5144 37.6039 0 0 0
6.42411 24.8245 30.8954 0 0 0
6.45336 21.2908 31.0329 0 0 0
6.99854 20.6939 33.6284 0 0 0
7.95869 18.9227 38.2218 0 0 0
8.20966 18.9364 39.1703 0 0 0
6.39874 24.6701 30.5545 0 0 0
7.06257 20.4636 33.6651 0 0 0
6.29828 21.2779 29.9617 0 0 0
6.37997 25.8641 30.321 0 0 0
7.94639 19.3327 37.7548 0 0 0
8.95972 16.997 42.3716 0 0 0
8.2966 19.1714 39.0957 0 0 0
6.36444 21.2626 29.9873 0 0 0
6.40653 21.3925 30.1739 0 0 0
8.95217 17.1042 42.1474 0 0 0
6.74118 21.4645 31.7027 0 0 0
6.61674 21.6071 31.1086 0 0 0
6.41973 25.6726 30.1538 0 0 0
6.61167 24.942 31.005 0 0 0
6.42653 21.2782 30.0706 0 0 0
6.4048 21.1481 29.9282 0 0 0
6.66241 25.1926 31.0779 0 0 0
8.43879 18.568 39.333 0 0 0
6.56649 24.9626 30.5834 0 0 0
8.00977 19.392 37.2885 0 0 0
8.39105 18.8875 39.0092 0 0 0
6.64004 25.3011 30.8403 0 0 0
6.68436 21.5652 31.0267 0 0 0
6.68392 25.0049 30.9967 0 0 0
6.69623 25.0302 31.0442 0 0 0
6.59854 21.9272 30.5697 0 0 0
6.64316 25.1922 30.7363 0 0 0
6.62826 22.0496 30.6517 0 0 0
7.48344 20.932 34.6008 0 0 0
6.45252 25.871 29.8421 0 0 0
6.89525 21.3347 31.8424 0 0 0
6.59192 21.8476 30.4321 0 0 0
8.45838 18.3184 39.0137 0 0 0
6.67805 25.3133 30.8027 0 0 0
8.5051 18.662 39.2217 0 0 0
8.4202 18.4605 38.8377 0 0 0
6.62518 21.9719 30.5113 0 0 0
6.44485 25.686 29.7597 0 0 0
7.5119 20.9126 34.5764 0 0 0
8.17419 19.6575 37.5795 0 0 0
6.65407 21.9698 30.5852 0 0 0
8.58283 18.8335 39.3801 0 0 0
7.15877 21.766 32.7737 0 0 0
7.15877 21.766 32.7737 0 0 0
6.82454 25.2014 31.1257 0 0 0
8.69781 18.329 39.6429 0 0 0
8.24439 18.5696 37.5572 0 0 0
7.14954 21.6275 32.3875 0 0 0
6.91958 24.6488 31.3238 0 0 0
8.54849 18.0671 38.7112 0 0 0
7.20462 21.9364 32.5235 0 0 0
7.66643 21.4035 34.3389 0 0 0
7.37918 21.8439 33.0027 0 0 0
8.38209 19.5329 37.4453 0 0 0
8.88582 18.8804 39.6117 0 0 0
6.7199 25.3355 29.9482 0 0 0
6.96737 24.6219 31.0193 0 0 0
7.0546 24.6724 31.2444 0 0 0
7.0674 24.6164 31.2899 0 0 0
9.06039 18.9777 40.0596 0 0 0
7.80904 21.6499 34.4985 0 0 0
8.54965 18.4695 37.8433 0 0 0
8.69705 19.8269 38.3109 0 0 0
7.10213 24.6196 31.2742 0 0 0
8.77193 18.1611 38.3826 0 0 0
7.18504 24.6596 31.2735 0 0 0
7.18504 24.6596 31.2735 0 0 0
8.91569 19.5932 38.7113 0 0 0
7.1918 24.7841 31.2329 0 0 0
7.97188 21.5599 34.4312 0 0 0
7.99649 21.6299 34.5351 0 0 0
9.14814 18.1229 39.4613 0 0 0
8.77071 19.9456 37.7816 0 0 0
8.77071 19.9456 37.7816 0 0 0
7.28605 24.6316 31.3767 0 0 0
9.15556 19.1887 39.4038 0 0 0
7.30099 24.5914 31.4094 0 0 0
7.35548 24.4154 31.5649 0 0 0
7.27336 24.4023 31.1649 0 0 0
7.20042 24.0512 30.8398 0 0 0
9.86339 16.7491 41.9142 0 0 0
7.5065 24.5996 31.8971 0 0 0
7.1482 21.7803 30.2233 0 0 0
9.09396 19.8988 38.3313 0 0 0
7.57353 24.6388 31.8139 0 0 0
-8.15911 16.5193 26.7826 162 100 49
-7.81535 15.2955 26.5331 168 87 32
-7.84037 15.3905 26.6244 169 90 33
-7.76845 15.2357 26.4689 165 85 34
-7.76845 15.2357 26.4689 165 85 34
-8.06972 16.8593 26.9272 160 97 53
-7.78809 15.4137 26.6768 146 69 27
-8.11303 17.3048 27.2324 157 93 49
-7.83001 15.7345 27.137 178 100 34
-7.61907 15.0934 26.509 159 78 31
-7.54286 15.1447 26.4395 166 85 32
-7.38381 14.56 26.193 150 73 27
-7.49089 15.0886 26.3965 158 80 34
-7.85354 17.2844 26.6932 129 71 49
-7.5086 15.3433 26.666 144 71 26
-7.67817 17.4542 26.3555 169 96 43
-7.67817 17.4542 26.3555 169 96 43
-7.61662 17.2399 26.5398 140 66 39
-7.55141 16.6039 26.7142 152 79 46
-7.40674 15.6265 27.0687 147 79 30
-7.46128 16.5314 26.6628 169 98 52
-7.27312 15.4425 26.7774 164 87 31
-7.41885 17.5016 26.4091 168 95 42
-7.17259 16.4564 26.5468 165 94 40
-7.14407 16.4757 26.6398 155 92 41
-7.23508 17.4433 26.3118 163 91 41
-7.08497 16.9103 26.3946 167 102 46
-7.10228 16.8018 26.7568 172 110 53
-7.09791 16.258 27.647 170 103 35
-6.99543 15.9182 27.2857 164 100 36
-6.92613 16.2742 26.4273 171 110 43
-6.92613 16.2742 26.4273 171 110 43
-7.01472 16.1729 27.5946 169 106 39
-6.9788 16.1881 27.4714 173 109 45
-6.9788 16.1881 27.4714 173 109 45
-6.95376 16.0738 27.5424 166 98 37
-7.0164 16.1731 28.0756 178 110 39
-6.55916 14.6526 26.3918 185 118 40
-6.75225 16.5686 26.3653 169 108 45
-6.78505 16.0333 27.3156 185 120 40
-6.19196 14.7844 26.8975 174 105 40
-6.17238 14.726 26.7866 174 105 40
-6.07422 15.559 27.3047 184 116 43
-6.33053 16.9142 28.0754 169 100 33
-6.11888 17.013 26.1697 179 107 35
-6.26601 18.0698 26.1574 182 108 35
-6.18456 16.7704 28.1368 154 87 34
-6.20661 17.1515 28.3519 170 105 37
-6.02336 16.639 27.8995 167 95 45
-6.01548 16.7426 27.9829 173 103 43
-5.77968 15.8593 27.5685 182 115 47
-5.8874 16.9224 28.1615 172 111 48
-5.47841 15.6272 27.7792 213 210 201
-5.38304 15.3504 27.8833 215 212 203
-5.54206 17.6436 26.3179 213 211 199
-5.58108 18.2952 25.8322 212 209 200
-5.40228 16.2685 28.169 214 211 202
-5.33145 17.9552 26.0425 152 172 123
-4.83077 14.1247 27.3266 102 104 90
-5.30707 17.6097 28.7614 103 103 93
-5.08175 16.1911 28.7807 116 117 99
-5.21385 17.4769 28.6524 64 64 52
-4.9719 15.8832 28.6998 145 146 130
-5.05878 17.5053 26.4588 34 31 26
-5.16701 18.9868 25.5843 192 190 177
-4.86344 15.7568 28.7325 133 136 119
-4.43032 15.4216 29.2038 104 100 75
-4.43032 15.4216 29.2038 104 100 75
-4.56067 18.0319 26.2713 40 39 34
-4.5088 17.438 28.4516 168 171 142
-4.45081 17.5572 26.4133 108 111 90
-4.45081 17.5572 26.4133 108 111 90
-4.35302 17.9201 26.2121 128 130 109
-4.31402 17.4506 28.4293 147 149 125
-4.52199 19.5829 25.9069 129 175 198
-4.34892 18.5347 26.1397 98 100 79
-4.27192 17.6005 28.5837 128 130 109
-4.25997 17.5316 28.4794 128 130 109
-4.23834 17.6062 28.5735 99 101 77
-4.22536 17.5413 28.5328 101 105 82
-4.16593 18.4228 26.2427 123 127 104
-3.93971 17.5034 28.9128 106 109 90
-3.93479 17.4746 28.8145 102 105 86
-3.93187 17.7868 28.7544 131 134 105
-3.75138 17.6467 28.9884 88 91 64
-3.38392 15.9779 27.0843 74 73 55
-1.75839 5.34373 13.9441 93 86 80
-3.77489 18.7362 27.177 135 136 105
-3.80596 19.0692 26.4696 163 165 151
-4.02861 20.9435 26.8539 143 145 123
-3.96826 20.5671 26.9742 159 164 132
-3.87301 20.079 26.9651 115 119 94
-3.57025 18.5429 29.9932 105 105 81
-3.47672 18.4587 29.9046 91 91 67
-3.24805 17.6803 28.3984 113 112 82
-1.62552 5.70188 13.236 88 84 75
-1.6356 5.80855 13.3391 88 81 73
-3.2789 19.3555 29.5441 98 97 79
-3.19749 19.1324 29.5718 97 98 67
-3.13843 19.185 29.2588 72 70 58
-1.35064 4.69068 11.9989 201 193 154
-1.32986 4.63263 11.9197 203 197 161
-1.39403 5.12493 12.2395 81 74 68
-1.3528 5.10363 12.202 82 75 69
-2.05678 11.4783 19.9032 89 85 58
-2.0351 11.326 19.7121 79 75 50
-2.08385 11.8065 20.2088 67 64 49
-1.23812 4.84338 12.915 89 85 73
-2.01377 11.5431 19.8333 70 67 52
-1.30431 5.77487 13.2617 79 72 66
-1.21218 5.10446 12.6858 76 71 67
-1.26975 5.63544 13.145 80 73 67
-1.35567 6.43999 13.8833 66 61 55
-1.2913 5.91431 13.3697 70 65 61
-1.24415 5.54991 13.0402 75 70 64
-1.27554 5.87249 13.2924 73 68 64
-1.26039 5.8297 13.2499 76 69 63
-1.23819 5.82004 13.2365 81 74 68
-1.1512 5.0655 12.5614 77 72 66
-2.38095 17.7966 27.7762 73 70 53
-1.632 9.84515 17.4747 89 86 71
-1.1277 5.04111 12.5499 78 73 67
-1.22802 5.94103 13.315 75 68 62
-1.1997 5.84439 13.2263 78 71 65
-1.1997 5.84439 13.2263 78 71 65
-1.16741 5.71046 13.0891 79 72 66
-1.16741 5.71046 13.0891 79 72 66
-1.08959 4.99707 12.4716 79 76 69
-1.07649 4.99824 12.4912 81 81 73
-1.09412 5.15435 12.5753 78 75 70
-1.20679 6.22169 13.4873 74 69 65
-1.22165 6.37599 13.5977 72 65 59
-1.35194 7.70102 14.5996 115 106 89
-0.974007 4.60432 12.9712 83 79 76
-1.0502 4.97661 12.4668 86 79 71
-0.973332 4.64607 13.035 82 79 74
-0.979106 4.69683 13.0618 80 77 68
-1.0648 5.16332 12.5973 84 77 69
-0.977423 4.83437 13.2342 78 77 73
-0.940802 4.52819 12.9014 86 85 80
-0.980742 4.66228 12.3407 204 205 200
-0.941645 1.49075 4.06082 187 188 172
-1.01257 5.06587 12.5343 187 188 172
-0.913404 4.54015 12.8772 212 212 202
-0.925861 4.76378 13.1379 200 198 186
-1.06617 5.61721 12.9134 196 196 186
-0.894919 4.64584 13.001 201 201 193
-1.06379 5.78525 12.9771 206 206 196
-1.09565 6.135 13.1465 205 205 195
-0.932566 4.73156 12.3264 213 210 201
-0.94047 4.87377 12.4296 210 207 198
-1.20111 7.37236 14.0186 161 156 137
-1.18101 7.222 13.8672 169 163 151
-0.818915 4.40297 12.7238 214 214 202
-1.12824 6.77658 13.4658 183 177 165
-1.07504 6.39786 13.188 179 177 165
-0.804095 4.40683 12.7028 209 209 199
-1.13315 6.99927 13.5998 178 175 160
-1.15457 7.23391 13.797 165 161 150
-1.06058 6.33857 13.1177 179 179 169
-0.793122 4.38687 12.6778 209 209 201
-1.17005 7.50348 14.046 72 70 47
-1.13574 7.13848 13.703 174 170 158
-1.13442 7.12954 13.6946 174 170 158
-0.871505 4.83887 12.4275 216 216 206
-1.00831 5.9799 12.9278 213 213 203
-1.01296 6.03481 12.9414 205 205 195
-1.0856 6.7858 13.3825 186 182 171
-0.952641 5.61985 12.715 214 212 200
-0.960349 5.76617 12.7916 214 214 202
-1.09649 7.04395 13.5746 179 176 161
-0.761309 4.44993 12.7246 212 212 202
-0.761309 4.44993 12.7246 212 212 202
-1.00874 6.27565 12.9971 200 200 190
-0.994908 6.19236 12.9547 199 199 187
-0.891261 5.35181 12.6073 205 202 193
-0.7436 4.33111 12.5462 200 198 186
-0.925195 5.63144 12.7045 204 202 190
-0.81752 4.85717 12.4544 208 205 196
-1.04338 6.74526 13.2934 190 191 177
-0.943561 5.85138 12.7623 202 202 190
-0.975858 6.14962 12.9272 202 199 190
-1.07948 7.21606 13.6799 161 157 146
-0.832009 5.03993 12.4859 206 203 194
-0.720855 4.37291 12.6098 206 204 192
-0.720855 4.37291 12.6098 206 204 192
-0.880556 5.45086 12.5873 200 200 190
-0.937446 5.93896 12.7633 200 200 190
-1.07598 7.3414 13.7719 87 81 65
-1.07598 7.3414 13.7719 87 81 65
-0.97308 6.27706 12.9564 199 199 189
-1.08036 7.40303 13.8257 71 66 47
-0.895296 5.59469 12.6076 204 201 192
-1.09954 7.67574 14.0864 70 66 55
-1.05448 7.15262 13.6003 177 173 161
-0.903123 5.70659 12.6683 206 203 194
-0.903123 5.70659 12.6683 206 203 194
-0.863422 5.38897 12.55 205 205 195
-1.09069 7.61 14.018 79 73 61
-0.987668 6.48859 13.0911 196 195 190
-1.05427 7.18973 13.6196 169 165 153
-0.923321 5.91768 12.7423 200 200 190
-1.01388 6.86538 13.3276 191 189 176
-1.03724 7.22379 13.6354 172 169 154
-0.820624 5.25185 12.5084 206 206 196
-0.995528 6.84707 13.3041 194 192 179
-0.90497 5.97222 12.7219 202 202 192
-0.904815 5.97228 12.7231 202 202 192
-1.03391 7.32216 13.7196 167 163 151
-1.00735 7.01867 13.4369 185 179 163
-0.829829 5.47531 12.4864 205 205 195
-0.822427 5.41946 12.4713 204 204 194
-0.82895 5.52289 12.4886 204 204 194
-0.906465 6.22681 12.8386 199 199 189
-0.916808 6.35672 12.9361 194 194 184
-0.957228 6.77087 13.2133 197 195 183
-0.642193 4.26469 12.4049 109 103 91
-0.885912 6.14205 12.7827 200 200 190
-0.977026 7.16631 13.5183 179 176 161
-0.892949 6.27617 12.8568 199 199 187
-0.774845 5.28053 12.4455 206 206 196
-0.832392 5.77714 12.5818 200 200 190
-0.855842 6.01837 12.6927 204 202 190
-0.994734 7.57369 13.8702 151 148 133
-1.01066 7.76295 14.0416 89 85 73
-0.757023 5.24381 12.4085 206 206 196
-0.872037 6.22851 12.8026 200 200 190
-0.829207 5.83532 12.5863 202 202 192
-0.829207 5.83532 12.5863 202 202 192
-0.80993 5.66462 12.4938 204 204 194
-0.96391 7.38416 13.6835 172 169 152
-0.932609 7.01281 13.3736 189 186 171
-0.898683 6.61902 13.0534 197 195 183
-0.940922 7.14304 13.4725 186 183 168
-0.901884 6.70542 13.1141 195 193 181
-0.957366 7.43639 13.7155 169 166 151
-0.891453 6.67125 13.077 194 192 180
-0.917575 7.02288 13.3571 186 184 171
-0.945971 7.41012 13.6811 172 168 156
-0.84451 6.23244 12.7337 199 199 189
-0.84972 6.3065 12.7935 200 200 190
-0.908773 6.98398 13.3135 188 186 173
-0.711204 5.21978 12.3805 208 205 196
-0.876575 6.68521 13.0394 196 194 182
-0.896718 6.99053 13.3036 193 191 178
-0.770801 5.6991 12.4686 202 202 192
-0.92286 7.36961 13.6338 181 175 161
-0.767478 5.72756 12.4634 201 201 191
-0.820404 6.21496 12.702 202 202 192
-0.940898 7.70087 13.9128 113 111 98
-0.932731 7.62165 13.8391 170 168 155
-0.800345 6.04723 12.5966 202 202 192
-0.804523 6.14712 12.6409 201 201 191
-0.789162 6.01949 12.5647 203 203 191
-0.756053 5.74235 12.4553 188 188 178
-0.756053 5.74235 12.4553 188 188 178
-0.802757 6.18711 12.6538 199 199 187
-0.862988 6.90584 13.1793 198 196 183
-0.799003 6.19382 12.625 184 182 169
-0.781195 6.0545 12.5797 196 194 179
-1.74461 20.4449 26.4819 125 118 102
-1.74372 20.3267 26.3346 125 118 102
-0.894141 7.48327 13.6765 184 181 166
-0.878117 7.29889 13.5167 191 189 176
-0.939647 8.15891 14.276 165 159 143
-0.924516 7.96835 14.1099 169 166 149
-0.906861 7.79491 13.9406 183 179 167
-0.776071 6.1995 12.5673 186 183 174
-0.904251 7.9193 14.0419 178 176 163
-0.69583 5.59705 12.3275 200 201 183
-0.868921 7.6497 13.7555 194 191 174
-0.724673 5.91856 12.4244 201 201 191
-0.724673 5.91856 12.4244 201 201 191
-0.861075 7.62446 13.7399 196 193 176
-0.854609 7.57285 13.6986 122 118 107
-0.484848 4.32016 12.3608 216 213 208
-1.4691 17.7319 23.7178 79 77 65
-0.764893 6.34445 12.5692 203 201 189
-0.831559 7.344 13.471 196 194 181
-0.475046 4.27062 12.3118 206 203 198
-0.977452 9.55776 15.5072 148 142 126
-0.722956 5.99193 12.3937 200 200 190
-0.85231 7.76797 13.8583 193 189 178
-1.62821 20.9364 26.8406 75 72 65
-0.746673 6.32168 12.5243 210 208 196
-0.951119 9.71462 15.6181 152 146 130
-0.753211 6.70354 12.8167 204 204 194
-0.904966 9.25219 15.178 168 163 144
-0.904966 9.25219 15.178 168 163 144
-1.63445 22.4539 28.1574 45 37 26
-0.576153 5.26382 12.1449 171 170 166
-0.649009 5.85393 12.2705 94 92 79
-0.603509 5.53901 12.2238 207 207 199
-0.921662 10.2258 16.0351 147 141 127
-0.58406 5.47967 12.1662 207 207 197
-0.58526 5.48078 12.163 207 207 197
-0.689949 6.49146 12.6061 209 206 197
-0.393952 4.45558 12.4951 205 202 193
-1.14151 14.6273 20.3497 68 62 48
-0.889812 9.93533 15.7487 159 153 137
-0.735188 7.39542 13.3831 146 146 138
-1.51317 22.4336 28.2308 103 96 80
-0.820397 8.90772 14.7792 180 178 163
-0.669034 6.46043 12.5741 209 206 197
-0.736418 7.56311 13.5299 204 204 194
-0.772632 8.30752 14.2117 192 190 177
-0.600543 5.8336 12.2097 204 204 192
-0.693575 7.02595 13.0458 210 210 200
-0.694388 7.01956 13.0329 210 210 200
-0.664063 6.59471 12.6728 215 212 203
-0.720001 7.55016 13.5131 207 204 195
-0.752539 8.12838 14.0281 202 200 187
-0.752539 8.12838 14.0281 202 200 187
-0.751837 8.2016 14.1057 198 198 186
-0.70085 7.31072 13.2943 212 212 202
-0.678297 6.97584 12.9959 213 213 203
-0.573938 5.71993 12.1542 207 207 197
-0.35391 4.67336 12.693 210 210 198
-0.537341 5.48919 12.1022 199 200 195
-0.763062 8.5879 14.4275 195 193 181
-1.78764 23.324 25.9496 28 25 20
-1.11293 15.9917 21.6799 74 71 56
-1.05294 14.9011 20.5649 85 81 69
-1.61094 23.044 26.924 49 44 38
-0.491196 5.2205 11.9281 209 205 194
-1.38908 22.5693 28.2438 92 84 71
-0.716436 8.25305 14.1024 199 199 187
-1.65498 23.2355 26.6227 64 57 47
-0.832572 10.6825 16.4444 159 153 137
-0.835717 10.676 16.4243 159 153 137
-0.737642 8.65814 14.4604 189 187 175
-0.542986 5.74975 12.1464 206 202 193
-0.511374 5.47646 12.0529 213 211 199
-0.681988 7.65529 13.5418 208 208 198
-0.677865 7.63176 13.54 209 209 199
-0.62489 6.77317 12.8096 210 210 200
-0.652118 7.29748 13.2446 215 212 203
-0.569811 6.17664 12.3813 150 150 138
-0.653118 7.42211 13.3453 213 211 199
-0.58003 6.35285 12.5031 154 152 140
-0.50853 5.5808 12.0778 210 206 194
-0.485773 5.44956 12.0284 207 204 189
-0.636939 7.37234 13.2984 219 216 207
-0.641241 7.51354 13.4177 214 212 200
-0.508811 5.75648 12.1448 198 198 186
-0.547337 6.24544 12.4315 214 212 199
-0.486453 5.58495 12.05 202 200 188
-0.472025 5.48789 12.0171 205 202 195
-0.629563 7.77331 13.631 213 210 201
-1.18549 22.2756 28.4011 102 92 80
-0.516031 6.09622 12.3288 213 211 199
-0.557294 6.68744 12.7461 211 208 199
-0.470562 5.64184 12.0647 206 206 194
-0.45365 5.54564 12.018 142 140 128
-0.520038 6.39666 12.5418 215 212 203
-0.458697 5.63176 12.0567 199 199 189
-0.486403 5.95431 12.2385 214 214 206
-0.523506 6.4582 12.5826 210 210 200
-0.537056 6.66949 12.7415 216 213 204
-0.620612 8.11735 13.9135 210 210 200
-0.572673 7.25316 13.1701 208 209 201
-0.572673 7.25316 13.1701 208 209 201
-0.458212 5.71149 12.0932 149 149 141
-0.464179 5.78004 12.1199 199 198 193
-0.473955 5.94376 12.2329 201 201 193
-0.576375 7.52743 13.3985 212 210 198
-0.484732 6.22623 12.4211 151 147 138
-0.566318 7.45997 13.3271 215 212 203
-0.452186 5.81701 12.1513 209 209 199
-0.626181 8.7383 14.4527 210 210 200
-0.572463 7.72771 13.5726 212 209 200
-0.513183 6.78877 12.8243 214 211 202
-0.499302 6.57607 12.6598 215 212 203
-0.545056 7.31391 13.2249 147 144 135
-0.558341 7.54737 13.4111 214 211 202
-0.534411 7.15249 13.0974 211 211 201
-1.32912 23.3755 27.4095 44 37 29
-0.466102 6.20866 12.4041 209 209 201
-0.601935 8.54327 14.2671 204 204 194
-0.436783 5.88175 12.1981 218 215 206
-0.481847 6.59325 12.6758 214 211 202
-0.578584 8.40402 14.1462 206 206 196
-1.0136 22.4437 28.4485 101 89 77
-0.520121 7.3981 13.2937 210 208 195
-0.574785 8.44275 14.1709 208 208 198
-1.05291 22.741 28.4066 102 94 75
-0.442149 6.2858 12.4671 181 179 166
-0.442149 6.2858 12.4671 181 179 166
-0.520528 7.5161 13.3578 219 216 207
-0.404125 5.81908 12.1418 210 207 188
-0.463331 6.7341 12.7782 213 210 201
-0.49652 7.32227 13.2101 157 155 142
-0.476066 7.03406 13.012 211 208 199
-0.390909 5.79831 12.1387 162 160 148
-0.998375 22.8547 28.4251 51 42 35
-0.372994 5.68917 12.0665 227 229 218
-0.387358 5.88571 12.1864 216 214 201
-0.448914 6.88596 12.9041 210 207 198
-0.417324 6.57261 12.6758 212 209 200
-0.876261 22.4522 28.45 104 93 87
-0.440843 7.09971 13.0562 210 207 198
-0.394242 6.42588 12.5579 212 209 200
-0.792939 22.1724 28.5907 90 80 68
-0.437075 7.20252 13.1301 207 207 197
-1.06677 23.2176 27.5934 124 116 103
-0.342722 5.78081 12.1205 139 139 127
-0.342401 5.84088 12.159 211 208 199
-0.343293 5.8419 12.1571 211 208 199
-0.421529 7.12172 13.0733 206 206 196
-0.41367 6.99265 12.9722 213 210 201
-0.414209 6.99259 12.9703 213 210 201
-0.432225 7.28241 13.1806 208 205 196
-0.333817 5.80535 12.132 213 211 199
-0.35544 6.18189 12.3926 215 213 201
-0.35544 6.18189 12.3926 215 213 201
-0.407558 7.07443 13.0272 211 211 201
-0.424668 7.39003 13.2622 207 204 195
-0.873522 22.9975 28.4321 110 103 85
-0.436477 7.77855 13.5739 211 208 199
-0.392083 6.98421 12.9562 213 210 201
-0.392083 6.98421 12.9562 213 210 201
-0.426516 7.70264 13.5011 210 207 198
-0.298362 5.62732 12.0236 201 196 190
-0.353246 6.53816 12.6443 211 208 199
-0.344719 6.44656 12.5872 212 212 202
-0.995384 23.0969 27.2882 70 67 50
-0.327165 6.15657 12.3755 150 144 128
-1.1139 23.4444 26.6756 80 78 63
-0.353922 6.73705 12.7852 211 208 199
-0.353471 6.80134 12.8333 214 211 202
-1.08762 23.4257 26.6748 53 52 31
-0.396082 8.09489 13.8387 207 207 197
-0.610946 22.3502 28.7338 112 106 90
-0.46187 21.68 28.9456 115 110 90
-0.359392 7.60051 13.4244 209 207 195
-0.355443 7.55859 13.3856 209 207 195
-0.305105 6.72891 12.7874 211 208 199
-0.345809 7.48255 13.3321 211 209 197
-0.627408 22.5116 28.4049 132 130 109
-0.663198 22.992 28.4554 155 153 140
-0.289329 6.79909 12.8354 210 207 198
-0.266018 6.65714 12.7339 212 209 200
-0.932176 23.5834 26.8001 169 167 152
-0.311657 7.65607 13.4687 209 206 197
-0.302664 7.46554 13.3083 213 210 201
-0.302664 7.46554 13.3083 213 210 201
-0.282442 7.24993 13.1575 212 209 200
-0.297097 7.60796 13.4343 209 206 197
-0.862657 23.9637 27.4539 179 175 166
-0.444331 22.4606 28.7723 168 165 150
-1.02488 24.019 26.2481 192 190 178
-0.267428 7.15986 13.0882 213 210 201
-0.363198 22.1734 28.9705 174 170 158
-0.363198 22.1734 28.9705 174 170 158
-0.300281 8.10939 13.8561 212 209 200
-0.222865 6.54263 12.6531 216 213 204
-0.494575 22.9369 28.4627 182 181 161
-0.259581 7.76475 13.5629 214 211 202
-0.219564 7.0298 12.9919 212 209 200
-0.230537 7.47644 13.3415 212 209 200
-0.227952 7.53507 13.3877 211 209 197
-0.23222 7.61448 13.4476 211 209 197
-0.376567 22.6855 28.588 184 182 167
-0.441996 23.2067 28.6312 185 183 168
-0.153049 21.8858 29.1767 200 200 188
-0.22494 7.92202 13.7005 210 207 198
-0.530322 23.4905 28.0774 194 192 179
-0.21059 7.89555 13.6938 211 208 199
0.0347163 21.3553 29.5583 202 199 190
-0.677664 23.9838 27.3891 195 195 183
-0.201034 7.76019 13.5792 213 210 201
-0.256382 22.6487 28.8706 200 199 194
-0.493835 23.4642 28.0546 198 194 183
-0.192311 7.65065 13.4889 207 204 195
-0.153336 6.6657 12.7221 216 213 204
-0.104212 22.0963 29.2335 197 201 186
-0.172983 7.91839 13.7233 211 208 199
-0.764571 23.7939 26.1644 204 201 192
-0.318743 23.1903 28.51 81 70 48
-0.302107 23.1282 28.5101 94 82 70
-0.1638 8.00048 13.7942 211 208 199
-0.131882 7.44892 13.3229 214 212 200
-0.121179 7.32657 13.2264 215 211 208
-0.0160068 22.426 29.1335 204 205 200
0.169303 21.716 29.5137 211 208 199
-0.106605 7.60428 13.4545 213 210 201
-0.334661 23.3736 27.821 204 204 192
-0.341004 23.4237 27.7306 210 209 207
-0.653813 23.8855 26.103 206 205 185
-0.670513 23.9998 26.1033 199 194 172
-0.322038 23.401 27.7466 211 208 203
-0.3236 23.3961 27.7357 211 208 203
-0.174303 23.2858 28.5521 211 207 196
0.149121 22.2041 29.4616 177 170 160
-0.621339 24.0262 26.2076 201 194 184
-0.344887 23.5257 27.4353 199 193 177
-0.0677148 7.60373 13.4362 210 208 196
-0.00580227 22.934 28.8098 195 188 180
-0.0653683 8.06093 13.8139 213 210 201
-0.54559 23.9259 26.2321 206 206 194
0.0178946 14.4068 20.4392 213 210 201
-0.527403 24.0422 26.2562 211 211 201
0.0305705 13.5553 19.5989 210 207 198
-0.0326598 23.3393 28.6184 206 208 197
-0.00954678 23.2289 28.5372 206 207 193
-0.0182867 8.24661 13.966 212 209 200
-0.0222003 8.50735 14.1753 210 207 198
0.0319657 23.3844 28.6865 218 212 200
0.0621013 23.0366 28.4932 217 212 192
0.0976497 23.2981 28.6696 69 62 52
-0.136024 23.4128 27.2825 85 82 65
0.0107734 9.64918 15.1886 216 214 202
0.125894 14.5586 20.4851 67 66 74
0.13503 14.8119 20.7295 159 161 147
-0.0666893 23.3944 27.3612 204 205 200
0.179237 18.5213 24.2398 216 212 203
-0.193693 23.7658 26.8355 210 206 195
0.0649038 12.1108 17.4562 210 207 198
0.206004 15.7397 21.575 212 209 200
0.266533 19.5991 25.1251 211 208 191
0.276809 18.9137 24.5636 186 182 171
0.269159 16.8465 22.5837 146 138 127
-0.0183591 23.4131 26.8167 78 73 77
0.300636 21.3138 26.6815 111 110 108
0.300636 21.3138 26.6815 111 110 108
0.29551 17.0278 22.728 191 192 187
0.295638 16.9513 22.6534 203 204 199
0.317986 19.1226 24.6811 211 207 204
0.317986 19.1226 24.6811 211 207 204
0.32893 20.9833 26.3566 210 211 203
0.337298 21.5276 26.8382 210 211 205
0.371304 23.5046 28.6787 212 210 198
0.436639 21.4118 26.7216 214 211 202
0.292151 23.4811 26.9161 211 208 199
0.373665 23.1381 26.2461 212 209 200
0.474804 23.3401 26.7305 0 0 0
0.497406 23.5322 26.3521 0 0 0
0.655644 23.6326 26.5139 0 0 0
1.44948 23.005 29.3938 0 0 0
0.897285 23.3964 26.7478 0 0 0
1.5362 23.0189 29.3918 0 0 0
1.87443 22.6317 30.7004 0 0 0
1.87443 22.6317 30.7004 0 0 0
0.850546 23.6813 26.44 0 0 0
1.05393 23.3035 27.1099 0 0 0
0.94698 23.4567 26.466 0 0 0
3.34035 17.9632 33.6542 0 0 0
1.50056 23.4028 28.7814 0 0 0
2.97411 20.0861 33.2657 0 0 0
1.95684 22.7267 30.1803 0 0 0
1.19841 23.2982 27.0205 0 0 0
2.17272 24.461 32.2938 0 0 0
2.1255 22.4512 30.5268 0 0 0
2.06274 22.8443 30.3468 0 0 0
3.60589 17.7349 33.7267 0 0 0
1.22202 23.4575 26.744 0 0 0
2.18622 22.58 30.5326 0 0 0
2.21876 22.3918 30.5092 0 0 0
1.86051 23.118 29.3513 0 0 0
1.72435 23.5497 28.9752 0 0 0
3.74359 17.7866 33.9293 0 0 0
2.17774 22.9285 30.4134 0 0 0
2.24002 23.0809 30.7767 0 0 0
2.25919 22.812 30.6398 0 0 0
2.30345 22.3871 30.4598 0 0 0
1.28334 23.4325 26.5488 0 0 0
2.271 22.7994 30.4889 0 0 0
2.33086 22.4406 30.4693 0 0 0
2.32479 22.5948 30.5297 0 0 0
2.10205 22.63 29.477 0 0 0
3.59969 18.4421 33.0935 0 0 0
2.39246 22.6302 30.5617 0 0 0
2.54502 20.4036 29.6721 0 0 0
2.54502 20.4036 29.6721 0 0 0
2.387 22.8221 30.5637 0 0 0
2.44533 22.6716 30.5104 0 0 0
2.44533 22.6716 30.5104 0 0 0
3.69963 18.9938 33.5194 0 0 0
3.54486 20.2649 33.4737 0 0 0
3.72888 18.9279 33.3738 0 0 0
2.65229 20.4041 29.6725 0 0 0
2.43442 23.0318 30.4682 0 0 0
2.43442 23.0318 30.4682 0 0 0
3.74635 19.0437 33.4522 0 0 0
2.67743 19.933 29.38 0 0 0
3.80344 18.6886 33.3672 0 0 0
3.81407 18.8807 33.3778 0 0 0
3.79647 18.9781 33.3649 0 0 0
2.79253 20.4833 29.7259 0 0 0
2.25344 23.1056 29.0169 0 0 0
2.68585 22.6716 30.474 0 0 0
4.13952 17.4574 33.1456 0 0 0
4.29503 18.1324 34.128 0 0 0
2.72052 22.812 30.4586 0 0 0
2.69084 22.9701 30.3529 0 0 0
1.66975 23.9127 26.5574 0 0 0
2.94989 20.0175 29.3283 0 0 0
2.74321 23.0104 30.3315 0 0 0
2.82633 22.6302 30.3868 0 0 0
2.87703 22.4641 30.4484 0 0 0
1.69347 23.8689 26.442 0 0 0
2.91062 22.563 30.5159 0 0 0
2.91062 22.563 30.5159 0 0 0
4.17172 19.5715 33.7634 0 0 0
2.81287 22.8933 30.224 0 0 0
4.24282 18.9498 33.4079 0 0 0
4.20726 19.1946 33.3635 0 0 0
1.82265 23.7617 26.4508 0 0 0
4.22484 19.3078 33.3699 0 0 0
4.31661 19.0477 33.4931 0 0 0
4.54902 18.6822 34.1724 0 0 0
5.51884 17.3996 36.5681 0 0 0
2.74287 23.2004 29.0557 0 0 0
5.60223 17.6486 36.8481 0 0 0
2.007 23.7504 26.3564 0 0 0
4.54644 19.3626 33.5856 0 0 0
2.94548 22.904 29.3611 0 0 0
4.68231 19.2852 33.841 0 0 0
3.18851 22.3829 29.8515 0 0 0
3.184 22.2731 29.6817 0 0 0
2.30497 23.6185 27.0107 0 0 0
2.46799 18.5619 24.5693 0 0 0
3.90613 20.1841 30.9525 0 0 0
2.8864 23.2554 28.8369 0 0 0
4.56797 19.7716 33.1824 0 0 0
4.81207 19.4712 33.9005 0 0 0
3.2735 22.5087 29.6666 0 0 0
5.22857 18.4899 34.7015 0 0 0
4.83404 19.5686 33.6107 0 0 0
2.95886 23.3394 28.7325 0 0 0
5.83923 16.4157 35.5069 0 0 0
5.92616 17.1648 36.182 0 0 0
5.73104 16.9788 35.366 0 0 0
4.99926 19.4098 33.9641 0 0 0
3.4113 22.3877 29.7345 0 0 0
6.1088 16.7559 36.5604 0 0 0
3.03252 23.1439 28.6777 0 0 0
5.28552 18.7584 34.5582 0 0 0
5.28552 18.7584 34.5582 0 0 0
4.73323 19.9636 33.0934 0 0 0
3.39291 22.5594 29.58 0 0 0
5.86728 16.1979 35.1427 0 0 0
4.68482 20.199 32.9891 0 0 0
4.83161 19.8019 33.288 0 0 0
5.66392 17.9614 35.2736 0 0 0
3.46797 22.2449 29.5653 0 0 0
6.15847 16.1757 35.9303 0 0 0
5.70395 17.9235 35.2243 0 0 0
4.83099 19.3588 32.8036 0 0 0
4.70366 19.7705 32.5275 0 0 0
0.303218 3.03478 6.674 0 0 0
5.94047 17.2529 35.5722 0 0 0
3.1841 22.8711 28.6242 0 0 0
3.54848 22.501 29.6752 0 0 0
4.97609 19.6511 33.2813 0 0 0
5.94516 17.0274 35.342 0 0 0
5.47326 18.1923 34.2433 0 0 0
3.89485 20.7421 29.7879 0 0 0
4.90235 19.8189 32.9441 0 0 0
5.36691 18.9135 33.9851 0 0 0
5.12838 19.5586 33.4769 0 0 0
5.83577 17.4988 34.858 0 0 0
5.13292 19.4261 33.381 0 0 0
3.24824 22.9732 28.478 0 0 0
3.93273 20.3983 29.4953 0 0 0
5.05888 19.8791 33.2684 0 0 0
5.10037 19.4161 33.1284 0 0 0
5.15816 19.4826 33.3721 0 0 0
5.13306 19.5667 33.2715 0 0 0
5.2253 18.862 33.1854 0 0 0
5.03378 19.2787 32.7231 0 0 0
3.72165 22.2764 29.5941 0 0 0
3.9961 20.6263 29.603 0 0 0
4.99327 19.8462 32.7078 0 0 0
3.57616 22.8329 29.2803 0 0 0
3.57616 22.8329 29.2803 0 0 0
5.326 18.4566 33.124 0 0 0
5.42927 18.7512 33.639 0 0 0
3.57405 22.8341 29.2393 0 0 0
5.25254 18.5575 32.8035 0 0 0
6.08689 16.2561 34.4856 0 0 0
5.16624 19.0115 32.5772 0 0 0
5.07283 19.4145 32.3799 0 0 0
6.17698 17.9484 35.4053 0 0 0
5.27996 18.3153 32.4048 0 0 0
5.48063 17.8348 32.6899 0 0 0
5.52321 18.1743 32.9735 0 0 0
6.55295 15.9606 35.3317 0 0 0
4.8855 19.209 31.2308 0 0 0
4.24104 21.2781 30.0309 0 0 0
5.62185 17.321 32.5368 0 0 0
4.29666 20.8249 29.7297 0 0 0
4.3232 21.345 30.0741 0 0 0
6.88106 17.0003 36.5779 0 0 0
5.37324 18.5812 32.197 0 0 0
4.96638 19.8151 31.4432 0 0 0
5.40074 18.0687 32.0244 0 0 0
3.85896 22.5606 29.0834 0 0 0
4.28398 20.1251 29.1951 0 0 0
4.25651 20.0143 29.0453 0 0 0
4.95464 19.8928 31.3825 0 0 0
5.16693 19.0214 31.5853 0 0 0
4.32095 20.1721 29.2313 0 0 0
4.51142 19.5735 29.3399 0 0 0
5.04575 19.7244 31.1918 0 0 0
3.77059 22.9427 28.5539 0 0 0
5.25161 18.6521 31.3127 0 0 0
5.11762 19.0968 31.0486 0 0 0
5.24977 18.7977 31.3226 0 0 0
5.67204 17.9007 32.2543 0 0 0
5.00087 19.4208 30.7512 0 0 0
5.00246 19.5172 30.8063 0 0 0
3.92842 24.1971 29.6262 0 0 0
5.05377 19.1034 30.7402 0 0 0
5.02804 19.1027 30.4269 0 0 0
8.58681 15.8423 40.4565 0 0 0
5.01324 35.4325 38.61 0 0 0
5.02785 35.5324 38.6593 0 0 0
5.74829 19.1591 32.4936 0 0 0
5.33149 19.5804 31.1476 0 0 0
5.41075 19.7856 31.3522 0 0 0
6.10663 19.3706 33.4197 0 0 0
8.61347 16.0545 39.8897 0 0 0
5.66761 19.7298 32.0319 0 0 0
5.35929 20.0357 31.0233 0 0 0
5.42048 19.9706 31.1619 0 0 0
7.65631 17.9328 37.3025 0 0 0
7.86001 18.2675 38.1122 0 0 0
5.97579 19.8032 32.7719 0 0 0
7.6564 18.537 37.5208 0 0 0
5.47322 20.2007 31.1404 0 0 0
7.88936 17.8276 37.708 0 0 0
6.10452 19.9041 32.9573 0 0 0
6.10452 19.9041 32.9573 0 0 0
7.51604 19.1389 36.9019 0 0 0
5.04681 20.156 29.5039 0 0 0
6.70349 19.6081 34.362 0 0 0
5.15064 22.6932 30.8123 0 0 0
8.58873 17.0988 38.9165 0 0 0
5.70304 20.369 31.3813 0 0 0
5.05474 20.4044 29.3145 0 0 0
5.05474 20.4044 29.3145 0 0 0
5.88308 20.3193 31.7702 0 0 0
9.57181 16.3462 41.1346 0 0 0
8.19714 17.8901 37.4466 0 0 0
8.43224 18.926 38.6005 0 0 0
5.93758 20.6323 31.686 0 0 0
6.17181 20.7551 32.3751 0 0 0
6.61576 20.4819 33.6003 0 0 0
8.74288 18.5465 39.0108 0 0 0
5.45771 22.001 30.5275 0 0 0
6.07369 20.8536 31.8595 0 0 0
8.78111 18.7954 38.8421 0 0 0
6.43176 20.1384 32.3199 0 0 0
6.77452 20.6073 33.5233 0 0 0
8.2478 19.4985 37.2518 0 0 0
9.99491 16.954 41.0669 0 0 0
10.3192 16.5612 41.4183 0 0 0
10.2533 16.9468 41.141 0 0 0
6.956 20.9703 33.1911 0 0 0
