ply
format ascii 1.0 
element vertex 1292
property float32 x 
property float32 y 
property float32 z
property uchar red  
property uchar green
property uchar blue
element face 0
property list uchar int vertex_indices
end_header
-1.22564 -0.139586 7.17028 161 99 50
-1.00441 0.661206 5.87661 185 117 52
-1.14904 0.0865167 6.74463 162 96 48
-1.09976 0.292358 6.46951 170 107 53
-0.994884 0.652321 5.89156 176 114 53
-1.09215 0.286445 6.46969 174 110 49
-0.969781 0.716709 5.78426 179 113 52
-1.0813 0.301661 6.45779 177 115 54
-0.982314 0.658317 5.8847 182 119 52
-1.07233 0.30145 6.4544 173 111 52
-1.07233 0.30145 6.4544 173 111 52
-1.12613 0.0487305 6.79558 166 103 52
-1.06076 0.320713 6.40225 175 109 49
-1.0627 0.309703 6.43761 169 107 48
-1.03685 0.408201 6.29094 166 101 37
-1.08604 0.236321 6.59499 165 99 51
-1.08604 0.236321 6.59499 165 99 51
-0.962699 0.679129 5.84927 181 120 55
-1.11445 0.0596357 6.78182 154 96 48
-0.961201 0.67423 5.85847 171 109 48
-0.961201 0.67423 5.85847 171 109 48
-1.13545 -0.0128145 6.9282 199 192 173
-1.00507 0.494836 6.16015 181 112 43
-0.955237 0.671217 5.8581 163 102 48
-0.956888 0.661039 5.87359 157 97 47
-1.01657 0.437658 6.24293 170 100 38
-1.0549 0.276793 6.49384 156 94 53
-0.950104 0.672617 5.85634 157 100 45
-1.02435 0.381457 6.3253 170 104 43
-1.07806 0.156055 6.66136 209 205 194
-1.013 0.409309 6.28413 170 105 41
-0.944616 0.66716 5.8682 162 106 45
-0.942219 0.668687 5.86154 169 109 49
-1.02075 0.353473 6.36447 173 136 91
-1.06999 0.132342 6.68117 209 209 199
-0.938783 0.658729 5.87306 162 101 47
-1.02473 0.327122 6.41695 210 204 188
-1.02473 0.327122 6.41695 210 204 188
-0.918449 0.731009 5.75221 162 100 51
-1.07441 0.0882197 6.739 210 208 196
-0.934165 0.664963 5.86421 159 102 47
-1.06958 0.108997 6.71838 210 207 198
-1.06958 0.108997 6.71838 210 207 198
-1.25305 -0.604453 7.87703 104 99 93
-1.021 0.317046 6.42039 210 208 196
-1.021 0.317046 6.42039 210 208 196
-0.931224 0.668942 5.85888 161 100 45
-0.981944 0.48343 6.17921 169 109 47
-0.931289 0.656675 5.87533 183 118 52
-1.07303 0.0619344 6.77117 205 203 191
-1.0179 0.313693 6.42636 210 208 196
-0.990859 0.424913 6.26071 195 169 136
-0.924064 0.676376 5.84573 165 102 49
-1.05362 0.149737 6.67137 206 203 194
-1.06638 0.0771149 6.75683 206 204 192
-1.01261 0.314341 6.42299 212 210 198
-1.23643 -0.584609 7.84243 109 106 97
-1.08902 -0.0216848 6.92478 211 209 197
-1.00932 0.318362 6.41936 212 210 198
-0.918933 0.674474 5.84642 185 122 53
-0.920542 0.661636 5.87016 179 114 46
-1.01111 0.301912 6.44907 212 210 198
-0.969522 0.478231 6.18813 203 188 159
-1.1641 -0.313269 7.44126 201 199 187
-1.1641 -0.313269 7.44126 201 199 187
-0.91363 0.673912 5.84416 186 119 51
-0.91363 0.673912 5.84416 186 119 51
-1.0769 -0.00957695 6.8978 211 209 196
-1.05625 0.060677 6.77805 210 207 198
-0.910977 0.669924 5.84846 183 118 52
-1.15019 -0.270628 7.40837 209 206 197
-1.04934 0.0697232 6.76176 209 209 199
-1.03023 0.124149 6.69832 197 197 187
-0.895764 0.675288 5.84392 174 112 51
-1.00981 0.225562 6.59849 212 210 198
-0.974919 0.340671 6.37712 209 209 199
-0.892175 0.667477 5.85211 209 192 164
-0.962894 0.384042 6.31808 211 209 197
-0.978156 0.313956 6.42237 210 210 198
-0.947886 0.443996 6.22964 205 205 193
-1.03617 0.0309984 6.81169 101 98 89
-0.887746 0.671171 5.84528 208 208 196
-1.01128 0.145663 6.67099 138 137 119
-1.01128 0.145663 6.67099 138 137 119
-0.885818 0.666029 5.85429 211 209 196
-0.885818 0.666029 5.85429 211 209 196
-0.879736 0.666039 5.84331 209 210 194
-0.876871 0.672401 5.84391 211 209 197
-1.02607 0.0127955 6.84078 135 133 118
-0.874689 0.667117 5.85274 211 208 199
-0.869486 0.668994 5.84834 210 208 196
-0.857625 0.709452 5.78526 212 210 198
-1.01879 -0.0152662 6.88256 210 208 196
-0.987922 0.130894 6.70222 209 207 195
-0.983 0.160148 6.67047 196 196 184
-0.983 0.160148 6.67047 196 196 184
-0.944297 0.324803 6.41435 202 198 186
-0.924955 0.388441 6.30751 165 167 154
-0.844705 0.722473 5.76423 212 210 198
-1.01401 -0.0331524 6.92373 210 208 196
-1.14824 -0.601226 7.8581 204 205 191
-0.891787 0.514837 6.11674 208 208 198
-0.891787 0.514837 6.11674 208 208 198
-0.969499 0.110827 6.73014 210 210 200
-0.971851 0.0811986 6.76088 210 210 200
-0.954208 0.107673 6.73007 208 208 198
-0.924783 0.205813 6.62684 202 202 192
-0.79896 0.719095 5.77599 212 210 198
-0.926889 0.144773 6.73293 194 192 180
-0.964034 -0.104595 7.01156 203 200 191
-0.790825 0.727711 5.76282 212 210 198
-0.856733 0.425551 6.25358 147 153 127
-0.874399 0.332437 6.39728 123 126 109
-0.901435 0.20793 6.61533 115 116 98
-1.07543 -0.607982 7.89204 187 187 177
-0.929808 0.0194286 6.83103 212 209 200
-0.825294 0.526134 6.07776 40 43 32
-1.06728 -0.582947 7.86611 188 188 178
-1.05387 -0.548053 7.82932 206 203 194
-1.04218 -0.550262 7.85031 198 201 190
-0.821479 0.439994 6.22801 107 110 89
-0.809153 0.490255 6.13697 39 41 30
-0.763548 0.714106 5.79152 215 213 201
-1.03327 -0.553834 7.8626 202 202 192
-0.865048 0.214449 6.61122 97 95 72
-0.788928 0.491464 6.13278 112 112 86
-0.842574 0.251478 6.57683 96 95 74
-0.772977 0.519496 6.08762 27 26 21
-0.844909 0.13753 6.70853 201 201 191
-0.833049 0.194593 6.642 80 81 65
-0.768668 0.479546 6.15273 109 112 91
-0.718764 0.73213 5.7609 199 199 187
-0.792182 0.342319 6.38211 109 109 83
-0.748125 0.537866 6.06504 24 23 18
-0.748125 0.537866 6.06504 24 23 18
-0.8398 0.0342587 6.84916 209 207 195
-0.772664 0.342292 6.38041 100 104 81
-0.728453 0.567553 6.02099 24 23 18
-0.76958 0.337195 6.38937 106 110 85
-0.813379 0.0981423 6.76592 201 201 189
-0.820794 0.0269398 6.85594 210 210 200
-0.789781 0.218764 6.62777 130 126 101
-0.748547 0.37996 6.31942 145 149 116
-0.748547 0.37996 6.31942 145 149 116
-0.81476 0.00929243 6.88652 209 209 199
-0.751598 0.346929 6.36856 95 98 71
-0.736357 0.420842 6.25372 141 145 120
-0.752185 0.337295 6.39279 95 98 69
-0.779504 0.212034 6.63006 83 78 58
-0.713135 0.52854 6.08108 106 109 88
-0.747868 0.338026 6.39201 135 136 102
-0.703079 0.572764 6.01556 28 29 23
-0.788022 0.114252 6.74744 199 199 189
-0.742813 0.348343 6.36853 121 122 78
-0.762696 0.237173 6.60304 133 133 107
-0.790105 0.0273903 6.86375 209 209 201
-0.663207 0.729777 5.77815 213 213 201
-0.902651 -0.558508 7.88323 209 209 199
-0.652645 0.770773 5.71174 216 214 202
-0.691403 0.543743 6.06132 112 115 98
-0.782838 0.0150962 6.89576 212 212 202
-0.776756 0.0260311 6.87607 205 205 193
-0.879273 -0.548953 7.85921 210 210 202
-0.756056 0.0974423 6.77831 216 213 204
-0.712522 0.337254 6.39493 100 101 83
-0.661388 0.623155 5.95515 44 45 37
-0.758265 0.0514862 6.84226 210 210 200
-0.717187 0.272178 6.55871 23 22 17
-0.653679 0.596835 5.9936 137 139 102
-0.668812 0.492573 6.13858 129 131 109
-0.695527 0.339861 6.39213 94 96 75
-0.646696 0.632809 5.94502 119 118 98
-0.646696 0.632809 5.94502 119 118 98
-0.738746 0.0753314 6.83683 203 203 193
-0.721884 0.183556 6.68306 119 117 92
-0.725242 0.136281 6.73953 210 210 198
-0.696448 0.274 6.55567 22 22 14
-0.696448 0.274 6.55567 22 22 14
-0.665479 0.390471 6.30871 114 116 94
-0.719545 0.0679809 6.83541 211 211 201
-0.715614 0.0809016 6.81067 213 213 203
-0.636508 0.524086 6.09008 146 151 121
-0.638589 0.49729 6.13018 124 128 105
-0.811267 -0.546952 7.81741 203 196 190
-0.677953 0.275064 6.55108 31 31 21
-0.622701 0.570732 6.02187 124 127 110
-0.696142 0.136586 6.75441 214 214 204
-0.802233 -0.528297 7.79888 142 103 72
-0.585677 0.777595 5.70948 216 213 204
-0.587285 0.743413 5.76687 214 215 201
-0.6815 0.147314 6.73803 214 212 200
-0.710336 -0.123606 7.0844 192 148 85
-0.703197 -0.0830563 7.04299 204 165 90
-0.594033 0.546232 6.06273 134 139 117
-0.637457 0.277634 6.54357 30 30 22
-0.585358 0.489251 6.14578 123 130 112
-0.591969 0.434711 6.22788 134 139 117
-0.643423 0.147869 6.77664 135 121 48
-0.555981 0.601379 5.99685 115 119 96
-0.563231 0.493681 6.14057 123 127 92
-0.618002 0.192528 6.75767 106 105 77
-0.537782 0.647385 5.93855 118 122 107
-0.537782 0.647385 5.93855 118 122 107
-0.543396 0.58857 6.01831 165 170 140
-0.548742 0.511222 6.1167 162 168 122
-0.534404 0.621291 5.97775 137 141 124
-0.529244 0.64906 5.93276 127 131 108
-0.561278 0.397445 6.31345 117 117 89
-0.538279 0.545249 6.0791 118 119 101
-0.524707 0.593033 6.01878 87 94 76
-0.514498 0.62477 5.97346 168 172 147
-0.514498 0.62477 5.97346 168 172 147
-0.526939 0.501101 6.1339 129 130 98
-0.508429 0.5206 6.11223 92 99 66
-0.500234 0.59367 6.0224 142 147 124
-0.500234 0.59367 6.0224 142 147 124
-0.532025 0.284666 6.52507 76 74 49
-0.500332 0.499289 6.14189 87 86 55
-0.494639 0.492415 6.14877 108 109 78
-0.4887 0.558765 6.07506 134 140 114
-0.579181 -0.186321 7.20516 126 100 75
-0.523775 0.292278 6.51703 70 67 50
-0.489761 0.502707 6.13737 78 82 47
-0.490442 0.477531 6.17592 117 120 91
-0.490442 0.477531 6.17592 117 120 91
-0.515324 0.26142 6.56165 72 71 50
-0.478522 0.487888 6.16007 92 95 66
-0.598816 -0.522893 7.78538 104 91 74
-0.472907 0.481539 6.17051 100 100 74
-0.552907 -0.193934 7.21926 120 111 78
-0.467189 0.516403 6.12932 76 78 54
-0.467189 0.516403 6.12932 76 78 54
-0.590683 -0.514393 7.7722 116 95 74
-0.466111 0.504447 6.13771 81 80 59
-0.588868 -0.549825 7.82633 116 116 118
-0.462718 0.497227 6.15281 94 95 64
-0.574789 -0.526402 7.79284 117 104 96
-0.565401 -0.513294 7.76634 174 172 173
-0.54888 -0.533152 7.80614 209 208 203
-0.439335 0.424552 6.29992 69 68 50
-0.444876 0.302786 6.51676 71 67 55
-0.530153 -0.511022 7.77012 180 175 172
-0.447286 0.267279 6.57002 41 41 29
-0.520666 -0.505631 7.76195 148 129 112
-0.428618 0.292926 6.55245 84 79 59
-0.426528 0.242569 6.53337 64 62 49
-0.424622 0.311482 6.50964 70 67 50
-0.423766 0.287254 6.55011 59 53 41
-0.414809 0.336497 6.48935 68 67 46
-0.495703 -0.520431 7.78367 189 189 179
-0.415253 0.286516 6.55499 66 61 42
-0.407663 0.218416 6.53389 98 98 60
-0.401228 0.327348 6.50054 91 91 65
-0.402314 0.213701 6.53617 80 81 50
-0.397463 0.331849 6.49436 81 80 59
-0.390327 0.328762 6.49985 87 82 62
-0.352272 -0.143804 5.86884 89 90 84
-0.347097 -0.151161 5.86432 101 101 99
-0.379678 0.170965 6.5137 103 101 76
-0.379678 0.170965 6.5137 103 101 76
-0.32825 -0.156408 5.85894 200 200 190
-0.315158 -0.1986 5.86737 179 179 169
-0.334435 0.371713 6.41076 43 44 28
-0.395801 -0.490042 7.75337 205 205 193
-0.290529 -0.264617 6.09534 204 204 194
-0.299277 0.288172 6.31628 84 83 63
-0.360489 -0.501312 7.76991 208 206 193
-0.275394 -0.294852 6.10144 193 192 174
-0.273398 -0.237903 6.08663 207 206 188
-0.264959 -0.0966206 5.9582 202 202 192
-0.270664 0.236033 6.19794 101 101 77
-0.25506 -0.104502 5.95032 204 204 192
-0.253905 -0.122821 5.95307 207 204 185
-0.258591 -0.264973 6.07457 109 105 93
-0.253145 -0.115026 5.94969 204 204 192
-0.253316 -0.176493 5.95341 197 195 180
-0.331693 -0.515152 7.80059 208 208 198
-0.245981 -0.146599 5.94872 207 204 199
-0.245832 -0.165167 5.94711 181 179 167
-0.243364 -0.11695 5.9427 205 205 193
-0.240479 -0.0945579 5.93785 204 204 194
-0.239004 -0.209917 5.9519 209 211 200
-0.239004 -0.209917 5.9519 209 211 200
-0.238032 -0.105025 5.93746 206 206 196
-0.297481 -0.506875 7.7956 196 196 188
-0.226166 -0.146207 5.9327 208 208 200
-0.225789 -0.150042 5.92885 206 206 196
-0.225562 -0.209627 5.94341 151 151 139
-0.219948 -0.151007 5.93041 208 209 195
-0.219185 -0.223385 5.95019 203 204 190
-0.219185 -0.223385 5.95019 203 204 190
-0.216524 -0.201078 5.93877 208 206 193
-0.215172 -0.11108 5.91988 208 209 193
-0.213607 -0.177545 5.93028 210 207 198
-0.213607 -0.177545 5.93028 210 207 198
-0.278559 -0.50126 7.78625 204 202 189
-0.211488 -0.190219 5.93062 188 186 173
-0.209929 -0.180429 5.92549 192 191 173
-0.207148 -0.177206 5.92882 207 205 192
-0.204784 -0.188019 5.92783 181 181 171
-0.199857 0.0216404 5.80634 206 206 196
-0.201316 -0.124062 5.90947 171 172 158
-0.199649 -0.179948 5.92552 190 190 178
-0.191225 0.07698 5.78706 206 206 194
-0.194296 -0.120035 5.90763 207 207 199
-0.189948 0.0573227 5.78409 201 201 189
-0.195238 -0.23104 5.95676 198 198 190
-0.189531 0.0805175 5.78628 206 206 196
-0.189729 0.00712161 5.79811 147 148 134
-0.193029 -0.171246 5.92029 158 156 144
-0.192936 -0.184487 5.92302 192 192 180
-0.185858 0.0541087 5.78091 189 189 177
-0.186228 0.0100211 5.79346 209 210 194
-0.189315 -0.227904 5.95145 160 160 150
-0.186888 -0.242641 5.966 186 186 174
-0.184618 -0.119427 5.89653 202 203 187
-0.180124 0.0803641 5.77703 196 196 184
-0.175085 0.0679576 5.76892 173 170 161
-0.172988 0.0527027 5.76832 204 202 189
-0.172988 0.0527027 5.76832 204 202 189
-0.17253 0.0270473 5.76653 200 200 190
-0.171119 0.0139342 5.77472 201 202 188
-0.173658 -0.154038 5.90683 206 206 196
-0.163165 -0.0571644 5.81338 201 201 189
-0.171887 -0.305905 6.14857 195 192 183
-0.166068 -0.229233 5.95146 210 210 198
-0.160684 0.000806984 5.77466 161 162 148
-0.162039 -0.0803384 5.83529 210 210 198
-0.159746 0.0825512 5.75488 190 190 178
-0.170451 -0.292886 6.14437 201 199 186
-0.163 -0.223431 5.94592 208 208 196
-0.15757 0.08828 5.75136 178 178 166
-0.159663 -0.237213 5.95561 202 202 190
-0.155402 -0.0621366 5.80684 176 177 163
-0.154471 -0.024951 5.78053 212 210 198
-0.164082 -0.294607 6.14623 211 208 199
-0.153435 0.043232 5.75242 203 201 186
-0.153295 0.0854629 5.75026 189 190 176
-0.153369 0.0256599 5.75636 161 159 147
-0.157611 -0.188243 5.93407 206 206 196
-0.1599 0.601795 6.02301 80 79 59
-0.15275 -0.0414298 5.78963 166 166 158
-0.151187 0.0908626 5.74685 195 196 182
-0.15625 -0.224239 5.94639 207 207 195
-0.148734 0.0404145 5.74775 202 200 185
-0.148578 0.0235573 5.75195 202 200 188
-0.148112 0.0774727 5.74306 199 197 185
-0.148112 0.0774727 5.74306 199 197 185
-0.157189 -0.304913 6.14439 208 208 198
-0.146709 0.0830535 5.74247 199 197 182
-0.146709 0.0830535 5.74247 199 197 182
-0.147122 -0.00545128 5.76593 208 208 198
-0.151835 -0.234202 5.95564 196 194 182
-0.149871 -0.13386 5.87826 208 208 196
-0.14642 0.0904545 5.74381 200 197 188
-0.155456 -0.307283 6.13651 207 208 194
-0.147677 -0.182758 5.91551 206 206 194
-0.147677 -0.182758 5.91551 206 206 194
-0.152284 -0.314775 6.14059 211 209 197
-0.141983 0.0122515 5.7508 200 200 190
-0.146057 -0.188103 5.92102 206 204 192
-0.141235 0.0506745 5.74094 179 179 167
-0.141235 0.0506745 5.74094 179 179 167
-0.141244 -0.058374 5.79284 200 200 188
-0.148735 -0.305755 6.13691 195 196 180
-0.142693 -0.175882 5.9095 202 203 189
-0.138155 -0.068172 5.79929 206 206 196
-0.140521 -0.179544 5.91047 202 202 190
-0.13613 0.0213487 5.7445 204 204 194
-0.143834 -0.315511 6.13279 173 174 166
-0.134381 0.101084 5.73336 177 177 165
-0.142889 -0.320807 6.13546 190 191 185
-0.142889 -0.320807 6.13546 190 191 185
-0.133295 0.0175305 5.7428 205 205 195
-0.13282 0.0230782 5.73976 203 203 193
-0.131908 0.00311245 5.74962 203 203 193
-0.131436 0.013023 5.74271 205 205 195
-0.135113 -0.218346 5.94087 162 162 152
-0.134095 -0.214384 5.9406 205 204 199
-0.128581 0.106222 5.72889 150 146 134
-0.131847 -0.192016 5.91933 193 194 180
-0.129366 -0.130827 5.85216 208 208 198
-0.126248 0.00424483 5.74069 207 207 197
-0.125881 0.0850095 5.72336 200 200 190
-0.134009 -0.318252 6.12781 148 146 131
-0.129128 -0.240377 5.96253 201 204 193
-0.125157 0.750124 5.78677 64 63 45
-0.132324 -0.330201 6.12695 174 173 171
-0.132324 -0.330201 6.12695 174 173 171
-0.127946 -0.196958 5.92656 208 209 195
-0.131774 -0.320513 6.1242 150 148 133
-0.131774 -0.320513 6.1242 150 148 133
-0.120875 -0.0080963 5.74021 176 176 164
-0.121174 -0.0274276 5.75518 173 170 161
-0.124406 0.647883 5.97099 107 100 82
-0.120321 -0.0778817 5.79229 194 195 181
-0.120184 -0.199426 5.92619 198 198 186
-0.120184 -0.199426 5.92619 198 198 186
-0.115149 0.13357 5.71972 211 211 201
-0.112184 0.119663 5.71334 209 209 199
-0.113183 0.752963 5.78359 68 62 46
-0.111677 0.134012 5.71302 213 213 203
-0.111053 0.00958897 5.71987 195 195 185
-0.116056 0.637759 5.97663 101 92 75
-0.114635 -0.193712 5.92186 195 197 186
-0.114581 0.65071 5.96961 109 100 83
-0.110399 -0.117182 5.82298 212 210 197
-0.108785 0.257421 5.74495 196 194 181
-0.107595 0.141294 5.71073 211 211 201
-0.107872 0.251784 5.74232 198 196 183
-0.107167 0.137587 5.71059 208 208 198
-0.107485 -0.0773758 5.77874 201 199 184
-0.108678 -0.137842 5.84909 204 204 194
-0.106957 0.771118 5.76172 65 64 44
-0.112141 -0.333035 6.10942 214 214 204
-0.11164 -0.318305 6.10602 212 212 202
-0.10139 0.75787 5.77712 50 47 38
-0.0977391 0.0472192 5.67063 162 162 152
-0.0954374 0.266302 5.73243 194 194 182
-0.0954374 0.266302 5.73243 194 194 182
-0.0962572 -0.155343 5.86128 212 212 204
-0.0913315 0.788145 5.72529 66 65 47
-0.0878939 0.0522733 5.65934 202 198 186
-0.0854012 0.0673994 5.66123 211 212 198
-0.0871247 0.736115 5.80887 93 89 78
-0.0871247 0.736115 5.80887 93 89 78
-0.0887385 -0.207721 5.95307 212 212 202
-0.0851064 0.252972 5.72212 199 199 187
-0.0866922 0.705251 5.86967 112 107 87
-0.0866922 0.705251 5.86967 112 107 87
-0.082127 0.139642 5.67944 212 210 198
-0.087944 -0.319908 6.09693 211 212 198
-0.087944 -0.319908 6.09693 211 212 198
-0.0789387 0.772612 5.74783 93 90 71
-0.0832605 -0.320084 6.0882 212 213 199
-0.0831086 -0.328667 6.0865 194 192 177
-0.0831086 -0.328667 6.0865 194 192 177
-0.0762777 0.445259 5.81753 83 77 61
-0.0733228 0.0524163 5.65391 210 210 198
-0.0765996 -0.334432 6.0896 215 213 201
-0.0735478 0.510966 5.86667 68 66 53
-0.0735478 0.510966 5.86667 68 66 53
-0.0690587 0.0590733 5.65096 200 197 178
-0.0697137 0.754814 5.77626 95 88 70
-0.0673587 0.0550327 5.64939 157 156 152
-0.0673587 0.0550327 5.64939 157 156 152
-0.0675321 -0.0301452 5.69258 183 180 173
-0.0682618 0.528311 5.87969 79 81 60
-0.0650731 0.140481 5.6668 212 212 202
-0.0635095 0.117406 5.65664 215 213 201
-0.0633106 0.272904 5.7152 199 199 189
-0.0619229 0.1026 5.65361 212 212 202
-0.0607553 0.144024 5.66152 210 210 200
-0.0606274 0.112848 5.65743 214 214 204
-0.0606215 0.137335 5.66033 212 212 202
-0.0605237 0.0899228 5.65177 211 211 201
-0.0617562 -0.109336 5.77992 214 215 201
-0.0617562 -0.109336 5.77992 214 215 201
-0.0596063 0.105482 5.65511 212 212 202
-0.0602102 0.447281 5.80819 93 90 73
-0.0582978 0.0830134 5.64956 211 211 201
-0.0586462 -0.111542 5.78252 206 205 187
-0.0573883 0.222243 5.68013 210 210 200
-0.0561425 0.148438 5.65839 209 209 199
-0.0562681 -0.0246674 5.68118 217 215 202
-0.0557944 0.101819 5.65182 212 212 202
-0.05865 0.661625 5.95319 98 91 73
-0.0565734 0.737473 5.80904 112 106 92
-0.0550667 0.224986 5.67943 210 210 200
-0.0556272 0.731215 5.82174 59 57 42
-0.0540622 0.161711 5.66023 212 212 202
-0.0528422 0.133936 5.65704 210 210 200
-0.0540316 0.739821 5.80607 79 73 59
-0.0520894 0.137639 5.65503 213 213 203
-0.0519269 0.0468323 5.64984 148 146 133
-0.0518599 0.0492798 5.64913 183 181 169
-0.0516448 0.128265 5.65053 215 212 203
-0.0516448 0.128265 5.65053 215 212 203
-0.0514396 0.164513 5.66054 210 210 200
-0.0518638 0.485554 5.82813 70 70 58
-0.0499628 0.0907097 5.6454 213 213 203
-0.0498123 0.0264127 5.65033 212 212 204
-0.0498123 0.0264127 5.65033 212 212 204
-0.0499515 0.784953 5.72652 63 63 53
-0.050315 0.738516 5.80685 108 105 90
-0.048481 0.842015 5.63359 125 128 97
-0.0490314 -0.0898948 5.75234 213 213 203
-0.0472709 0.221446 5.67431 211 211 201
-0.0474901 -0.0657871 5.72342 157 157 147
-0.0459394 0.135621 5.64992 211 211 201
-0.0456527 0.0611647 5.65141 221 221 211
-0.0435772 0.846347 5.62893 115 115 89
-0.0436428 0.0788906 5.64456 213 213 203
-0.0430522 0.102869 5.6405 212 212 202
-0.0452166 0.658697 5.95515 94 89 70
-0.0421173 0.118624 5.6462 210 210 200
-0.0422593 0.277145 5.70074 208 208 196
-0.0426303 -0.349681 6.07314 192 190 177
-0.0392818 0.160433 5.65263 215 213 201
-0.038795 0.113336 5.64417 212 212 202
-0.0384658 -0.126565 5.78159 208 210 197
-0.0373555 -0.0364688 5.67758 216 214 201
-0.0373555 -0.0364688 5.67758 216 214 201
-0.0366679 0.0110737 5.65999 210 207 200
-0.0343978 0.217632 5.66166 216 216 206
-0.0343978 0.217632 5.66166 216 216 206
-0.0341791 0.131244 5.64581 208 208 198
-0.0337616 0.0490898 5.65067 199 201 190
-0.0330886 0.0903183 5.64667 217 214 205
-0.0304562 0.0642551 5.64637 201 198 189
-0.0304562 0.0642551 5.64637 201 198 189
-0.029959 0.0859876 5.64466 210 207 198
-0.029969 0.0365753 5.65194 217 215 202
-0.0287037 0.0543593 5.64985 214 213 192
-0.0282732 0.161486 5.64572 211 209 197
-0.0277836 -0.102614 5.74386 182 179 162
-0.0269881 0.041079 5.64962 212 208 197
-0.0270052 -0.00430178 5.66139 209 210 202
-0.0269333 0.0511829 5.6471 190 187 168
-0.0269333 0.0511829 5.6471 190 187 168
-0.0264612 -0.024328 5.6702 186 184 171
-0.0263843 0.786525 5.72419 60 60 48
-0.0256571 -0.0107203 5.66321 171 168 151
-0.0254234 0.181081 5.64856 211 211 201
-0.0238491 0.0387153 5.65011 212 210 198
-0.0238264 0.102293 5.64749 212 212 202
-0.0235601 0.793568 5.71201 65 67 56
-0.0226222 0.0976364 5.64051 212 212 202
-0.0222682 -0.0122537 5.6649 126 122 110
-0.0217783 0.126881 5.63989 209 209 199
-0.0213196 0.140996 5.64063 209 209 199
-0.0226755 0.638074 5.98967 88 81 63
-0.0213152 0.26958 5.6766 208 208 198
-0.0211248 -0.0223079 5.6718 174 171 162
-0.0207208 0.113924 5.64132 212 212 202
-0.02044 0.192527 5.6472 211 211 201
-0.0202125 0.102897 5.64281 211 211 201
-0.019536 0.213883 5.6519 212 212 202
-0.019536 0.213883 5.6519 212 212 202
-0.020372 0.635337 5.99272 91 84 68
-0.0188892 0.209247 5.65077 212 212 202
-0.01846 0.107092 5.64132 211 211 201
-0.0180478 -0.00143236 5.65837 181 182 174
-0.0183991 0.636501 5.99337 90 83 67
-0.0183554 0.630224 6.00252 89 82 64
-0.0170399 0.113914 5.63827 213 213 203
-0.0167784 0.092014 5.64272 210 210 200
-0.0167784 0.092014 5.64272 210 210 200
-0.0155852 -0.0204796 5.66812 224 221 212
-0.0153537 0.230986 5.65523 211 211 201
-0.015376 0.793216 5.71317 67 68 52
-0.0151122 0.155693 5.64472 207 205 193
-0.0150627 0.190813 5.64675 210 210 200
-0.0147185 0.00230085 5.65967 209 207 194
-0.0142897 0.848707 5.62248 111 107 78
-0.0140076 0.111826 5.63898 212 212 202
-0.0138564 0.199213 5.64544 210 210 200
-0.0136053 0.0972935 5.64199 210 210 200
-0.0131511 0.103414 5.64174 210 210 200
-0.0125893 -0.0885299 5.71687 214 214 204
-0.0125893 -0.0885299 5.71687 214 214 204
-0.0118653 0.066265 5.64404 212 209 200
-0.0115144 0.0868602 5.64233 209 209 199
-0.0115144 0.0868602 5.64233 209 209 199
-0.0115085 0.192676 5.64478 208 208 198
-0.0105406 0.847431 5.62502 82 84 62
-0.0105246 0.1422 5.64088 208 208 198
-0.00999874 0.234368 5.65786 211 211 201
-0.00966686 0.128151 5.64172 208 208 198
-0.00892376 0.662847 5.95311 55 51 40
-0.00797372 0.0976692 5.63979 212 212 200
-0.00797372 0.0976692 5.63979 212 212 200
-0.00734043 0.0255108 5.65529 207 205 192
-0.00703894 0.173652 5.64244 205 205 195
-0.00591401 0.147932 5.63995 185 183 171
-0.00565123 -0.0534077 5.6846 219 217 205
-0.00480395 0.133259 5.63716 215 213 201
-0.00491373 0.662898 5.95547 47 43 31
-0.00441332 0.0606651 5.64536 210 210 200
-0.00473277 -0.329573 6.04649 223 220 211
-0.0044236 0.779915 5.71619 93 94 80
-0.00202491 0.843403 5.63093 87 90 63
-0.00183775 0.103423 5.64211 209 209 197
-0.0012005 0.162842 5.6389 205 205 195
-0.0012005 0.162842 5.6389 205 205 195
-0.00120093 -0.015585 5.66495 218 214 202
-0.000709422 -0.0965683 5.71269 216 214 202
-0.000574742 0.0516854 5.64618 217 215 203
-3.60741e-05 0.0246115 5.65536 217 215 202
4.01266e-05 0.0896149 5.63906 211 208 199
0.000446049 0.128852 5.64196 210 210 198
0.000446049 0.128852 5.64196 210 210 198
0.00101836 0.669095 5.94914 95 87 74
0.0011448 -0.0778404 5.69824 217 215 202
0.00135935 0.0168609 5.65647 176 174 162
0.00236663 0.0491262 5.64468 215 211 199
0.003572 0.0148916 5.65531 213 210 201
0.00356598 0.121314 5.63808 211 211 199
0.00673126 0.667622 5.94838 97 90 74
0.00652887 0.0917176 5.63919 212 209 200
0.00651733 0.12862 5.63461 210 210 198
0.00679614 -0.0167146 5.66386 170 166 154
0.00725415 0.211215 5.64422 209 209 199
0.00745769 -0.0434554 5.67557 219 215 214
0.00749528 0.0299345 5.65009 198 194 191
0.00891282 0.167734 5.63593 205 203 191
0.00980148 -0.0342482 5.6722 219 219 209
0.010003 0.0607234 5.64516 211 211 201
0.0107362 -0.0480961 5.67618 210 206 197
0.0108131 -0.0718541 5.68872 214 213 195
0.0117844 0.719974 5.85545 104 99 79
0.0117844 0.719974 5.85545 104 99 79
0.0128748 0.0949277 5.63929 211 208 199
0.0130794 0.0435026 5.64906 215 212 203
0.0131888 0.102724 5.64232 209 209 199
0.0138127 -0.0419962 5.67538 223 221 209
0.0141649 0.1165 5.63551 212 210 198
0.015373 -0.321836 6.03715 212 209 200
0.0147746 -0.0521554 5.678 210 207 198
0.0157922 -0.328165 6.04542 216 213 204
0.0158083 -0.317556 6.04078 215 212 203
0.0149677 -0.0650201 5.68443 195 192 183
0.0149597 0.089515 5.64289 209 206 197
0.0162635 -0.309678 6.04156 216 213 204
0.0162455 0.0335008 5.64914 209 206 197
0.0167939 0.0395782 5.65043 217 214 205
0.0167891 0.198149 5.64127 208 208 198
0.0167891 0.198149 5.64127 208 208 198
0.016933 0.135723 5.63228 204 202 190
0.016933 0.135723 5.63228 204 202 190
0.0180896 0.608912 6.03547 75 71 59
0.0180229 0.641509 5.9862 65 62 47
0.0174603 0.772184 5.75556 53 53 45
0.0174862 0.771174 5.75852 55 52 43
0.019691 0.584793 6.07162 77 70 60
0.0196242 -0.318489 6.04058 216 213 204
0.0190842 -0.00354154 5.65898 209 206 197
0.019872 0.734427 5.82701 104 99 80
0.0195854 0.109057 5.63677 209 209 199
0.0197478 0.0277051 5.65145 169 167 155
0.0197478 0.0277051 5.65145 169 167 155
0.0198332 -0.0523868 5.67559 205 204 199
0.0198332 -0.0523868 5.67559 205 204 199
0.0197878 0.097465 5.63605 211 211 201
0.020374 0.187451 5.63783 205 205 195
0.020451 0.159463 5.63165 211 209 197
0.020451 0.159463 5.63165 211 209 197
0.0211369 0.118064 5.63533 212 210 198
0.0219028 0.128157 5.6336 184 182 170
0.022117 -0.0358007 5.6681 189 187 175
0.0226009 -0.0294125 5.66665 215 212 203
0.0226582 0.101011 5.63548 212 212 202
0.0243082 0.613358 6.02675 88 81 65
0.0230787 0.0519969 5.6485 214 211 202
0.0250552 0.671635 5.94216 57 55 43
0.0240083 -0.0507339 5.67452 205 205 193
0.0245267 0.786959 5.74461 61 60 55
0.0245951 0.105826 5.63485 211 211 201
0.0249386 -0.0144483 5.66118 215 213 201
0.0251116 0.160873 5.63266 212 210 198
0.0265146 0.708924 5.86737 76 73 64
0.0271102 0.155164 5.63205 210 210 200
0.0291835 0.611743 6.03053 85 77 64
0.0297225 -0.302075 6.03942 215 213 201
0.0278738 -0.0426057 5.67071 215 212 203
0.0281615 0.0988005 5.63769 212 209 200
0.0300112 0.0379916 5.64917 211 211 201
0.0323735 0.643044 5.98209 97 85 69
0.0326103 0.671571 5.94381 100 95 76
0.0326103 0.671571 5.94381 100 95 76
0.0328695 0.728039 5.83646 111 104 86
0.0333266 0.72184 5.84507 95 89 73
0.0332754 0.0752798 5.64117 212 209 200
0.0332754 0.0752798 5.64117 212 209 200
0.0353475 0.667024 5.94779 98 93 73
0.0335444 0.139442 5.62906 208 208 198
0.0362619 -0.299405 6.03643 215 213 201
0.034235 0.0849273 5.63937 207 205 193
0.0350009 0.0552932 5.64428 210 210 200
0.0351416 0.12842 5.63233 211 209 197
0.0356541 0.00234288 5.6554 211 211 201
0.0392667 0.649795 5.97598 49 47 34
0.0374219 -0.0392359 5.66586 214 211 202
0.0387744 0.736911 5.83391 116 111 92
0.0376981 0.0887376 5.6376 212 210 198
0.0379639 0.120867 5.63212 143 141 129
0.0380261 0.140123 5.62949 212 212 202
0.0383391 -0.00585154 5.65809 212 212 200
0.039795 0.0526543 5.64452 213 213 203
0.0401626 -0.0427484 5.66656 213 211 199
0.040051 0.165025 5.62939 212 212 202
0.040051 0.165025 5.62939 212 212 202
0.0408877 0.802215 5.70672 69 69 61
0.0413784 0.0788702 5.64049 211 209 197
0.0425816 0.776968 5.75303 54 55 41
0.0445136 0.647306 5.97771 40 36 25
0.0445136 0.647306 5.97771 40 36 25
0.0458622 0.58069 6.07852 91 84 76
0.0428586 0.0940887 5.63522 210 208 196
0.0458485 0.60898 6.03416 68 64 53
0.0438099 0.0425555 5.64704 214 212 200
0.0443644 0.0490728 5.64609 215 213 201
0.0482892 0.549239 6.12225 92 86 74
0.0470042 0.673526 5.94041 99 95 83
0.0470042 0.673526 5.94041 99 95 83
0.0457397 0.00125199 5.65319 219 220 206
0.0485299 0.645368 5.98063 110 107 92
0.0470769 0.0351407 5.64846 215 213 201
0.0499888 0.724682 5.84704 51 46 27
0.0499888 0.724682 5.84704 51 46 27
0.0484384 0.860522 5.59853 184 180 171
0.0490347 -0.00570773 5.65761 178 177 159
0.0491625 0.192179 5.6363 210 210 200
0.0494341 0.0751037 5.63832 210 210 200
0.0495132 0.0638764 5.64225 214 214 204
0.0494809 0.0820394 5.63653 211 209 197
0.0502768 0.126165 5.63215 212 210 198
0.0508827 0.0131667 5.6512 217 214 199
0.0508126 0.130371 5.62935 213 211 199
0.0517932 0.857158 5.60413 93 89 78
0.0534536 -0.00591735 5.65722 141 138 131
0.0534447 0.0220328 5.65479 210 208 196
0.0534656 0.203899 5.63969 208 208 198
0.0533868 0.151583 5.62891 209 209 199
0.0564389 0.667572 5.94708 123 119 108
0.0538057 0.126979 5.62809 211 209 197
0.055735 0.00293813 5.65401 172 169 160
0.0587846 0.673022 5.93764 128 125 110
0.0558294 0.859408 5.60208 149 145 136
0.0592161 -0.0278843 5.65578 215 213 201
0.0593957 0.0671394 5.64274 214 214 204
0.0596373 0.0881953 5.63729 210 208 196
0.0598185 0.0157218 5.65085 209 210 202
0.0598185 0.0157218 5.65085 209 210 202
0.059766 0.0368597 5.64356 216 214 202
0.063439 0.64757 5.97382 131 128 111
0.0602495 0.0478178 5.644 214 212 200
0.0601101 0.857766 5.60288 129 127 114
0.0606482 0.0828809 5.6378 214 211 202
0.0609604 0.0680477 5.63985 217 214 205
0.0615152 0.86071 5.59916 174 172 159
0.0658594 0.668405 5.94665 141 138 123
0.0623585 0.159014 5.62865 211 208 199
0.0628379 0.0192322 5.65278 214 211 202
0.0629592 0.033653 5.64684 215 212 203
0.0629272 0.15427 5.62571 210 207 198
0.0631939 0.163485 5.62791 211 208 199
0.0686988 0.558664 6.1093 147 144 127
0.0673652 0.730503 5.84233 147 141 127
0.0653875 0.848643 5.61697 59 60 46
0.0674006 0.0150878 5.64995 213 210 201
0.0674006 0.0150878 5.64995 213 210 201
0.0674226 0.0630416 5.64032 213 210 201
0.0675097 0.084963 5.63911 211 208 199
0.0675097 0.084963 5.63911 211 208 199
0.0686568 0.185304 5.63302 203 200 191
0.0686568 0.185304 5.63302 203 200 191
0.0697454 0.182018 5.6282 208 205 196
0.0705587 0.164324 5.63 209 206 197
0.0710596 0.158235 5.62654 206 203 194
0.0752111 0.743619 5.83358 162 157 137
0.0730206 0.84998 5.61674 21 18 13
0.073378 0.0923741 5.63406 215 212 203
0.0790399 0.661371 5.9591 67 64 59
0.0777346 0.736165 5.83114 169 165 138
0.0777346 0.736165 5.83114 169 165 138
0.0756317 0.079253 5.63848 213 210 201
0.0816577 0.595295 6.05978 170 170 158
0.0812932 0.672608 5.93988 138 136 121
0.0785826 0.117798 5.6277 212 209 200
0.0835449 0.647866 5.97447 153 153 143
0.0792005 0.0401034 5.64565 212 210 198
0.0790452 0.184899 5.63332 209 209 197
0.0803465 0.166509 5.62818 209 209 199
0.0885478 0.516917 6.1753 197 197 185
0.0885478 0.516917 6.1753 197 197 185
0.0838471 0.731343 5.8449 151 148 133
0.0813491 0.137017 5.63536 213 210 201
0.086087 0.67217 5.94079 113 113 105
0.0831018 0.0954453 5.63132 164 161 152
0.0882167 0.676935 5.93399 164 164 154
0.0924019 0.517127 6.17321 199 199 187
0.0893527 0.679978 5.92986 171 171 159
0.0850812 0.161736 5.62895 211 211 201
0.0969013 0.509781 6.19104 200 200 188
0.0945278 0.64704 5.97715 178 177 159
0.0900465 0.132844 5.63024 213 210 201
0.0979252 0.64607 5.97999 180 177 162
0.0931654 0.158793 5.62928 209 209 199
0.0931654 0.158793 5.62928 209 209 199
0.100823 0.599455 6.05869 191 189 174
0.095966 -0.0185777 5.67527 214 211 202
0.105437 0.52145 6.16893 199 196 189
0.0963791 0.171307 5.63258 207 207 197
0.0979673 0.1527 5.63083 209 209 199
0.107774 0.529348 6.1655 201 202 194
0.10824 0.565268 6.10827 194 194 182
0.107689 0.619381 6.02381 189 188 170
0.110992 0.506561 6.19579 202 202 194
0.110992 0.506561 6.19579 202 202 194
0.10107 0.168171 5.63462 208 208 198
0.101107 0.163868 5.63389 209 209 199
0.10184 0.151789 5.63176 208 208 198
0.110614 0.569985 6.10236 197 197 185
0.112389 0.563752 6.11323 197 197 185
0.112445 0.594666 6.06277 200 198 186
0.115512 0.624009 6.02133 197 195 182
0.108092 0.172123 5.63334 209 209 199
0.110477 0.0622922 5.64202 213 213 203
0.119914 0.655874 5.96488 194 195 179
0.124527 0.532464 6.16115 202 204 193
0.124527 0.532464 6.16115 202 204 193
0.118187 0.807929 5.68567 178 176 163
0.128863 0.523305 6.1702 205 207 196
0.120959 0.759928 5.77754 187 187 175
0.122245 0.75248 5.79146 190 190 178
0.122245 0.75248 5.79146 190 190 178
0.119796 0.0820121 5.63526 207 205 193
0.123387 0.79258 5.70337 180 178 165
0.129768 0.648202 5.97939 77 73 48
0.131809 0.652277 5.97218 149 146 127
0.124615 0.0953614 5.62954 212 210 198
0.124707 0.166637 5.63385 210 207 198
0.137217 0.527097 6.16578 209 206 197
0.128143 0.218335 5.65889 215 213 201
0.140485 0.535311 6.15811 209 207 195
0.142022 0.524598 6.16946 209 206 197
0.139834 0.603181 6.05508 197 200 189
0.13136 0.157401 5.62701 211 208 199
0.144612 0.570143 6.10519 209 204 198
0.146283 0.523656 6.17089 171 169 157
0.144481 0.601214 6.06301 204 204 194
0.13736 0.16503 5.62789 209 206 197
0.139335 0.792168 5.7021 198 198 186
0.140521 0.13504 5.62738 213 210 201
0.146241 0.750906 5.78806 195 195 187
0.145377 0.178849 5.62734 211 209 197
0.146417 0.198193 5.62992 216 213 204
0.150954 0.758134 5.78096 208 204 192
0.147554 0.201501 5.63036 214 211 202
0.147693 0.206074 5.63183 215 212 203
0.147775 0.18159 5.62757 209 207 195
0.160109 0.579755 6.09247 211 212 207
0.148981 0.159899 5.62807 208 208 198
0.153353 0.761758 5.77109 210 208 196
0.16116 0.605907 6.05456 205 201 192
0.16116 0.605907 6.05456 205 201 192
0.160266 0.656883 5.96445 187 184 165
0.164031 0.633264 6.00779 82 75 57
0.164214 0.646002 5.98006 201 198 183
0.164214 0.646002 5.98006 201 198 183
0.167636 0.599138 6.06489 204 205 197
0.16497 0.66211 5.95937 195 192 175
0.156137 0.233789 5.63296 214 212 200
0.1564 0.203346 5.6313 214 211 202
0.156836 0.174885 5.62915 210 208 196
0.167863 0.630848 6.01086 144 140 131
0.158308 0.17074 5.63227 208 206 194
0.166506 0.68491 5.92181 208 205 196
0.16702 0.681164 5.9294 210 207 198
0.158713 0.204842 5.62644 214 211 202
0.160568 0.223255 5.62869 216 213 204
0.164838 0.776684 5.73697 213 213 201
0.171241 0.684344 5.92481 207 204 195
0.162833 0.218135 5.62623 216 213 204
0.165803 0.251391 5.63271 214 212 200
0.175368 0.688809 5.91973 211 208 199
0.166922 0.229525 5.63138 212 212 202
0.168082 0.213274 5.63005 216 213 204
0.17701 0.683995 5.92602 209 206 197
0.169173 0.285937 5.64842 213 211 199
0.169173 0.285937 5.64842 213 211 199
0.171909 0.300423 5.65252 212 210 198
0.174349 0.365068 5.68299 210 207 198
0.174986 0.398768 5.69334 209 209 199
0.177789 0.415907 5.69884 211 208 199
0.188604 0.493843 5.87512 214 213 209
0.192434 0.684227 5.92429 209 207 194
0.1872 0.782476 5.72429 211 212 198
0.187866 0.78671 5.72262 210 208 195
0.201914 0.687419 5.92312 145 145 133
0.19536 0.418068 5.69937 213 210 201
0.207728 0.689105 5.91947 210 207 202
0.214226 0.636396 5.90014 210 208 195
0.209877 0.449538 5.7014 208 205 196
0.217306 0.63808 5.90016 135 133 120
0.210915 0.810799 5.66918 209 209 197
0.210915 0.810799 5.66918 209 209 197
0.213185 0.808236 5.67088 209 210 196
0.222155 0.648816 5.89545 188 186 174
0.225665 0.695074 5.9105 144 140 131
0.227588 0.645009 5.8938 206 203 194
0.227588 0.645009 5.8938 206 203 194
0.228959 0.696001 5.90943 75 71 68
0.228959 0.696001 5.90943 75 71 68
0.228959 0.696001 5.90943 75 71 68
0.223273 0.780159 5.72577 168 165 156
0.230523 0.700466 5.9044 209 209 209
0.223084 0.797793 5.6917 206 200 186
0.233428 0.695438 5.91041 206 207 199
0.226149 0.478901 5.70496 214 211 202
0.234962 0.402964 5.84721 211 209 197
0.234962 0.402964 5.84721 211 209 197
0.235883 0.77521 5.7454 208 206 193
0.237718 0.797473 5.68298 206 206 196
0.241754 0.786432 5.71376 205 205 195
0.239985 0.816087 5.65955 205 205 195
0.249365 0.774477 5.74145 204 204 194
0.249365 0.774477 5.74145 204 204 194
0.319602 -0.159009 7.29323 143 139 128
0.265208 0.776643 5.72654 213 213 203
0.264875 0.813144 5.6606 214 211 202
0.26742 0.791835 5.70223 213 210 201
0.270621 0.812799 5.66484 215 212 203
0.289467 0.686837 5.93106 207 208 200
0.279184 0.792527 5.70005 215 212 205
0.280267 0.786448 5.71021 215 212 205
0.279927 0.801234 5.67493 214 211 202
0.279927 0.801234 5.67493 214 211 202
0.390531 -0.394792 7.69122 194 194 194
0.391441 -0.374016 7.65167 215 212 205
0.391441 -0.374016 7.65167 215 212 205
0.379773 -0.155568 7.28298 214 212 199
0.299767 0.81316 5.66366 215 212 203
0.305559 0.786022 5.71149 211 211 199
0.394033 -0.170689 7.29909 215 212 203
0.327248 0.648699 5.98427 183 182 177
0.309773 0.816327 5.65861 214 211 206
0.333097 0.627134 6.02793 213 213 205
0.333097 0.627134 6.02793 213 213 205
0.40455 -0.154944 7.27477 217 214 205
0.341076 0.621905 6.03248 211 206 210
0.433923 -0.359647 7.6339 216 213 204
0.347514 0.620299 6.03385 208 203 173
0.332715 0.762837 5.75224 210 207 200
0.357004 0.555864 6.1403 210 211 206
0.348027 0.652927 5.97953 223 217 201
0.369669 0.413472 6.33611 219 210 205
0.361369 0.546746 6.16289 208 210 205
0.338715 0.781258 5.72222 216 216 208
0.371338 0.521849 6.20054 214 212 197
0.370087 0.55214 6.14016 211 208 199
0.366321 0.641985 6.01916 203 200 195
0.366321 0.641985 6.01916 203 200 195
0.375059 0.557803 6.13919 210 207 198
0.376989 0.544033 6.16584 212 209 200
0.346854 0.826816 5.64432 213 211 199
0.35295 0.771805 5.73579 196 189 170
0.381486 0.544857 6.1606 205 202 193
0.349951 0.820632 5.64731 213 210 203
0.392488 0.421863 6.32233 212 208 197
0.392488 0.421863 6.32233 212 208 197
0.4603 -0.236963 7.40152 216 213 204
0.479645 -0.368304 7.65674 215 212 203
0.379732 0.599025 6.06224 210 208 196
0.373152 0.665333 5.95492 212 209 200
0.373152 0.665333 5.95492 212 209 200
0.464154 -0.230613 7.39715 216 213 204
0.390083 0.529206 6.19258 209 209 199
0.470849 -0.277055 7.47362 215 212 203
0.467286 -0.242714 7.40601 215 212 203
0.384853 0.583754 6.07207 211 208 199
0.410123 0.351107 6.4697 216 213 204
0.379618 0.639765 5.98179 209 206 197
0.401091 0.42948 6.3194 211 208 201
0.470237 -0.235788 7.39995 217 214 205
0.36278 0.793919 5.69509 88 81 65
0.395515 0.540933 6.17214 0 0 0
0.388596 0.595797 6.06125 0 0 0
0.365022 0.795035 5.69091 0 0 0
0.365022 0.795035 5.69091 0 0 0
0.389491 0.628344 6.01818 0 0 0
0.397375 0.561072 6.13286 0 0 0
0.411436 0.44725 6.29899 0 0 0
0.50195 -0.362116 7.64824 0 0 0
0.505045 -0.377549 7.67548 0 0 0
0.407056 0.53482 6.18643 0 0 0
0.393136 0.666993 5.96241 0 0 0
0.417947 0.41199 6.32854 0 0 0
0.372888 0.824799 5.64545 0 0 0
0.397968 0.627516 6.01699 0 0 0
0.490524 -0.233154 7.3992 0 0 0
0.490524 -0.233154 7.3992 0 0 0
0.429182 0.369996 6.43317 0 0 0
0.408759 0.571643 6.12404 0 0 0
0.404491 0.627717 6.01588 0 0 0
0.513969 -0.358505 7.63455 0 0 0
0.498917 -0.233123 7.40032 0 0 0
0.433724 0.369965 6.43287 0 0 0
0.498319 -0.225461 7.39029 0 0 0
0.400738 0.683072 5.92038 0 0 0
0.408028 0.628855 6.01448 0 0 0
0.427517 0.442527 6.29936 0 0 0
0.427517 0.442527 6.29936 0 0 0
0.411288 0.603531 6.05397 0 0 0
0.383691 0.829869 5.63934 0 0 0
0.437421 0.372112 6.42906 0 0 0
0.439192 0.367674 6.43604 0 0 0
0.475803 0.0522209 6.97033 0 0 0
0.431221 0.430432 6.31101 0 0 0
0.505459 -0.224214 7.39066 0 0 0
0.387217 0.821778 5.64826 0 0 0
0.433792 0.419992 6.31778 0 0 0
0.529625 -0.3596 7.65633 0 0 0
0.473396 0.139939 6.84081 0 0 0
0.480141 0.0734026 6.93305 0 0 0
0.420086 0.588672 6.06491 0 0 0
0.482415 0.0934582 6.91018 0 0 0
0.396981 0.831466 5.6348 0 0 0
0.396981 0.831466 5.6348 0 0 0
0.425427 0.645511 6.00217 0 0 0
0.426938 0.631366 6.01043 0 0 0
0.465787 0.318382 6.5338 0 0 0
0.494147 0.0780781 6.92805 0 0 0
0.490754 0.119385 6.87379 0 0 0
0.492391 0.102606 6.89642 0 0 0
0.452443 0.430522 6.30722 0 0 0
0.475111 0.294262 6.57933 0 0 0
0.476467 0.282194 6.59799 0 0 0
0.485268 0.212874 6.71131 0 0 0
0.485268 0.212874 6.71131 0 0 0
0.455263 0.44952 6.28767 0 0 0
0.457812 0.439376 6.29576 0 0 0
0.440965 0.600694 6.06072 0 0 0
0.493809 0.195737 6.74065 0 0 0
0.504026 0.134474 6.84309 0 0 0
0.504654 0.146197 6.82402 0 0 0
0.455631 0.545625 6.16084 0 0 0
0.536711 -0.144189 7.252 0 0 0
0.449154 0.591863 6.06003 0 0 0
0.458083 0.52293 6.17893 0 0 0
0.443208 0.644088 5.97812 0 0 0
0.508666 0.125123 6.85725 0 0 0
0.477941 0.37205 6.42567 0 0 0
0.483359 0.366265 6.44669 0 0 0
0.483193 0.369941 6.42533 0 0 0
0.556273 -0.223845 7.39118 0 0 0
0.556273 -0.223845 7.39118 0 0 0
0.462243 0.564268 6.13123 0 0 0
0.425879 0.828051 5.64018 0 0 0
0.485854 0.373611 6.4189 0 0 0
0.427377 0.823849 5.64542 0 0 0
0.527929 0.046923 6.96819 0 0 0
0.538969 -0.0423087 7.09333 0 0 0
0.470136 0.538296 6.17877 0 0 0
0.429525 0.82809 5.63939 0 0 0
0.429525 0.82809 5.63939 0 0 0
0.525066 0.106199 6.88005 0 0 0
0.524845 0.114784 6.86566 0 0 0
0.468093 0.579527 6.11596 0 0 0
0.486999 0.414256 6.31837 0 0 0
0.47505 0.552914 6.15738 0 0 0
0.532577 0.0883047 6.90254 0 0 0
0.534546 0.0801254 6.9173 0 0 0
0.476054 0.570814 6.12301 0 0 0
0.491839 0.431491 6.29976 0 0 0
0.472419 0.607015 6.04865 0 0 0
0.466713 0.664633 5.95645 0 0 0
0.544261 0.0506145 6.94498 0 0 0
0.475586 0.622559 6.04292 0 0 0
0.542122 0.0927645 6.88772 0 0 0
0.549488 0.0879676 6.91426 0 0 0
0.545206 0.118224 6.85957 0 0 0
0.546576 0.129838 6.85161 0 0 0
0.546576 0.129838 6.85161 0 0 0
0.544581 0.144792 6.82606 0 0 0
0.558413 0.0362875 6.98493 0 0 0
0.547346 0.136875 6.8379 0 0 0
0.506011 0.415198 6.30819 0 0 0
0.553896 0.109533 6.86967 0 0 0
0.454925 0.827229 5.63794 0 0 0
0.497153 0.552927 6.15497 0 0 0
0.499893 0.557496 6.14923 0 0 0
0.511533 0.431331 6.28968 0 0 0
0.511994 0.431871 6.29045 0 0 0
0.50202 0.54975 6.15857 0 0 0
0.504547 0.535466 6.17661 0 0 0
0.575019 0.00850358 7.01849 0 0 0
0.497212 0.599531 6.05167 0 0 0
0.509311 0.543107 6.1689 0 0 0
0.578009 0.0284024 6.99158 0 0 0
0.567081 0.121056 6.85328 0 0 0
0.573036 0.0844909 6.91246 0 0 0
0.510018 0.557801 6.14686 0 0 0
0.572908 0.0898014 6.89998 0 0 0
0.51075 0.567832 6.13379 0 0 0
0.512993 0.550365 6.15776 0 0 0
0.512993 0.550365 6.15776 0 0 0
0.577349 0.0761844 6.92541 0 0 0
0.579866 0.0552919 6.95063 0 0 0
0.579866 0.0552919 6.95063 0 0 0
0.493343 0.686608 5.91307 0 0 0
0.512741 0.561188 6.14441 0 0 0
0.570902 0.135765 6.83699 0 0 0
0.572887 0.119906 6.85506 0 0 0
0.514935 0.554222 6.15148 0 0 0
0.516653 0.546808 6.15958 0 0 0
0.571858 0.151059 6.81571 0 0 0
0.585086 0.0492262 6.95626 0 0 0
0.585086 0.0492262 6.95626 0 0 0
0.51925 0.539787 6.16945 0 0 0
0.519082 0.550789 6.15815 0 0 0
0.520835 0.543729 6.16452 0 0 0
0.592639 0.0367212 6.97947 0 0 0
0.523792 0.552242 6.15343 0 0 0
0.595983 0.0257163 6.99245 0 0 0
0.595983 0.0257163 6.99245 0 0 0
0.524803 0.550883 6.15537 0 0 0
0.526064 0.544367 6.16168 0 0 0
0.599404 0.0313048 6.98669 0 0 0
0.527356 0.557751 6.14589 0 0 0
0.527884 0.56296 6.13866 0 0 0
0.516946 0.624465 6.01113 0 0 0
0.592064 0.0998592 6.88214 0 0 0
0.592064 0.0998592 6.88214 0 0 0
0.531512 0.541336 6.16527 0 0 0
0.591891 0.117569 6.86177 0 0 0
0.529539 0.569254 6.13332 0 0 0
0.597951 0.0758146 6.92211 0 0 0
0.594163 0.108305 6.87001 0 0 0
0.545832 0.416192 6.30079 0 0 0
0.487476 0.838017 5.61947 0 0 0
0.533591 0.554454 6.14986 0 0 0
0.609339 0.020491 7.00186 0 0 0
0.531737 0.58529 6.10795 0 0 0
0.514242 0.688576 5.90173 0 0 0
0.571446 0.315645 6.53544 0 0 0
0.600164 0.117455 6.8616 0 0 0
0.538822 0.555913 6.147 0 0 0
0.540653 0.541923 6.16449 0 0 0
0.540653 0.541923 6.16449 0 0 0
0.551441 0.434173 6.28524 0 0 0
0.551441 0.434173 6.28524 0 0 0
0.571807 0.326287 6.51304 0 0 0
0.542011 0.562557 6.13986 0 0 0
0.543911 0.557859 6.14399 0 0 0
0.541698 0.580137 6.11009 0 0 0
0.614272 0.0692344 6.92958 0 0 0
0.614272 0.0692344 6.92958 0 0 0
0.616147 0.0588261 6.94414 0 0 0
0.535094 0.627904 6.01717 0 0 0
0.607976 0.139252 6.83343 0 0 0
0.542389 0.604672 6.05236 0 0 0
0.615596 0.109689 6.86719 0 0 0
0.6173 0.11767 6.8583 0 0 0
0.688946 -0.33205 7.61489 0 0 0
0.551725 0.58932 6.09819 0 0 0
0.630928 0.054364 6.94836 0 0 0
0.692323 -0.343129 7.62048 0 0 0
0.538786 0.679313 5.9182 0 0 0
0.629132 0.0820269 6.90871 0 0 0
0.629132 0.0820269 6.90871 0 0 0
0.69537 -0.323813 7.60371 0 0 0
0.69537 -0.323813 7.60371 0 0 0
0.703295 -0.341839 7.62113 0 0 0
0.630882 0.136297 6.83378 0 0 0
0.581004 0.43899 6.27958 0 0 0
0.710241 -0.366695 7.65612 0 0 0
0.639848 0.0904393 6.89575 0 0 0
0.639848 0.0904393 6.89575 0 0 0
0.684202 -0.197709 7.37083 0 0 0
0.615807 0.264746 6.63089 0 0 0
0.585292 0.417162 6.29636 0 0 0
0.708048 -0.326957 7.6097 0 0 0
0.638234 0.140319 6.82616 0 0 0
0.638234 0.140319 6.82616 0 0 0
0.573215 0.568179 6.12731 0 0 0
0.575187 0.558245 6.14366 0 0 0
0.648168 0.0778752 6.91939 0 0 0
0.621324 0.264805 6.63269 0 0 0
0.621324 0.264805 6.63269 0 0 0
0.569236 0.606247 6.04457 0 0 0
0.648263 0.101327 6.88334 0 0 0
0.718376 -0.328755 7.61125 0 0 0
0.644854 0.144956 6.81701 0 0 0
0.723488 -0.337664 7.63111 0 0 0
0.584085 0.550772 6.15129 0 0 0
0.745102 -0.464541 7.84514 0 0 0
0.660504 0.0507555 6.95207 0 0 0
0.649636 0.150656 6.81003 0 0 0
0.65098 0.154601 6.807 0 0 0
0.635282 0.261739 6.63574 0 0 0
0.658668 0.101706 6.87434 0 0 0
0.58734 0.565606 6.12835 0 0 0
0.591861 0.554885 6.15081 0 0 0
0.664205 0.117379 6.84794 0 0 0
0.660409 0.152799 6.806 0 0 0
0.664646 0.12319 6.84574 0 0 0
0.661204 0.157696 6.79869 0 0 0
0.612405 0.421666 6.29134 0 0 0
0.662764 0.165224 6.78805 0 0 0
0.664649 0.151496 6.80536 0 0 0
0.674713 0.0920741 6.88906 0 0 0
0.685412 0.0308419 6.9762 0 0 0
0.599769 0.591396 6.09277 0 0 0
0.605574 0.558403 6.13797 0 0 0
0.620651 0.421656 6.28926 0 0 0
0.679246 0.0992597 6.88134 0 0 0
0.672838 0.161227 6.79334 0 0 0
0.656432 0.275473 6.6163 0 0 0
0.682514 0.130353 6.86108 0 0 0
0.685608 0.0954508 6.88118 0 0 0
0.679696 0.163345 6.78859 0 0 0
0.697403 0.0650702 6.9261 0 0 0
0.685134 0.154812 6.79746 0 0 0
0.669291 0.270749 6.61797 0 0 0
0.701002 0.0828963 6.90351 0 0 0
0.701002 0.0828963 6.90351 0 0 0
0.698111 0.119334 6.84054 0 0 0
0.609641 0.64798 5.97069 0 0 0
0.707128 0.0874756 6.89194 0 0 0
0.646816 0.429825 6.28073 0 0 0
0.646816 0.429825 6.28073 0 0 0
0.697071 0.175784 6.76664 0 0 0
0.697071 0.175784 6.76664 0 0 0
0.647987 0.422687 6.28613 0 0 0
0.587865 0.796587 5.69527 0 0 0
0.587865 0.796587 5.69527 0 0 0
0.608741 0.687979 5.89538 0 0 0
0.701821 0.174314 6.76593 0 0 0
0.701821 0.174314 6.76593 0 0 0
0.701821 0.174314 6.76593 0 0 0
0.617395 0.659679 5.94127 0 0 0
0.705846 0.163907 6.78106 0 0 0
0.719037 0.0924107 6.8799 0 0 0
0.624339 0.668745 5.92916 0 0 0
0.599837 0.796673 5.6883 0 0 0
0.719923 0.136413 6.81944 0 0 0
0.719923 0.136413 6.81944 0 0 0
0.721495 0.129514 6.82976 0 0 0
0.724698 0.122271 6.83842 0 0 0
0.64706 0.570011 6.10479 0 0 0
0.66484 0.437165 6.27188 0 0 0
0.664584 0.447128 6.26423 0 0 0
0.664584 0.447128 6.26423 0 0 0
0.806835 -0.316077 7.59923 0 0 0
0.729895 0.111428 6.85858 0 0 0
0.721819 0.172119 6.76931 0 0 0
0.73815 0.0974781 6.88486 0 0 0
0.660042 0.544566 6.14923 0 0 0
0.731573 0.151924 6.79277 0 0 0
0.634534 0.693626 5.87972 0 0 0
0.636806 0.69012 5.88411 0 0 0
0.733609 0.164961 6.77864 0 0 0
0.743361 0.105793 6.86286 0 0 0
0.64037 0.680362 5.91002 0 0 0
0.64037 0.680362 5.91002 0 0 0
0.734426 0.171848 6.76984 0 0 0
0.648517 0.629838 5.97781 0 0 0
0.747834 0.0940208 6.87377 0 0 0
0.736345 0.181848 6.75621 0 0 0
0.738149 0.164645 6.76978 0 0 0
0.64396 0.694029 5.87838 0 0 0
0.832936 -0.321683 7.60255 0 0 0
0.832936 -0.321683 7.60255 0 0 0
0.749479 0.133967 6.81903 0 0 0
0.75665 0.0965394 6.87488 0 0 0
0.755322 0.113539 6.84647 0 0 0
0.751116 0.157946 6.77175 0 0 0
0.751003 0.170731 6.76417 0 0 0
0.759708 0.119988 6.8382 0 0 0
0.749956 0.187101 6.73692 0 0 0
0.758736 0.148154 6.7943 0 0 0
0.657992 0.691156 5.88183 0 0 0
0.754334 0.195316 6.72992 0 0 0
0.765045 0.139258 6.80932 0 0 0
0.773918 0.0981799 6.86538 0 0 0
0.765227 0.161858 6.77717 0 0 0
0.68037 0.608586 6.02205 0 0 0
0.68037 0.608586 6.02205 0 0 0
0.692664 0.564939 6.09958 0 0 0
0.667585 0.693429 5.87429 0 0 0
0.667585 0.693429 5.87429 0 0 0
0.788722 0.0640937 6.93148 0 0 0
0.770226 0.17375 6.7523 0 0 0
0.683435 0.633277 5.98438 0 0 0
0.712578 0.477351 6.23253 0 0 0
0.680667 0.66915 5.91848 0 0 0
0.784002 0.151709 6.79193 0 0 0
0.781978 0.18933 6.73147 0 0 0
0.781978 0.18933 6.73147 0 0 0
0.784988 0.178074 6.74111 0 0 0
0.663854 0.791913 5.69576 0 0 0
1.01534 -0.378654 8.60042 0 0 0
0.901013 -0.334899 7.62982 0 0 0
0.811763 0.105484 6.86636 0 0 0
0.804566 0.16094 6.77361 0 0 0
0.727761 0.569731 6.08884 0 0 0
0.912016 -0.328545 7.62637 0 0 0
0.843528 0.0209539 7.01071 0 0 0
0.735977 0.551667 6.11569 0 0 0
0.753901 0.433426 6.26261 0 0 0
