ply
format ascii 1.0 
element vertex 1320
property float32 x 
property float32 y 
property float32 z
property uchar red  
property uchar green
property uchar blue
element face 0
property list uchar int vertex_indices
end_header
-0.800796 0.469789 6.47043 27 26 21
-0.877621 0.0936044 7.14892 201 201 191
-0.864784 0.149649 7.07592 80 81 65
-0.796266 0.430523 6.54148 109 112 91
-0.796266 0.430523 6.54148 109 112 91
-0.821318 0.295444 6.79207 109 109 83
-0.774392 0.487765 6.4452 24 23 18
-0.774392 0.487765 6.4452 24 23 18
-0.872522 -0.00816159 7.30448 209 207 195
-0.800612 0.295426 6.79018 100 104 81
-0.753498 0.516873 6.39677 24 23 18
-0.79734 0.290399 6.79991 106 110 85
-0.844256 0.0548015 7.21438 201 201 189
-0.852369 -0.0156789 7.31435 210 210 200
-0.998787 -0.656905 8.5704 183 182 177
-0.818488 0.173175 7.05404 130 126 101
-0.774983 0.33251 6.72325 145 149 116
-0.845517 -0.032956 7.34314 209 209 199
-0.778304 0.299696 6.77921 95 98 71
-0.778724 0.29045 6.80027 95 98 69
-0.807772 0.166743 7.06145 83 78 58
-0.726593 0.521952 6.3905 28 29 23
-0.771642 0.294909 6.79062 112 112 74
-0.817192 0.0704612 7.19283 199 199 189
-0.768937 0.301392 6.77707 121 122 78
-0.789721 0.191368 7.02914 133 133 107
-0.819287 -0.0150981 7.31982 209 209 201
-0.760214 0.296346 6.79318 68 72 39
-0.684222 0.675724 6.1306 213 213 201
-0.673041 0.715851 6.05826 216 214 202
-0.805397 -0.0166905 7.33499 205 205 193
-0.782951 0.0540372 7.22298 216 213 204
-0.736728 0.290318 6.80511 100 101 83
-0.785552 0.00818697 7.29443 210 210 200
-0.728978 0.301085 6.78408 84 87 68
-0.741387 0.226007 6.98266 23 22 17
-0.674186 0.545406 6.3638 137 139 102
-0.690347 0.443231 6.52489 129 131 109
-0.7187 0.292954 6.80196 94 96 75
-0.666704 0.580606 6.31171 119 118 98
-0.666738 0.580917 6.31072 119 118 98
-0.764813 0.0323791 7.29025 203 203 193
-0.74634 0.13812 7.11516 119 117 92
-0.677731 0.472405 6.47487 145 152 121
-0.750267 0.0920415 7.18196 210 210 198
-0.719286 0.227441 6.97615 22 22 14
-0.719286 0.227441 6.97615 22 22 14
-0.68681 0.342781 6.71054 114 116 94
-0.744582 0.0252836 7.28244 211 211 201
-0.73972 0.0369425 7.25967 213 213 203
-0.73806 0.0500197 7.24378 211 211 199
-0.658404 0.448018 6.51492 124 128 105
-0.699404 0.228429 6.96977 31 31 21
-0.641423 0.519891 6.3966 124 127 110
-0.71925 0.0922404 7.19712 214 214 204
-0.602161 0.722396 6.05484 216 213 204
-0.603839 0.688925 6.11718 214 215 201
-0.703711 0.103022 7.17742 214 212 200
-0.727256 -0.124659 7.5187 204 165 90
-0.61104 0.495815 6.44089 134 139 117
-0.656792 0.231044 6.96241 30 30 22
-0.601877 0.439915 6.53199 123 130 112
-0.582506 0.541283 6.37872 196 199 170
-0.570639 0.54972 6.36745 115 119 96
-0.578418 0.444241 6.52601 123 127 92
-0.635303 0.146533 7.17887 106 105 77
-0.551328 0.594732 6.30145 118 122 107
-0.551328 0.594732 6.30145 118 122 107
-0.557301 0.537141 6.3907 165 170 140
-0.547741 0.569124 6.34573 137 141 124
-0.542351 0.596633 6.29604 127 131 108
-0.576203 0.349487 6.71396 117 117 89
-0.551898 0.4947 6.45749 118 119 101
-0.526665 0.572512 6.34082 168 172 147
-0.526649 0.572575 6.34129 168 172 147
-0.539935 0.451471 6.51813 129 130 98
-0.539935 0.451471 6.51813 129 130 98
-0.593601 0.043046 7.29175 77 77 67
-0.59088 0.042953 7.30979 77 77 67
-0.520264 0.470429 6.49441 92 99 66
-0.511542 0.542016 6.39413 142 147 124
-0.511542 0.542016 6.39413 142 147 124
-0.544943 0.238222 6.94365 76 74 49
-0.511715 0.449638 6.52635 87 86 55
-0.505696 0.442915 6.53404 108 109 78
-0.536174 0.245689 6.93452 70 67 50
-0.501217 0.428264 6.56349 117 120 91
-0.501217 0.428264 6.56349 117 120 91
-0.527175 0.215213 6.98171 72 71 50
-0.488619 0.438584 6.54634 92 95 66
-0.482636 0.432185 6.55738 100 100 74
-0.476547 0.466309 6.51151 76 78 54
-0.476547 0.466309 6.51151 76 78 54
-0.471822 0.447532 6.53753 94 95 64
-0.471822 0.447532 6.53753 94 95 64
-0.446801 0.375867 6.6964 69 68 50
-0.452388 0.255801 6.93206 71 67 55
-0.455468 0.220619 6.99027 41 41 29
-0.435048 0.246041 6.97031 84 79 59
-0.433222 0.197119 6.95534 64 62 49
-0.430937 0.264399 6.92336 70 67 50
-0.429947 0.240535 6.96839 59 53 41
-0.420442 0.288883 6.90067 68 67 46
-0.420899 0.239779 6.97344 66 61 42
-0.41347 0.173374 6.95454 98 98 60
-0.407669 0.168942 6.96079 80 81 50
-0.402054 0.284321 6.90614 81 80 59
-0.394465 0.280971 6.90958 87 82 62
-0.359219 -0.177971 6.29731 89 90 84
-0.353738 -0.185216 6.29316 101 101 99
-0.38679 0.246999 6.96941 89 88 60
-0.383961 0.127368 6.94135 103 101 76
-0.383961 0.127368 6.94135 103 101 76
-0.376585 0.109721 6.93441 69 66 59
-0.333637 -0.190366 6.28642 200 200 190
-0.335617 0.324141 6.81199 43 44 28
-0.292721 -0.298632 6.54477 204 204 194
-0.298881 0.24318 6.72531 84 83 63
-0.361401 -0.540457 8.31506 208 206 193
-0.276609 -0.328611 6.55375 193 192 174
-0.274316 -0.272135 6.53304 207 206 188
-0.265312 -0.13208 6.38628 202 202 192
-0.269178 0.19302 6.60616 101 101 77
-0.253585 -0.157691 6.38263 207 204 185
-0.258569 -0.29903 6.52379 109 105 93
-0.252755 -0.150285 6.3778 204 204 192
-0.253145 -0.210716 6.38749 197 195 180
-0.245308 -0.181246 6.37823 207 204 199
-0.245147 -0.199442 6.37928 181 179 167
-0.242309 -0.151792 6.37119 205 205 193
-0.239306 -0.129586 6.36208 204 204 194
-0.236622 -0.140043 6.36455 206 206 196
-0.224099 -0.180686 6.3625 208 208 200
-0.223644 -0.184538 6.36106 206 206 196
-0.223594 -0.24341 6.37988 151 151 139
-0.217518 -0.185462 6.35881 208 209 195
-0.216786 -0.257056 6.38814 203 204 190
-0.213915 -0.234926 6.37416 208 206 193
-0.212277 -0.145915 6.34642 208 209 193
-0.210938 -0.211522 6.36061 210 207 198
-0.210758 -0.211611 6.36315 210 207 198
-0.208517 -0.224169 6.36478 188 186 173
-0.206883 -0.214573 6.35842 192 191 173
-0.204016 -0.211013 6.3582 207 205 192
-0.201359 -0.22195 6.3614 181 181 171
-0.195978 -0.0145135 6.21588 206 206 196
-0.197499 -0.158795 6.3382 171 172 158
-0.195976 -0.213933 6.35698 190 190 178
-0.190036 -0.15468 6.33415 207 207 199
-0.185395 0.0206986 6.18945 201 201 189
-0.191197 -0.264667 6.39404 198 198 190
-0.184981 0.0431237 6.18791 206 206 196
-0.185253 -0.0287454 6.20799 147 148 134
-0.185521 -0.0528653 6.22736 206 204 191
-0.188768 -0.205326 6.35189 158 156 144
-0.188664 -0.218433 6.35675 192 192 180
-0.181078 0.0175516 6.18568 189 189 177
-0.18151 -0.0258648 6.20325 209 210 194
-0.184851 -0.261463 6.38898 160 160 150
-0.178512 0.00459127 6.18485 203 201 186
-0.18221 -0.276186 6.40605 186 186 174
-0.179912 -0.153881 6.32146 202 203 187
-0.174886 0.043374 6.17998 196 196 184
-0.16973 0.0311629 6.17035 173 170 161
-0.167412 0.0162175 6.1721 204 202 189
-0.167412 0.0162175 6.1721 204 202 189
-0.166843 -0.00893101 6.17564 200 200 190
-0.165761 0.0317995 6.16783 185 182 175
-0.165442 -0.0219022 6.18313 201 202 188
-0.16806 -0.188247 6.33605 206 206 196
-0.157083 -0.0918436 6.22933 201 201 189
-0.165591 -0.340189 6.6025 195 192 183
-0.160182 -0.26232 6.38683 210 210 198
-0.155735 -0.115108 6.25455 210 210 198
-0.153343 0.0456128 6.15388 190 190 178
-0.164085 -0.326823 6.59737 201 199 186
-0.156673 -0.25706 6.38302 208 208 196
-0.150825 0.0512462 6.15382 178 178 166
-0.153097 -0.270749 6.39436 202 202 190
-0.148688 -0.0969812 6.22361 176 177 163
-0.147732 -0.0602099 6.19235 212 210 198
-0.157601 -0.328239 6.59691 211 208 199
-0.146588 0.00704411 6.1571 203 201 186
-0.150102 -0.164078 6.30687 204 201 192
-0.146388 0.0485032 6.15061 189 190 176
-0.146505 -0.0102877 6.16334 161 159 147
-0.150875 -0.22219 6.36744 206 206 196
-0.151386 0.54953 6.39024 80 79 59
-0.145876 -0.076491 6.20367 166 166 158
-0.144103 0.0538451 6.14855 195 196 182
-0.149449 -0.25786 6.38351 207 207 195
-0.14145 -0.0123116 6.15809 202 200 188
-0.140876 0.0407451 6.14435 199 197 185
-0.140927 0.0407403 6.14332 199 197 185
-0.149917 -0.338734 6.59834 208 208 198
-0.139534 0.0461776 6.14303 199 197 182
-0.13937 0.0461605 6.14326 199 197 182
-0.139776 -0.0410886 6.17598 208 208 198
-0.144715 -0.267974 6.39323 196 194 182
-0.142688 -0.168157 6.30408 208 208 196
-0.138999 0.0534873 6.14492 200 197 188
-0.148094 -0.341045 6.59027 207 208 194
-0.140308 -0.216703 6.34717 206 206 194
-0.140305 -0.216667 6.34737 206 206 194
-0.144699 -0.34849 6.5952 211 209 197
-0.134432 -0.0234135 6.15791 200 200 190
-0.138563 -0.22198 6.3536 206 204 192
-0.133599 0.0144294 6.14433 179 179 167
-0.133599 0.0144294 6.14433 179 179 167
-0.133603 -0.0932191 6.2084 200 200 188
-0.141017 -0.339446 6.58712 195 196 180
-0.130321 -0.102904 6.21552 206 206 196
-0.132643 -0.213577 6.34181 202 202 190
-0.128226 -0.0143731 6.14994 204 204 194
-0.127698 -0.0459693 6.1666 207 207 197
-0.127654 -0.0460864 6.16715 207 207 197
-0.132517 -0.299884 6.42151 163 165 152
-0.135681 -0.349178 6.587 173 174 166
-0.126172 0.0639706 6.13211 177 177 165
-0.135057 -0.354111 6.58623 190 191 185
-0.13467 -0.354441 6.59027 190 191 185
-0.125178 -0.0181718 6.14899 205 205 195
-0.124802 -0.0123085 6.14451 203 203 193
-0.123846 -0.0321978 6.15573 203 203 193
-0.123202 -0.0226057 6.14926 205 205 195
-0.126841 -0.251993 6.37695 162 162 152
-0.125745 -0.248071 6.37631 205 204 199
-0.12005 0.0690558 6.12688 150 146 134
-0.123431 -0.225564 6.35167 193 194 180
-0.120853 -0.165015 6.27622 208 208 198
-0.117703 -0.0313298 6.14719 207 207 197
-0.117224 0.0482678 6.12286 200 200 190
-0.125184 -0.351867 6.58191 148 146 131
-0.117546 -0.0755291 6.18292 189 186 179
-0.116162 0.698528 6.12681 65 66 50
-0.120518 -0.273822 6.39908 201 204 193
-0.115187 0.694811 6.13311 64 63 45
-0.123404 -0.363711 6.58207 174 173 171
-0.123628 -0.363552 6.57949 174 173 171
-0.122808 -0.35409 6.5783 150 148 133
-0.122808 -0.35409 6.5783 150 148 133
-0.111971 -0.0433748 6.14831 176 176 164
-0.113929 0.594574 6.33267 107 100 82
-0.11376 0.592574 6.33094 106 99 81
-0.111308 -0.112436 6.20881 194 195 181
-0.11089 -0.233196 6.35972 198 198 186
-0.11089 -0.233196 6.35972 198 198 186
-0.109902 0.59318 6.33153 105 98 80
-0.105501 0.0961778 6.11697 211 211 201
-0.102621 0.0822255 6.10838 209 209 199
-0.102545 0.697563 6.12947 68 62 46
-0.10204 0.096476 6.10819 213 213 203
-0.101529 -0.0258468 6.1254 195 195 185
-0.104982 0.584488 6.34036 101 92 75
-0.104961 -0.227521 6.35461 195 197 186
-0.103544 0.597307 6.3309 109 100 83
-0.100657 -0.15138 6.24424 212 210 197
-0.0987201 0.216934 6.13007 196 194 181
-0.0976252 0.103584 6.10499 211 211 201
-0.0977035 0.211549 6.12908 198 196 183
-0.0967938 0.727789 6.07115 72 71 53
-0.0972362 0.0999236 6.10496 208 208 198
-0.097638 -0.111858 6.19442 201 199 184
-0.0987583 -0.171921 6.27338 204 204 194
-0.102031 -0.36638 6.56171 214 214 204
-0.101162 -0.351976 6.56162 212 212 202
-0.0901042 0.702337 6.12223 50 47 38
-0.0874073 0.0114089 6.07087 162 162 152
-0.0845262 0.225759 6.11675 194 194 182
-0.0844789 0.22588 6.1173 194 194 182
-0.0857457 -0.188992 6.28592 212 212 204
-0.079616 0.731951 6.06592 66 65 47
-0.0768449 0.0165865 6.05964 202 198 186
-0.0742824 0.0313563 6.05885 211 212 198
-0.0747981 0.680948 6.15809 93 89 78
-0.0736593 0.212569 6.10505 199 199 187
-0.0743347 0.65078 6.22241 112 107 87
-0.0743347 0.65078 6.22241 112 107 87
-0.0705658 0.10222 6.07353 212 210 198
-0.0734375 0.569885 6.32846 97 93 81
-0.0759726 -0.353339 6.54912 211 212 198
-0.0759996 -0.353315 6.54863 211 212 198
-0.0664722 0.716776 6.09043 93 90 71
-0.0709868 -0.35347 6.53993 212 213 199
-0.0708379 -0.361974 6.53893 194 192 177
-0.0708379 -0.361974 6.53893 194 192 177
-0.0637233 0.399483 6.19014 83 77 61
-0.061499 0.0164672 6.05149 210 210 198
-0.0637334 -0.367233 6.54228 215 213 201
-0.0606535 0.462899 6.23517 68 66 53
-0.0606176 0.462882 6.23563 68 66 53
-0.0568648 0.0232074 6.04888 200 197 178
-0.054883 0.0192235 6.04873 157 156 152
-0.0549204 0.0193384 6.04869 157 156 152
-0.0549639 0.479591 6.24762 79 81 60
-0.052639 0.102785 6.05633 212 212 202
-0.0508234 0.0804726 6.05119 215 213 201
-0.0504794 0.232526 6.09735 199 199 189
-0.0492408 0.065972 6.04767 212 212 202
-0.0478167 0.106442 6.05304 210 210 200
-0.0479429 0.0759883 6.04993 214 214 204
-0.0478102 0.100007 6.0518 212 212 202
-0.047841 0.053527 6.04662 211 211 201
-0.0488021 -0.143388 6.19786 214 215 201
-0.0488021 -0.143388 6.19786 214 215 201
-0.0463825 0.0687572 6.04885 212 212 202
-0.0467126 0.401509 6.18008 93 90 73
-0.0454067 0.0467016 6.04594 211 211 201
-0.0456623 -0.14557 6.19756 206 205 187
-0.0441551 0.183023 6.06626 210 210 200
-0.0430373 0.110906 6.0488 209 209 199
-0.0430373 0.110906 6.0488 209 209 199
-0.0432324 -0.0591384 6.08705 217 215 202
-0.0427677 0.0652825 6.04605 212 212 202
-0.0444956 0.607931 6.31209 98 91 73
-0.0426845 0.68235 6.15656 112 106 92
-0.0417832 0.185724 6.06441 210 210 200
-0.0416495 0.676204 6.17023 59 57 42
-0.0407657 0.123885 6.05017 212 212 202
-0.0396569 0.0964896 6.04643 210 210 200
-0.0400081 0.684636 6.15325 79 73 59
-0.0387519 0.100209 6.04542 213 213 203
-0.0386241 0.0112092 6.04825 148 146 133
-0.0387695 0.013461 6.04618 183 181 169
-0.0382801 0.0911741 6.04219 215 212 203
-0.0382801 0.0911741 6.04219 215 212 203
-0.0380597 0.126475 6.04903 210 210 200
-0.0377259 0.438608 6.19841 70 70 58
-0.0367122 0.0544875 6.04235 213 213 203
-0.0363763 -0.00887494 6.05043 212 212 204
-0.0363763 -0.00887494 6.05043 212 212 204
-0.0359221 0.728819 6.06703 63 63 53
-0.0360809 0.683367 6.15413 108 105 90
-0.0346287 0.784578 5.96604 125 128 97
-0.03528 -0.124048 6.16713 213 213 203
-0.0334878 0.182411 6.05976 211 211 201
-0.0337895 -0.100146 6.13344 157 157 147
-0.0319935 0.0982082 6.04159 211 211 201
-0.0319195 0.0252867 6.04862 221 221 211
-0.0294658 0.788781 5.96082 115 115 89
-0.0297264 0.0428369 6.04108 213 213 203
-0.0293772 0.0664278 6.03707 212 212 202
-0.0301794 0.605296 6.31536 94 89 70
-0.0282792 0.0890358 6.03905 211 211 201
-0.0281088 0.0817249 6.03882 210 210 200
-0.028108 0.236358 6.08122 208 208 196
-0.027547 -0.382738 6.52632 192 190 177
-0.0251528 0.122636 6.04088 215 213 201
-0.024521 0.0766691 6.03744 212 212 202
-0.0237153 -0.099334 6.12666 214 212 200
-0.0239127 -0.1604 6.2008 208 210 197
-0.0230178 -0.0709444 6.0841 216 214 201
-0.0229884 0.409105 6.1752 94 92 77
-0.022514 -0.0240048 6.05893 210 207 200
-0.0198445 0.178644 6.04623 216 216 206
-0.0198121 0.178613 6.04629 216 216 206
-0.0199012 -0.0270132 6.06451 191 188 183
-0.0197534 0.0940982 6.03602 208 208 198
-0.0195204 0.0131387 6.04707 199 201 190
-0.0183509 0.054134 6.04256 217 214 205
-0.0157252 0.0283534 6.04291 201 198 189
-0.0156941 0.0283914 6.04313 201 198 189
-0.0151962 0.0497129 6.03932 210 207 198
-0.0151596 0.00118707 6.0517 217 215 202
-0.0140501 0.0188381 6.04566 214 213 192
-0.0133835 0.123771 6.03414 211 209 197
-0.0126055 -0.136546 6.15906 182 179 162
-0.0119831 0.00550483 6.04862 212 208 197
-0.0120088 -0.0391676 6.06432 209 210 202
-0.0119675 0.0155009 6.04472 190 187 168
-0.0119675 0.0155009 6.04472 190 187 168
-0.0114041 -0.05894 6.07522 186 184 171
-0.0110465 0.730328 6.06424 60 60 48
-0.0105649 -0.0454978 6.06675 171 168 151
-0.0103848 0.142922 6.03507 211 211 201
-0.00866959 0.00322456 6.04888 212 210 198
-0.00864737 0.0657033 6.04085 212 212 202
-0.00823088 0.096127 6.03342 208 208 198
-0.00809681 0.737424 6.05144 65 67 56
-0.00727348 0.0612361 6.03543 212 212 202
-0.00694211 -0.0470176 6.0686 126 122 110
-0.00633922 0.0899481 6.0311 209 209 199
-0.0059934 0.103717 6.03044 209 209 199
-0.00635515 0.584854 6.35182 88 81 63
-0.005745 0.229148 6.05868 208 208 198
-0.00570148 -0.0569596 6.07666 174 171 162
-0.00535473 0.0771565 6.03339 212 212 202
-0.00503435 0.154165 6.03303 211 211 201
-0.00480894 0.066325 6.03585 211 211 201
-0.00405713 0.175037 6.03616 212 212 202
-0.00405713 0.175037 6.03616 212 212 202
-0.00391203 0.582182 6.3552 91 84 68
-0.00391203 0.582182 6.3552 91 84 68
-0.00337231 0.170508 6.03536 212 212 202
-0.00294655 0.0704019 6.03381 211 211 201
-0.00245589 -0.0363248 6.0608 181 182 174
-0.00182508 0.5833 6.35574 90 83 67
-0.00175203 0.57716 6.36577 89 82 64
-0.00144063 0.077166 6.03016 213 213 203
-0.00116505 0.0560677 6.03756 210 210 200
-0.00114852 0.0556408 6.03662 210 210 200
-0.000716715 -0.0234683 6.05811 217 215 203
0.000202285 -0.0551369 6.07259 224 221 212
0.000562984 0.191773 6.04029 211 211 201
9.33402e-05 0.118037 6.02916 207 205 193
0.00068924 0.152488 6.03264 210 210 200
0.00110157 -0.032658 6.06182 209 207 194
0.00142158 0.791073 5.95365 111 107 78
0.00179341 0.075112 6.03104 212 212 202
0.00208815 0.160834 6.03234 210 210 200
0.00209037 0.0610905 6.03509 210 210 200
0.00271502 0.0668378 6.03461 210 210 200
0.00342634 -0.00440291 6.05188 205 202 193
0.00355 -0.122496 6.12939 214 214 204
0.00356744 -0.122486 6.12966 214 214 204
0.00409543 0.0303407 6.04009 212 209 200
0.00446275 0.0505818 6.03658 209 209 199
0.0042438 0.0506266 6.03629 209 209 199
0.0045184 0.154393 6.03118 208 208 198
0.00535696 0.104825 6.02835 208 208 198
0.00610856 0.195031 6.04059 211 211 201
0.00806787 0.609071 6.31166 55 51 40
0.00822876 0.0612103 6.03298 212 212 200
0.00838134 0.0612435 6.03333 212 212 200
0.00877115 -0.00969442 6.05382 207 205 192
0.0092215 0.135707 6.02946 205 205 195
0.0103546 0.110572 6.02828 185 183 171
0.0108622 -0.0876758 6.0925 219 217 205
0.0116458 0.0962789 6.02779 215 213 201
0.0120476 0.0248291 6.04185 210 210 200
0.0129551 -0.362642 6.49608 223 220 211
0.0121156 0.724009 6.05627 93 94 80
0.0143886 0.78588 5.96269 87 90 63
0.0144258 0.0668992 6.03235 209 209 197
0.015431 0.125137 6.02658 205 205 195
0.015431 0.125137 6.02658 205 205 195
0.015549 -0.0502977 6.06869 218 214 202
0.0161831 -0.13046 6.12471 216 214 202
0.016146 0.0159981 6.04341 217 215 203
0.0167521 -0.0103697 6.05532 217 215 202
0.0168933 0.0532976 6.03437 211 208 199
0.0172023 0.0917941 6.03258 210 210 198
0.0168754 0.0916496 6.02893 210 210 198
0.0185589 0.615126 6.30691 95 87 74
0.0181669 -0.111844 6.10877 217 215 202
0.0182485 -0.0183111 6.05706 176 174 162
0.0206068 -0.0202417 6.05598 213 210 201
0.0245924 0.613705 6.30619 97 90 74
0.0236886 0.0553685 6.03268 212 209 200
0.0236502 0.0916122 6.02483 210 210 198
0.0240833 -0.0514033 6.06754 170 166 154
0.0244332 0.172468 6.02805 209 209 199
0.024815 -0.0777547 6.08192 219 215 214
0.0248937 -0.00546935 6.05069 198 194 191
0.0261913 0.129947 6.02296 205 203 191
0.0273226 -0.0687222 6.07771 219 219 209
0.027361 0.0250201 6.04095 211 211 201
0.0283537 -0.0823734 6.08328 210 206 197
0.0296079 0.664932 6.20486 104 99 79
0.0296079 0.664932 6.20486 104 99 79
0.0303448 0.0585345 6.03163 211 208 199
0.0301934 0.00768318 6.04472 215 212 203
0.0307024 0.0661147 6.03376 209 209 199
0.0315039 -0.0763615 6.08077 223 221 209
0.0317682 0.0796783 6.02592 212 210 198
0.0326575 -0.0864016 6.08523 210 207 198
0.0349255 -0.361229 6.49457 216 213 204
0.0349239 -0.350686 6.48875 215 212 203
0.0328883 -0.0991206 6.09305 195 192 183
0.0326876 0.053181 6.03664 209 206 197
0.0340192 -0.0019179 6.04805 209 206 197
0.0346556 0.00383631 6.04786 217 214 205
0.0345537 0.159714 6.02668 208 208 198
0.0346055 0.159664 6.02613 208 208 198
0.0349196 0.098713 6.02416 204 202 190
0.0348303 0.0991735 6.02449 204 202 190
0.0353702 0.715189 6.10062 55 52 43
0.0386716 0.532646 6.44092 77 70 60
0.0390084 -0.351608 6.48858 216 213 204
0.0371799 -0.0384046 6.06118 209 206 197
0.0380997 0.679175 6.17463 104 99 80
0.0375907 0.0724024 6.02856 209 209 199
0.037689 -0.00764997 6.04946 169 167 155
0.037689 -0.00764997 6.04946 169 167 155
0.0380531 -0.0866153 6.08266 205 204 199
0.0380531 -0.0866153 6.08266 205 204 199
0.0378108 0.0610288 6.02876 211 211 201
0.0384788 0.149341 6.02435 205 205 195
0.0384709 0.121868 6.01902 211 209 197
0.0392481 0.0811877 6.02605 212 210 198
0.0400529 0.0911221 6.02371 184 182 170
0.0404613 -0.070227 6.07339 189 187 175
0.0408657 -0.0638016 6.07022 215 212 203
0.0409801 0.0645284 6.02915 212 212 202
0.0434106 0.560624 6.39189 88 81 65
0.0411373 0.0164972 6.04433 214 211 202
0.0441323 0.617614 6.29987 57 55 43
0.0425079 -0.0849796 6.08135 205 205 193
0.0430515 0.730412 6.08766 61 60 55
0.0430413 0.0693598 6.0285 211 211 201
0.0434412 -0.0491556 6.06433 215 213 201
0.0434804 0.123257 6.02046 212 210 198
0.0452413 0.654229 6.21853 76 73 64
0.0454224 0.117514 6.0182 210 210 200
0.0485745 0.559028 6.39589 85 77 64
0.0499322 -0.335472 6.48738 215 213 201
0.0465455 -0.0767219 6.0761 215 212 203
0.0467399 0.0623279 6.03027 212 209 200
0.0486948 0.00256243 6.04627 211 211 201
0.0490739 0.000808113 6.04512 216 214 202
0.0519152 0.61753 6.30084 100 95 76
0.0519152 0.61753 6.30084 100 95 76
0.0518539 0.672921 6.18482 111 104 86
0.0523647 0.666869 6.19426 95 89 73
0.0522176 0.0392092 6.0358 212 209 200
0.0521637 0.0393041 6.03542 212 209 200
0.0548209 0.613106 6.30532 98 93 73
0.0567897 -0.332662 6.4823 215 213 201
0.0535199 0.0483387 6.03519 207 205 193
0.054065 0.0195825 6.04055 210 210 200
0.0541419 0.0914244 6.02213 211 209 197
0.0548236 -0.0327389 6.05613 211 211 201
0.0590514 0.596231 6.33597 49 47 34
0.0569713 -0.0734307 6.07247 214 211 202
0.058075 0.681488 6.18136 116 111 92
0.0569427 0.0523946 6.03117 212 210 198
0.0571543 0.0840164 6.0225 143 141 129
0.0571978 0.102919 6.01815 212 212 202
0.0577248 -0.0406533 6.06018 212 212 200
0.0590716 0.0172688 6.0406 213 213 203
0.0598753 -0.0772314 6.07365 213 211 199
0.0593336 0.127327 6.01597 212 212 202
0.0593336 0.127327 6.01597 212 212 202
0.0599069 0.745511 6.04414 69 69 61
0.0608516 0.0427388 6.03469 211 209 197
0.0618417 0.720788 6.09419 54 55 41
0.0646013 0.593808 6.33792 40 36 25
0.0646013 0.593808 6.33792 40 36 25
0.0663578 0.528601 6.44814 91 84 76
0.0624017 0.0577156 6.02789 210 208 196
0.0661984 0.556314 6.39971 68 64 53
0.0634943 0.00701399 6.04454 214 212 200
0.0639359 0.0133866 6.04147 215 213 201
0.0671083 0.619432 6.29699 99 95 83
0.0671083 0.619432 6.29699 99 95 83
0.0688539 0.591908 6.34106 110 107 92
0.0669896 -0.000285148 6.0466 215 213 201
0.0703687 0.587868 6.34592 37 33 24
0.0693876 0.66914 6.19543 51 46 27
0.0699615 0.669574 6.19588 51 46 27
0.0675305 0.802573 5.92721 184 180 171
0.0690617 -0.0406862 6.05942 178 177 159
0.069081 0.153787 6.0213 210 210 200
0.0695524 0.0278742 6.03757 214 214 204
0.0694755 0.045875 6.03019 211 209 197
0.0711944 -0.0219816 6.05252 217 214 199
0.0708274 0.0933541 6.01866 213 211 199
0.0719544 0.733859 6.068 80 78 63
0.0710877 0.799283 5.93325 93 89 78
0.0738379 -0.0408351 6.05869 141 138 131
0.0738125 -0.0132151 6.05424 210 208 196
0.0736054 0.165323 6.02337 208 208 198
0.0735467 0.114153 6.01641 209 209 199
0.0770972 0.61362 6.3043 123 119 108
0.0743052 0.0901665 6.01984 211 209 197
0.0764089 -0.0320709 6.05527 172 169 160
0.0793836 0.618769 6.29421 128 125 110
0.0753088 0.801652 5.93094 149 145 136
0.0830149 0.623012 6.28892 135 132 115
0.0800283 -0.0623543 6.05936 215 213 201
0.0800778 0.0311993 6.0378 214 214 204
0.0802293 0.052022 6.02976 210 208 196
0.0806086 -0.0193997 6.05056 209 210 202
0.0806357 -0.0194439 6.0508 209 210 202
0.0805091 0.00143424 6.04116 216 214 202
0.0845844 0.594078 6.33365 131 128 111
0.0810136 0.0122044 6.04071 214 212 200
0.0798364 0.799823 5.93156 129 127 114
0.0814345 0.0465271 6.03159 214 211 202
0.0818697 0.0318417 6.03528 217 214 205
0.0870454 0.614418 6.30369 141 138 123
0.083092 0.121436 6.01542 211 208 199
0.0835593 -0.0159279 6.05031 214 211 202
0.0839275 -0.00173921 6.04483 215 212 203
0.0837336 0.116911 6.01408 210 207 198
0.0840376 0.126028 6.01517 211 208 199
0.0906027 0.507028 6.48171 147 144 127
0.085472 0.79096 5.94709 59 60 46
0.0886779 -0.0200572 6.04929 213 210 201
0.0886779 -0.0200572 6.04929 213 210 201
0.0888251 0.0268034 6.03659 213 210 201
0.0886968 0.0487269 6.03243 211 208 199
0.089816 0.14719 6.01823 203 200 191
0.089816 0.14719 6.01823 203 200 191
0.0909275 0.143973 6.01297 208 205 196
0.0918429 0.126609 6.01652 209 206 197
0.0922394 0.120599 6.01415 206 203 194
0.0979881 0.588524 6.34399 156 155 137
0.0962255 0.687916 6.17716 162 157 137
0.0949286 0.0560345 6.02645 215 212 203
0.100483 0.606996 6.311 67 64 59
0.0993369 0.68105 6.17993 169 165 138
0.0991995 0.680751 6.17814 169 165 138
0.0972698 0.0430063 6.03094 213 210 201
0.104123 0.542844 6.42705 170 170 158
0.103323 0.618516 6.29615 138 136 121
0.100423 0.0810251 6.01764 212 209 200
0.105825 0.594339 6.33408 153 153 143
0.101238 0.00460912 6.04284 212 210 198
0.103939 0.669566 6.20311 163 164 150
0.100774 0.146746 6.01729 209 209 197
0.102312 0.128826 6.01503 209 209 199
0.111814 0.46608 6.55358 197 197 185
0.111814 0.46608 6.55358 197 197 185
0.10608 0.676468 6.19716 151 148 133
0.110088 0.627438 6.39677 113 113 105
0.108389 0.618081 6.29707 113 113 105
0.10528 0.0590651 6.02322 164 161 152
0.110029 0.622338 6.28537 164 164 154
0.115884 0.466297 6.55136 199 199 187
0.111798 0.625705 6.28504 171 171 159
0.107284 0.124094 6.01524 211 211 201
0.117434 0.593508 6.33681 178 177 159
0.112593 0.095774 6.01865 213 210 201
0.121031 0.592544 6.3398 180 177 162
0.116199 0.121249 6.01757 209 209 199
0.115897 0.121206 6.01573 209 209 199
0.124366 0.546857 6.42535 191 189 174
0.119289 -0.0533033 6.07856 214 211 202
0.129649 0.470507 6.54639 199 196 189
0.119223 0.133409 6.01848 207 207 197
0.121024 0.115224 6.0178 209 209 199
0.132098 0.478178 6.54211 201 202 194
0.132385 0.513392 6.47963 194 194 182
0.1315 0.566393 6.38739 189 188 170
0.135615 0.455873 6.57549 202 202 194
0.135615 0.455873 6.57549 202 202 194
0.124356 0.126146 6.02004 209 209 199
0.125195 0.114386 6.01936 208 208 198
0.134871 0.517999 6.47307 197 197 185
0.136785 0.511882 6.48486 197 197 185
0.141742 0.467433 6.55056 170 169 149
0.139831 0.542839 6.43044 200 199 181
0.140093 0.571333 6.38817 197 195 182
0.131798 0.134172 6.01969 209 209 199
0.134541 0.0264355 6.03682 213 213 203
0.144202 0.602115 6.32306 194 195 179
0.149791 0.481215 6.53714 202 204 193
0.149791 0.481215 6.53714 202 204 193
0.141411 0.751103 6.02102 178 176 163
0.154415 0.472274 6.54728 205 207 196
0.144651 0.704067 6.12015 187 187 175
0.146056 0.696769 6.13518 190 190 178
0.146056 0.696769 6.13518 190 190 178
0.144418 0.0458455 6.02799 207 205 193
0.14697 0.736165 6.04056 180 178 165
0.160328 0.516633 6.47651 204 204 192
0.156788 0.598569 6.33079 149 146 127
0.149512 0.0589869 6.02085 212 210 198
0.149929 0.128876 6.02246 210 207 198
0.163228 0.475974 6.54227 209 206 197
0.152664 0.179249 6.04042 215 213 201
0.16078 0.594174 6.33825 123 122 118
0.166646 0.483982 6.53355 209 207 195
0.165566 0.550452 6.42084 197 200 189
0.156684 0.119746 6.0141 211 208 199
0.170806 0.518101 6.4756 209 204 198
0.172831 0.472596 6.54776 171 169 157
0.170498 0.548481 6.42918 204 204 194
0.162987 0.127369 6.01386 209 206 197
0.163795 0.73576 6.0391 198 198 186
0.166363 0.0979237 6.01512 213 210 201
0.171376 0.695254 6.13152 195 195 187
0.176621 0.629371 6.27592 201 201 199
0.178438 0.600693 6.32822 205 205 193
0.171542 0.140971 6.01267 211 209 197
0.172452 0.159804 6.01213 216 213 204
0.173823 0.163095 6.01399 214 211 202
0.173801 0.16739 6.01337 215 212 203
0.174018 0.143481 6.01173 209 207 195
0.187128 0.527484 6.4614 211 212 207
0.175026 0.122213 6.01184 208 208 198
0.178817 0.705848 6.11295 210 208 196
0.187852 0.553014 6.41836 205 201 192
0.188046 0.553127 6.41954 205 201 192
0.186811 0.603053 6.32206 187 184 165
0.180596 0.726685 6.0671 207 207 197
0.190944 0.579882 6.36896 82 75 57
0.191043 0.592414 6.33913 201 198 183
0.191043 0.592414 6.33913 201 198 183
0.194969 0.546439 6.43104 204 205 197
0.191753 0.608135 6.3163 195 192 175
0.182754 0.194569 6.01265 214 212 200
0.182804 0.16476 6.01147 214 211 202
0.183638 0.136952 6.01349 210 208 196
0.195004 0.57752 6.37231 144 140 131
0.185223 0.132871 6.01708 208 206 194
0.193011 0.630235 6.27386 208 205 196
0.193726 0.633225 6.27445 208 205 196
0.193801 0.626772 6.28361 210 207 198
0.185544 0.166126 6.00848 214 211 202
0.187445 0.184207 6.00851 216 213 204
0.190821 0.720511 6.07622 213 213 201
0.198232 0.629941 6.27857 207 204 195
0.190031 0.1794 6.00816 216 213 204
0.192985 0.211772 6.01083 214 212 200
0.202573 0.63422 6.27284 211 208 199
0.19423 0.190405 6.01121 212 212 202
0.195496 0.174596 6.0111 216 213 204
0.204333 0.629522 6.27975 209 206 197
0.196509 0.245404 6.02435 213 211 199
0.196509 0.245404 6.02435 213 211 199
0.199385 0.259513 6.02741 212 210 198
0.201865 0.322316 6.05385 210 207 198
0.20247 0.355046 6.06185 209 209 199
0.203401 0.749549 6.01353 216 213 204
0.205407 0.371677 6.06614 211 208 199
0.217042 0.445948 6.24323 214 213 209
0.220829 0.630074 6.27871 209 207 194
0.21437 0.726172 6.06236 211 212 198
0.215056 0.730261 6.06027 210 208 195
0.230318 0.632867 6.27437 145 145 133
0.224033 0.373762 6.0663 213 210 201
0.236838 0.634221 6.27299 210 207 202
0.243721 0.583754 6.25652 210 208 195
0.239325 0.404326 6.06565 208 205 196
0.246969 0.585377 6.25636 135 133 120
0.239183 0.753893 6.00265 209 209 197
0.239183 0.753893 6.00265 209 209 197
0.241588 0.751409 6.0046 209 210 196
0.25199 0.5955 6.24968 188 186 174
0.255621 0.640287 6.26217 144 140 131
0.257806 0.592242 6.24917 206 203 194
0.257806 0.592242 6.24917 206 203 194
0.259092 0.641186 6.26094 75 71 68
0.259092 0.641186 6.26094 75 71 68
0.259015 0.641323 6.26051 75 71 68
0.260716 0.645533 6.25533 209 209 209
0.252106 0.741159 6.02691 206 200 186
0.263729 0.640591 6.26154 206 207 199
0.266363 0.357935 6.22102 211 209 197
0.266363 0.357935 6.22102 211 209 197
0.265793 0.718927 6.08428 208 206 193
0.267525 0.74091 6.01773 206 206 196
0.271882 0.730004 6.05049 205 205 195
0.280509 0.71885 6.08449 204 204 194
0.280008 0.718238 6.08009 204 204 194
0.361104 -0.200432 7.77521 143 139 128
0.296681 0.720436 6.06427 213 213 203
0.296165 0.756295 5.9991 214 211 202
0.298909 0.735272 6.03781 213 210 201
0.298909 0.735272 6.03781 213 210 201
0.323018 0.632096 6.28342 207 208 200
0.311308 0.735942 6.03534 215 212 205
0.311308 0.735942 6.03534 215 212 205
0.312494 0.729999 6.04637 215 212 205
0.312009 0.744544 6.00859 214 211 202
0.312009 0.744544 6.00859 214 211 202
0.438324 -0.434398 8.21239 194 194 194
0.439116 -0.413728 8.16908 215 212 205
0.439116 -0.413728 8.16908 215 212 205
0.424953 -0.196983 7.76343 214 212 199
0.351882 0.590909 6.35263 105 96 79
0.332856 0.756092 5.99571 215 212 203
0.339217 0.729536 6.04774 211 211 199
0.440201 -0.211912 7.78153 215 212 203
0.363151 0.594812 6.34135 183 182 177
0.343382 0.75917 5.99011 214 211 206
0.346085 0.747877 6.00645 213 210 203
0.3695 0.573625 6.38837 213 213 205
0.3695 0.573625 6.38837 213 213 205
0.451239 -0.196322 7.75452 217 214 205
0.369937 0.619531 6.29592 187 187 189
0.484166 -0.399456 8.14848 216 213 204
0.381198 0.598127 6.33679 213 208 204
0.38476 0.566961 6.39492 208 203 173
0.367983 0.706827 6.09124 210 207 200
0.395278 0.503821 6.51072 210 211 206
0.385049 0.598909 6.33583 223 217 201
0.409719 0.364387 6.72622 219 210 205
0.39997 0.494818 6.53488 208 210 205
0.374169 0.724819 6.05854 216 216 208
0.410688 0.470426 6.57596 214 212 197
0.411714 0.482442 6.55652 210 208 196
0.409112 0.500209 6.51073 211 208 199
0.413477 0.491192 6.54163 212 209 200
0.404469 0.587998 6.3776 203 200 195
0.404469 0.587998 6.3776 203 200 195
0.414329 0.505688 6.50917 210 207 198
0.416482 0.492157 6.53798 212 209 200
0.382395 0.769333 5.97401 213 211 199
0.389249 0.71558 6.07321 196 189 170
0.421219 0.492992 6.53241 205 202 193
0.385696 0.763355 5.97757 213 210 203
0.433772 0.372613 6.71089 212 208 197
0.433772 0.372613 6.71089 212 208 197
0.511111 -0.277543 7.89387 216 213 204
0.415883 0.567405 6.39079 210 207 198
0.531707 -0.407405 8.16532 215 212 203
0.418922 0.546147 6.42578 210 208 196
0.411454 0.611058 6.30896 212 209 200
0.411454 0.611058 6.30896 212 209 200
0.515155 -0.271276 7.88861 216 213 204
0.416999 0.572017 6.3854 212 208 199
0.437275 0.397219 6.68559 212 209 200
0.430429 0.47759 6.56683 209 209 199
0.522668 -0.317334 7.97279 215 212 203
0.518575 -0.283219 7.89905 215 212 203
0.424428 0.531306 6.43723 211 208 199
0.453031 0.302848 6.86989 216 213 204
0.418458 0.586153 6.3389 209 206 197
0.442817 0.380016 6.70705 211 208 201
0.521653 -0.276376 7.89198 217 214 205
0.399433 0.737212 6.02909 88 81 65
0.436069 0.489092 6.54455 0 0 0
0.428295 0.543028 6.42493 0 0 0
0.401784 0.73832 6.02464 0 0 0
0.401784 0.73832 6.02464 0 0 0
0.428992 0.574814 6.37747 0 0 0
0.437862 0.508878 6.50205 0 0 0
0.453614 0.397389 6.68416 0 0 0
0.559923 -0.417252 8.19256 0 0 0
0.44831 0.483055 6.55975 0 0 0
0.432537 0.612574 6.31634 0 0 0
0.432537 0.612574 6.31634 0 0 0
0.46075 0.362974 6.7179 0 0 0
0.409846 0.767346 5.97503 0 0 0
0.43794 0.574016 6.37621 0 0 0
0.543175 -0.273774 7.89064 0 0 0
0.540929 -0.27346 7.87697 0 0 0
0.473018 0.321443 6.83004 0 0 0
0.449804 0.519157 6.49184 0 0 0
0.44482 0.574212 6.37496 0 0 0
0.569226 -0.398288 8.14791 0 0 0
0.552088 -0.273747 7.89169 0 0 0
0.47782 0.321412 6.82968 0 0 0
0.551387 -0.266164 7.88047 0 0 0
0.448544 0.575318 6.37336 0 0 0
0.470635 0.392796 6.68477 0 0 0
0.470635 0.392796 6.68477 0 0 0
0.452188 0.550535 6.41642 0 0 0
0.481709 0.323522 6.82549 0 0 0
0.447104 0.604291 6.32534 0 0 0
0.483618 0.319162 6.83311 0 0 0
0.524297 0.00857528 7.41217 0 0 0
0.474485 0.380773 6.69702 0 0 0
0.558958 -0.264937 7.88062 0 0 0
0.424967 0.764394 5.97801 0 0 0
0.477433 0.370804 6.70582 0 0 0
0.585887 -0.399457 8.17037 0 0 0
0.521788 0.0947737 7.27381 0 0 0
0.468934 0.494742 6.53276 0 0 0
0.529495 0.0292498 7.3759 0 0 0
0.461579 0.536081 6.42894 0 0 0
0.531737 0.048976 7.35016 0 0 0
0.435182 0.773817 5.96316 0 0 0
0.435182 0.773817 5.96316 0 0 0
0.466768 0.591388 6.35888 0 0 0
0.468475 0.577756 6.36872 0 0 0
0.512174 0.270569 6.93865 0 0 0
0.544292 0.0338456 7.37006 0 0 0
0.540345 0.0745088 7.30977 0 0 0
0.482385 0.499791 6.52497 0 0 0
0.542222 0.0579902 7.33487 0 0 0
0.496842 0.380987 6.69251 0 0 0
0.488962 0.489457 6.54303 0 0 0
0.522248 0.2468 6.98797 0 0 0
0.557933 -0.032838 7.47015 0 0 0
0.533728 0.16637 7.13245 0 0 0
0.533728 0.16637 7.13245 0 0 0
0.49989 0.399642 6.67166 0 0 0
0.502661 0.389747 6.68093 0 0 0
0.483532 0.547709 6.42329 0 0 0
0.524001 0.260645 6.95807 0 0 0
0.542894 0.149811 7.16431 0 0 0
0.519507 0.322186 6.82278 0 0 0
0.553942 0.0892107 7.27453 0 0 0
0.554518 0.101086 7.25375 0 0 0
0.499669 0.493559 6.53258 0 0 0
0.59139 -0.185611 7.72797 0 0 0
0.49223 0.539175 6.42324 0 0 0
0.485518 0.590285 6.33394 0 0 0
0.558437 0.0802444 7.28734 0 0 0
0.524536 0.323462 6.82145 0 0 0
0.504321 0.491345 6.54391 0 0 0
0.530323 0.31769 6.8437 0 0 0
0.530101 0.321413 6.82122 0 0 0
0.612895 -0.264558 7.8804 0 0 0
0.612895 -0.264558 7.8804 0 0 0
0.50631 0.511919 6.49926 0 0 0
0.465658 0.770442 5.96865 0 0 0
0.465658 0.770442 5.96865 0 0 0
0.465918 0.771068 5.96878 0 0 0
0.532881 0.325021 6.81419 0 0 0
0.467269 0.766352 5.97441 0 0 0
0.580345 0.00316015 7.41432 0 0 0
0.592849 -0.0848648 7.55291 0 0 0
0.469498 0.770481 5.96779 0 0 0
0.469498 0.770481 5.96779 0 0 0
0.576215 0.0615264 7.314 0 0 0
0.576404 0.0699843 7.30099 0 0 0
0.470955 0.774598 5.9604 0 0 0
0.512361 0.526783 6.48202 0 0 0
0.472375 0.770521 5.96454 0 0 0
0.533699 0.365199 6.70626 0 0 0
0.519932 0.500721 6.52719 0 0 0
0.58489 0.0439856 7.34208 0 0 0
0.587051 0.035907 7.35816 0 0 0
0.52083 0.518299 6.49 0 0 0
0.53867 0.382047 6.68535 0 0 0
0.51612 0.553446 6.40604 0 0 0
0.510147 0.610262 6.30944 0 0 0
0.597598 0.00690802 7.38967 0 0 0
0.51989 0.568932 6.40252 0 0 0
0.59495 0.048431 7.32616 0 0 0
0.602111 0.0432359 7.35022 0 0 0
0.597989 0.0734562 7.29442 0 0 0
0.597818 0.0844751 7.27679 0 0 0
0.599339 0.0848359 7.28501 0 0 0
0.597112 0.0994849 7.25719 0 0 0
0.523711 0.581452 6.35636 0 0 0
0.612734 -0.00733728 7.43231 0 0 0
0.638205 -0.192599 7.73985 0 0 0
0.638205 -0.192599 7.73985 0 0 0
0.600087 0.091788 7.27009 0 0 0
0.553772 0.366176 6.69537 0 0 0
0.607267 0.0649099 7.30562 0 0 0
0.496326 0.76946 5.96623 0 0 0
0.559467 0.381953 6.67465 0 0 0
0.559952 0.382471 6.67539 0 0 0
0.548332 0.497509 6.52792 0 0 0
0.551207 0.483669 6.54827 0 0 0
0.629547 -0.033297 7.46431 0 0 0
0.543061 0.546582 6.4144 0 0 0
0.506873 0.770241 5.96251 0 0 0
0.55597 0.491049 6.53824 0 0 0
0.633562 -0.0150856 7.43973 0 0 0
0.621117 0.0762548 7.28732 0 0 0
0.556786 0.505496 6.51541 0 0 0
0.62758 0.0454572 7.33873 0 0 0
0.55773 0.51566 6.50292 0 0 0
0.559918 0.498207 6.52685 0 0 0
0.560017 0.498179 6.52743 0 0 0
0.632413 0.0320028 7.36637 0 0 0
0.635273 0.0114407 7.39456 0 0 0
0.635273 0.0114407 7.39456 0 0 0
0.538026 0.631787 6.26229 0 0 0
0.559492 0.508865 6.51176 0 0 0
0.624848 0.0904832 7.26797 0 0 0
0.562006 0.501995 6.52045 0 0 0
0.564062 0.494906 6.53069 0 0 0
0.625896 0.105756 7.24538 0 0 0
0.640856 0.00547948 7.40094 0 0 0
0.56588 0.487579 6.53772 0 0 0
0.566413 0.498618 6.5276 0 0 0
0.562741 0.52506 6.47874 0 0 0
0.568323 0.49174 6.5348 0 0 0
0.648977 -0.00688217 7.42614 0 0 0
0.571149 0.500289 6.52143 0 0 0
0.652623 -0.0177175 7.44065 0 0 0
0.572447 0.498725 6.52464 0 0 0
0.656194 -0.0122201 7.43407 0 0 0
0.574865 0.505566 6.51301 0 0 0
0.575591 0.51053 6.50623 0 0 0
0.56347 0.570988 6.36889 0 0 0
0.647762 0.0553839 7.31898 0 0 0
0.647722 0.0553099 7.31876 0 0 0
0.65825 -0.00641677 7.42716 0 0 0
0.579554 0.489401 6.5353 0 0 0
0.646508 0.0727009 7.29141 0 0 0
0.527932 0.778465 5.9473 0 0 0
0.577334 0.516943 6.5007 0 0 0
0.649903 0.0637028 7.30554 0 0 0
0.595873 0.366949 6.68727 0 0 0
0.581687 0.502213 6.5185 0 0 0
0.666821 -0.0228829 7.45074 0 0 0
0.579337 0.532761 6.47266 0 0 0
0.62389 0.267841 6.9392 0 0 0
0.656169 0.0726825 7.29584 0 0 0
0.587117 0.503634 6.51488 0 0 0
0.588826 0.489783 6.53329 0 0 0
0.589203 0.489995 6.53441 0 0 0
0.601175 0.384458 6.66764 0 0 0
0.601514 0.384607 6.66866 0 0 0
0.624167 0.278339 6.91499 0 0 0
0.590499 0.510117 6.50732 0 0 0
0.592544 0.505541 6.51198 0 0 0
0.590005 0.527345 6.47494 0 0 0
0.671569 0.0251857 7.37087 0 0 0
0.671569 0.0251857 7.37087 0 0 0
0.582588 0.574237 6.37462 0 0 0
0.664227 0.094121 7.2644 0 0 0
0.590275 0.551321 6.41154 0 0 0
0.672136 0.0650963 7.29995 0 0 0
0.674301 0.0729103 7.29216 0 0 0
0.550025 0.779724 5.94398 0 0 0
0.550025 0.779724 5.94398 0 0 0
0.754027 -0.371991 8.11781 0 0 0
0.600499 0.536302 6.46169 0 0 0
0.689072 0.0102147 7.39013 0 0 0
0.758516 -0.38297 8.12904 0 0 0
0.585993 0.624653 6.26763 0 0 0
0.686532 0.0378369 7.3445 0 0 0
0.686532 0.0378369 7.3445 0 0 0
0.761549 -0.363869 8.10949 0 0 0
0.761549 -0.363869 8.10949 0 0 0
0.768289 -0.381151 8.11949 0 0 0
0.68849 0.0912315 7.26473 0 0 0
0.63282 0.389433 6.66264 0 0 0
0.775222 -0.405048 8.15474 0 0 0
0.698433 0.0460966 7.33335 0 0 0
0.697396 0.0458367 7.32809 0 0 0
0.748377 -0.238731 7.85467 0 0 0
0.671278 0.217675 7.04229 0 0 0
0.637502 0.36811 6.68187 0 0 0
0.77504 -0.366986 8.11585 0 0 0
0.708295 -0.00462076 7.40879 0 0 0
0.696228 0.0952013 7.25633 0 0 0
0.696228 0.0952013 7.25633 0 0 0
0.623267 0.515739 6.49299 0 0 0
0.624968 0.505607 6.50852 0 0 0
0.625757 0.505488 6.5121 0 0 0
0.707368 0.0336824 7.35898 0 0 0
0.677109 0.217718 7.04408 0 0 0
0.618773 0.552867 6.40433 0 0 0
0.707231 0.0567999 7.31929 0 0 0
0.703259 0.0996119 7.24664 0 0 0
0.79154 -0.377619 8.13898 0 0 0
0.634991 0.498592 6.51965 0 0 0
0.815866 -0.503651 8.37462 0 0 0
0.719783 0.00665525 7.39074 0 0 0
0.637248 0.493446 6.52029 0 0 0
0.72076 0.0215663 7.37295 0 0 0
0.708188 0.105381 7.23845 0 0 0
0.708951 0.109118 7.23184 0 0 0
0.691893 0.214709 7.04734 0 0 0
0.718236 0.0572244 7.30977 0 0 0
0.718609 0.0570755 7.3116 0 0 0
0.638283 0.51311 6.49453 0 0 0
0.642669 0.502333 6.51569 0 0 0
0.723935 0.0726826 7.28079 0 0 0
0.719561 0.107492 7.23391 0 0 0
0.724344 0.078365 7.27794 0 0 0
0.720352 0.112313 7.22585 0 0 0
0.666189 0.372401 6.67634 0 0 0
0.593114 0.778649 5.94256 0 0 0
0.721926 0.119719 7.21406 0 0 0
0.724059 0.106225 7.23331 0 0 0
0.734694 0.0475779 7.32268 0 0 0
0.747274 -0.0126131 7.42202 0 0 0
0.651144 0.538299 6.45525 0 0 0
0.657583 0.506053 6.50488 0 0 0
0.674804 0.372494 6.67362 0 0 0
0.740039 0.0547895 7.31698 0 0 0
0.732723 0.116133 7.22033 0 0 0
0.714108 0.228188 7.0256 0 0 0
0.741029 0.0858535 7.28249 0 0 0
0.746672 0.0508367 7.3164 0 0 0
0.739587 0.117707 7.21327 0 0 0
0.75961 0.0211313 7.3665 0 0 0
0.745692 0.109503 7.22451 0 0 0
0.727744 0.223577 7.0276 0 0 0
0.616605 0.776643 5.94475 0 0 0
0.762321 0.0388382 7.33689 0 0 0
0.762321 0.0388382 7.33689 0 0 0
0.759789 0.0746304 7.27244 0 0 0
0.660982 0.593907 6.32376 0 0 0
0.769666 0.0432175 7.32873 0 0 0
0.702354 0.380457 6.66369 0 0 0
0.702354 0.380457 6.66369 0 0 0
0.758097 0.130138 7.19036 0 0 0
0.758119 0.130166 7.19052 0 0 0
0.70366 0.373496 6.66992 0 0 0
0.636572 0.739447 6.02625 0 0 0
0.636572 0.739447 6.02625 0 0 0
0.763795 0.12829 7.19277 0 0 0
0.763136 0.128709 7.1897 0 0 0
0.763136 0.128709 7.1897 0 0 0
0.669034 0.605428 6.29216 0 0 0
0.767175 0.118426 7.20479 0 0 0
0.643854 0.730088 6.0407 0 0 0
0.782595 0.0479506 7.31738 0 0 0
0.676264 0.614264 6.27876 0 0 0
0.649173 0.739573 6.01886 0 0 0
0.782681 0.0914165 7.24859 0 0 0
0.782681 0.0914165 7.24859 0 0 0
0.783725 0.0843464 7.25528 0 0 0
0.787883 0.0775021 7.26958 0 0 0
0.701214 0.517492 6.46893 0 0 0
0.721258 0.387715 6.6534 0 0 0
0.721174 0.397277 6.64538 0 0 0
0.721174 0.397277 6.64538 0 0 0
0.879744 -0.356172 8.10231 0 0 0
0.793498 0.0667969 7.29146 0 0 0
0.783944 0.126521 7.1922 0 0 0
0.802382 0.053019 7.31995 0 0 0
0.714578 0.492979 6.51478 0 0 0
0.794583 0.106225 7.21803 0 0 0
0.686754 0.638653 6.22529 0 0 0
0.689182 0.635234 6.2301 0 0 0
0.796599 0.119479 7.20186 0 0 0
0.807119 0.0610606 7.29304 0 0 0
0.693041 0.625604 6.25773 0 0 0
0.693041 0.625604 6.25773 0 0 0
0.796926 0.126199 7.19023 0 0 0
0.702131 0.576296 6.33215 0 0 0
0.668426 0.735865 6.02563 0 0 0
0.668426 0.735865 6.02563 0 0 0
0.69812 0.610393 6.27744 0 0 0
0.79948 0.136108 7.17834 0 0 0
0.802191 0.119272 7.19726 0 0 0
0.907499 -0.36169 8.10595 0 0 0
0.907499 -0.36169 8.10595 0 0 0
0.813968 0.0890274 7.24798 0 0 0
0.822093 0.0521348 7.31016 0 0 0
0.81536 0.113067 7.19648 0 0 0
0.814903 0.125049 7.18625 0 0 0
0.824864 0.0754078 7.26874 0 0 0
0.822924 0.0877615 7.24543 0 0 0
0.814009 0.141381 7.15843 0 0 0
0.823601 0.103015 7.22082 0 0 0
0.737897 0.523662 6.44866 0 0 0
0.817833 0.149368 7.14856 0 0 0
0.830256 0.0940908 7.23662 0 0 0
0.839687 0.0540474 7.29679 0 0 0
0.715923 0.639903 6.218 0 0 0
0.830298 0.11644 7.20154 0 0 0
0.735929 0.555382 6.37939 0 0 0
0.735929 0.555382 6.37939 0 0 0
0.748189 0.513328 6.4595 0 0 0
0.856255 0.0201347 7.37084 0 0 0
0.835504 0.127983 7.17464 0 0 0
0.738903 0.579519 6.3382 0 0 0
0.735611 0.614671 6.26689 0 0 0
0.850276 0.106488 7.21765 0 0 0
0.847715 0.143536 7.15138 0 0 0
0.851024 0.132509 7.16241 0 0 0
0.774184 0.496258 6.49085 0 0 0
0.960465 -0.315116 8.04342 0 0 0
1.12191 -0.430317 9.3165 0 0 0
0.979861 -0.374786 8.13459 0 0 0
0.880156 0.0609336 7.2989 0 0 0
0.786298 0.517262 6.45131 0 0 0
0.991448 -0.36851 8.13014 0 0 0
0.853075 0.249407 6.96463 0 0 0
0.914735 -0.0224904 7.45645 0 0 0
0.796539 0.498352 6.48469 0 0 0
0.815352 0.383996 6.64308 0 0 0
1.00158 -0.379585 8.13393 0 0 0
0.999658 -0.35901 8.11297 0 0 0
0.89519 0.0940517 7.24351 0 0 0
0.999093 -0.317407 8.04023 0 0 0
0.901497 0.0858532 7.25321 0 0 0
0.804746 0.503994 6.47141 0 0 0
0.890284 0.148091 7.1419 0 0 0
0.890658 0.148046 7.14351 0 0 0
0.890284 0.148091 7.1419 0 0 0
0.898791 0.118071 7.19802 0 0 0
0.831985 0.428934 6.61295 0 0 0
0.831985 0.428934 6.61295 0 0 0
0.831985 0.428934 6.61295 0 0 0
0.814523 0.503911 6.47233 0 0 0
0.83458 0.408378 6.62544 0 0 0
0.90375 0.147393 7.14116 0 0 0
0.838946 0.410491 6.6218 0 0 0
1.02635 -0.340285 8.07692 0 0 0
0.78805 0.64586 6.20074 0 0 0
0.900429 0.185619 7.08031 0 0 0
0.909233 0.162798 7.11685 0 0 0
0.906925 0.172731 7.09451 0 0 0
0.806827 0.59293 6.30546 0 0 0
0.806827 0.59293 6.30546 0 0 0
0.814342 0.567111 6.35818 0 0 0
0.849835 0.384708 6.63634 0 0 0
0.872044 0.321637 6.79696 0 0 0
0.871765 0.321583 6.7959 0 0 0
0.931154 0.113531 7.20832 0 0 0
0.922834 0.148673 7.14174 0 0 0
0.921619 0.154079 7.13325 0 0 0
0.915154 0.190065 7.08052 0 0 0
0.924158 0.142675 7.1501 0 0 0
0.856975 0.408186 6.62028 0 0 0
0.857049 0.408304 6.6206 0 0 0
0.938345 0.119661 7.20048 0 0 0
0.864725 0.38691 6.63432 0 0 0
0.952517 0.0538594 7.30614 0 0 0
0.925606 0.172515 7.0988 0 0 0
0.931128 0.173974 7.09514 0 0 0
0.827138 0.595443 6.30055 0 0 0
0.953211 0.0893631 7.25405 0 0 0
0.870565 0.398209 6.62543 0 0 0
0.934989 0.162546 7.11194 0 0 0
0.936833 0.158272 7.1239 0 0 0
0.984369 -0.0220938 7.47206 0 0 0
0.922225 0.245204 6.9914 0 0 0
0.937111 0.170799 7.10071 0 0 0
0.949545 0.126167 7.18512 0 0 0
0.939101 0.183081 7.09696 0 0 0
0.878759 0.409724 6.61766 0 0 0
0.878395 0.409755 6.6162 0 0 0
0.952062 0.132915 7.17249 0 0 0
0.845209 0.564786 6.35739 0 0 0
0.88151 0.3882 6.62906 0 0 0
0.951991 0.148598 7.14171 0 0 0
0.951991 0.148598 7.14171 0 0 0
0.859287 0.520527 6.44615 0 0 0
0.956837 0.138935 7.16365 0 0 0
0.943615 0.195089 7.05713 0 0 0
0.96145 0.126615 7.18697 0 0 0
0.86428 0.516776 6.4533 0 0 0
0.890737 0.389331 6.62786 0 0 0
0.959174 0.157833 7.13237 0 0 0
0.948934 0.212004 7.03901 0 0 0
0.976931 0.119998 7.2077 0 0 0
0.973351 0.130819 7.18022 0 0 0
0.957427 0.191895 7.06101 0 0 0
0.968517 0.157537 7.13035 0 0 0
0.968967 0.157724 7.13065 0 0 0
0.899598 0.410792 6.6116 0 0 0
0.899724 0.410687 6.61138 0 0 0
1.10362 -0.353773 8.11106 0 0 0
0.974911 0.157817 7.13168 0 0 0
0.976136 0.153351 7.13701 0 0 0
0.906152 0.394557 6.62199 0 0 0
0.98671 0.116139 7.20891 0 0 0
0.97931 0.144863 7.15025 0 0 0
0.965631 0.200983 7.0471 0 0 0
1.00585 0.0535235 7.33527 0 0 0
0.984 0.135213 7.17342 0 0 0
0.904933 0.433836 6.59231 0 0 0
0.976735 0.173193 7.10175 0 0 0
1.03555 -0.0399492 7.51514 0 0 0
0.96794 0.214752 7.02263 0 0 0
0.988865 0.140213 7.17006 0 0 0
0.922809 0.369042 6.66877 0 0 0
0.981757 0.187458 7.08193 0 0 0
0.893646 0.53193 6.44322 0 0 0
0.980549 0.198789 7.05074 0 0 0
0.918898 0.412328 6.60594 0 0 0
0.919612 0.412314 6.60729 0 0 0
0.993905 0.150413 7.14305 0 0 0
0.91672 0.435463 6.58551 0 0 0
0.984297 0.204576 7.0441 0 0 0
0.989573 0.1803 7.07939 0 0 0
0.984364 0.211231 7.02641 0 0 0
0.980371 0.227788 6.99353 0 0 0
0.992097 0.188995 7.07165 0 0 0
0.926607 0.431124 6.58713 0 0 0
0.926638 0.43157 6.58753 0 0 0
1.09002 -0.159972 7.74019 0 0 0
1.06633 -0.0593259 7.55897 0 0 0
0.991372 0.216344 7.01983 0 0 0
1.1428 -0.334748 8.06284 0 0 0
0.909011 0.55112 6.40558 0 0 0
0.99931 0.20721 7.03398 0 0 0
1.04061 0.0537563 7.32554 0 0 0
1.07807 -0.0755083 7.56647 0 0 0
0.945356 0.393512 6.61697 0 0 0
0.945719 0.393476 6.61823 0 0 0
1.00194 0.224354 6.99513 0 0 0
1.03496 0.114802 7.21426 0 0 0
1.01073 0.208474 7.03711 0 0 0
1.0266 0.15672 7.13579 0 0 0
0.969192 0.33516 6.73144 0 0 0
0.951706 0.412213 6.59971 0 0 0
0.938248 0.509154 6.49955 0 0 0
0.958127 0.386543 6.62146 0 0 0
1.09428 -0.0647277 7.5506 0 0 0
1.09434 -0.0649927 7.55111 0 0 0
1.05514 0.0258155 7.27288 0 0 0
1.02265 0.197071 7.03999 0 0 0
1.02259 0.204267 7.03547 0 0 0
0.943273 0.515317 6.49123 0 0 0
0.939381 0.535065 6.4555 0 0 0
1.04359 0.135595 7.16677 0 0 0
1.10523 -0.0755373 7.5828 0 0 0
0.971158 0.36901 6.66212 0 0 0
0.9636 0.40596 6.59992 0 0 0
0.966557 0.392299 6.61601 0 0 0
1.01555 0.245121 6.94697 0 0 0
1.06363 0.080252 7.27193 0 0 0
1.03698 0.174818 7.08745 0 0 0
1.03005 0.202584 7.03172 0 0 0
1.02603 0.223045 6.99021 0 0 0
1.11821 -0.0981478 7.61195 0 0 0
1.03812 0.186456 7.0599 0 0 0
0.972357 0.412885 6.59513 0 0 0
0.972357 0.412885 6.59513 0 0 0
1.0178 0.267656 6.89726 0 0 0
1.02481 0.257366 6.90971 0 0 0
1.08794 0.0471608 7.31506 0 0 0
1.00045 0.338315 6.71537 0 0 0
1.06868 0.13042 7.16936 0 0 0
1.03152 0.259335 6.90685 0 0 0
1.1998 -0.317065 8.02335 0 0 0
1.07293 0.139832 7.15112 0 0 0
1.07991 0.127799 7.17021 0 0 0
1.18652 0.132379 7.87378 0 0 0
1.08219 0.120424 7.18102 0 0 0
1.10658 0.0528843 7.30464 0 0 0
1.04108 0.270498 6.8712 0 0 0
1.04773 0.254706 6.90556 0 0 0
1.00309 0.398967 6.60724 0 0 0
1.07723 0.164274 7.08862 0 0 0
1.1275 -0.000189232 7.41557 0 0 0
1.05289 0.243664 6.91328 0 0 0
1.15651 -0.091097 7.58832 0 0 0
1.00464 0.422033 6.59248 0 0 0
1.08184 0.158122 7.09457 0 0 0
1.05592 0.250014 6.89908 0 0 0
1.11901 0.0514599 7.30933 0 0 0
1.04768 0.282871 6.83199 0 0 0
1.08073 0.187097 7.03035 0 0 0
1.08817 0.166536 7.06884 0 0 0
1.16333 -0.0726488 7.55733 0 0 0
1.06885 0.241115 6.91206 0 0 0
1.06886 0.240964 6.91224 0 0 0
1.16358 -0.0588552 7.51745 0 0 0
1.02855 0.376129 6.64372 0 0 0
1.06421 0.262264 6.87052 0 0 0
