ply
format ascii 1.0 
element vertex 1311
property float32 x 
property float32 y 
property float32 z
property uchar red  
property uchar green
property uchar blue
element face 0
property list uchar int vertex_indices
end_header
1.20056 0.369809 6.71259 0 0 0
1.28506 0.280606 6.90386 0 0 0
1.7351 -0.281136 7.96021 0 0 0
1.51379 0.0047212 7.43854 0 0 0
0.92456 0.76612 6.05171 0 0 0
1.60591 -0.100947 7.64816 0 0 0
1.09086 0.550093 6.42072 0 0 0
1.34766 0.22213 7.01265 0 0 0
1.34851 0.225069 7.0153 0 0 0
1.5173 0.02587 7.40935 0 0 0
1.20082 0.397859 6.65187 0 0 0
1.72954 -0.230733 7.89575 0 0 0
1.74584 -0.254246 7.92758 0 0 0
1.53428 0.0157669 7.43021 0 0 0
1.62441 -0.094055 7.63923 0 0 0
0.985361 0.710942 6.14818 0 0 0
1.53927 0.0248232 7.41051 0 0 0
1.53927 0.0248232 7.41051 0 0 0
1.76809 -0.269021 7.93998 0 0 0
1.75937 -0.245336 7.91828 0 0 0
1.54436 0.0323595 7.40756 0 0 0
1.30439 0.317178 6.83023 0 0 0
1.04012 0.66597 6.22163 0 0 0
1.2122 0.436986 6.61534 0 0 0
1.56403 0.0122676 7.42766 0 0 0
0.998914 0.733277 6.12217 0 0 0
1.26829 0.361291 6.72948 0 0 0
1.5616 0.0303775 7.40632 0 0 0
1.24656 0.397015 6.65141 0 0 0
1.24656 0.397015 6.65141 0 0 0
1.794 -0.249494 7.91728 0 0 0
1.13842 0.564886 6.40771 0 0 0
0.996552 0.748979 6.08172 0 0 0
1.14453 0.565769 6.4082 0 0 0
1.57681 0.0374451 7.40042 0 0 0
1.1496 0.560486 6.41475 0 0 0
1.13359 0.582819 6.37242 0 0 0
0.896542 0.83041 5.80217 0 0 0
0.965756 0.801058 5.96957 0 0 0
1.22754 0.451407 6.55887 0 0 0
0.969888 0.798141 5.97533 0 0 0
0.942334 0.832783 5.91213 0 0 0
0.982048 0.795146 5.98328 0 0 0
1.00951 0.769071 6.04435 0 0 0
1.23635 0.451363 6.54793 0 0 0
1.82168 -0.218695 7.87039 0 0 0
1.61225 0.0350771 7.39511 0 0 0
1.2495 0.456985 6.55608 0 0 0
1.2495 0.456985 6.55608 0 0 0
0.99653 0.794169 5.98779 0 0 0
1.83748 -0.221487 7.87043 0 0 0
1.02367 0.785521 6.00593 0 0 0
1.16609 0.61843 6.31777 0 0 0
1.02905 0.785427 6.00066 0 0 0
1.05038 0.769908 6.03109 0 0 0
1.03278 0.791915 5.98488 0 0 0
1.07121 0.761343 6.04687 0 0 0
1.1832 0.645017 6.28875 0 0 0
1.8493 -0.161827 7.75518 0 0 0
1.93669 -0.260874 7.91859 0 0 0
1.32756 0.442278 6.554 0 0 0
1.91092 -0.186307 7.83928 0 0 0
1.96571 -0.254047 7.91482 0 0 0
1.22008 0.637557 6.28368 0 0 0
1.27054 0.581416 6.38446 0 0 0
1.34611 0.467124 6.52381 0 0 0
1.85422 -0.0952587 7.63613 0 0 0
1.43819 0.38112 6.72861 0 0 0
1.35551 0.455058 6.53774 0 0 0
1.28362 0.581192 6.38044 0 0 0
1.18066 0.705555 6.15186 0 0 0
1.17415 0.715238 6.1389 0 0 0
1.25807 0.618447 6.31398 0 0 0
1.29156 0.58371 6.37691 0 0 0
1.37559 0.446598 6.54713 0 0 0
1.25994 0.622959 6.30527 0 0 0
1.3165 0.556913 6.42698 0 0 0
1.4586 0.376256 6.72514 0 0 0
1.45822 0.38421 6.7212 0 0 0
1.45822 0.38421 6.7212 0 0 0
1.38229 0.447531 6.547 0 0 0
1.29527 0.587952 6.36649 0 0 0
1.29527 0.587952 6.36649 0 0 0
1.3757 0.465277 6.52843 0 0 0
1.38806 0.449858 6.54706 0 0 0
-1.31464 0.105741 7.19783 170 102 41
-1.31304 0.148543 7.06989 160 95 39
-1.30881 0.165445 7.05942 166 104 45
-1.30501 0.15923 7.06608 166 101 45
-1.29815 0.136572 7.07517 160 95 39
-1.14648 -0.113178 7.55447 173 112 47
-1.33534 0.248107 6.93803 163 97 45
-1.28036 0.14117 7.07031 162 100 43
-1.27119 0.122423 7.09004 172 106 45
-1.16426 -0.0391254 7.37276 173 117 58
-1.26159 0.136149 7.07685 180 119 52
-1.05585 -0.211683 7.69687 177 117 55
-1.25375 0.128061 7.08422 176 114 55
-1.25931 0.153615 7.06695 175 116 60
-1.23868 0.10904 7.10739 176 120 63
-1.24097 0.115287 7.0997 175 119 62
-1.14937 -0.0443016 7.37556 177 122 58
-1.2115 0.0542211 7.17224 179 125 63
-1.24736 0.138841 7.0715 175 120 63
-1.0718 -0.026975 7.75238 182 124 61
-1.13786 -0.0441531 7.38825 179 119 57
-1.18889 0.0421766 7.20068 177 121 64
-1.28669 0.247411 6.93521 178 119 63
-1.3354 0.327933 6.78616 176 116 56
-1.19543 0.0641085 7.1696 182 126 69
-1.18076 0.0480769 7.1949 177 121 64
-1.12335 -0.0477415 7.36871 172 113 55
-1.30013 0.285409 6.86981 176 117 61
-1.0027 -0.230789 7.69953 166 107 49
-1.1455 0.00893053 7.2562 160 104 47
-1.13845 0.00430931 7.26417 166 105 51
-1.21268 0.160529 7.06444 180 121 65
-1.21054 0.156441 7.06664 182 123 67
-1.26118 0.257466 6.9073 180 120 66
-1.16343 0.0827697 7.14819 169 114 60
-1.19481 0.171671 7.05668 169 114 60
-1.19481 0.171671 7.05668 169 114 60
-1.24189 0.252029 6.91386 167 114 60
-0.846382 -0.429467 8.05483 162 98 36
-0.928286 -0.289899 7.79664 168 100 37
-1.06627 -0.0642451 7.38133 171 111 59
-1.05601 -0.0678221 7.38337 162 110 60
-1.02551 -0.107064 7.47459 149 95 57
-1.05463 -0.0636278 7.37814 155 103 63
-1.04017 -0.0839581 7.40462 148 93 54
-1.22038 0.256095 6.90468 168 115 65
-1.0863 0.00411991 7.26097 163 111 63
-0.825617 -0.410111 8.02364 164 102 45
-1.25923 0.333771 6.77863 169 113 64
-1.1695 0.188008 7.04124 170 119 66
-1.21573 0.260538 6.89198 173 120 68
-1.08941 0.0411042 7.19956 157 104 60
-1.2249 0.302439 6.82831 175 120 63
-1.14981 0.186976 7.04458 169 115 68
-1.07476 0.0299449 7.21931 154 103 60
-1.05775 0.000667138 7.26006 153 100 60
-1.05824 0.000478038 7.25826 153 100 60
-1.13464 0.173511 7.05535 174 118 67
-1.08075 0.0626359 7.17262 157 104 62
-1.04853 0.00602338 7.25615 156 105 62
-1.2959 0.454583 6.57717 144 75 33
-0.880961 -0.253427 7.72277 151 93 45
-1.28094 0.431149 6.61114 151 85 37
-1.12615 0.182892 7.04542 176 120 69
-1.12615 0.182892 7.04542 176 120 69
-1.15297 0.220753 6.95253 162 109 69
-1.17824 0.263319 6.88209 172 119 65
-1.17744 0.263425 6.88471 172 119 65
-1.09937 0.135573 7.0842 164 110 64
-1.17367 0.268335 6.88087 176 121 65
-1.06253 0.07846 7.15446 167 111 62
-1.25565 0.417999 6.63098 165 101 39
-0.754157 -0.405824 8.00835 171 113 50
-1.08409 0.13748 7.0771 175 119 68
-1.08322 0.137747 7.08015 175 119 68
-1.15327 0.257786 6.88733 167 116 63
-1.13363 0.227465 6.94146 166 113 61
-1.14983 0.255271 6.89229 163 111 64
-1.2062 0.355557 6.73514 179 120 64
-1.12761 0.230036 6.93833 180 124 67
-1.18563 0.32893 6.77524 168 112 63
-1.19163 0.342012 6.75545 165 109 58
-1.11924 0.226295 6.94472 172 115 60
-1.12229 0.233734 6.93191 172 115 62
-1.00815 0.0280315 7.22625 168 113 59
-1.25042 0.446174 6.57904 163 95 32
-1.1277 0.248819 6.90186 174 118 67
-1.13368 0.269045 6.86811 174 122 64
-0.786045 -0.294063 7.79477 184 121 54
-1.14114 0.290135 6.82994 176 124 67
-0.973496 0.0118338 7.25304 171 116 59
-1.01486 0.105167 7.12797 176 117 61
-0.999214 0.0846471 7.1577 173 121 64
-0.954739 0.146252 7.40175 176 120 63
-1.01932 0.124275 7.10506 176 120 63
-1.14931 0.33894 6.75148 167 115 65
-0.580338 -0.551281 8.28273 175 105 33
-0.981268 0.0698192 7.17517 159 105 59
-1.21462 0.458735 6.55842 154 84 33
-0.687928 -0.373164 7.94318 182 114 53
-0.968865 0.0666813 7.1755 185 124 59
-1.01261 0.151615 7.06656 162 109 59
-1.07345 0.248041 6.88431 174 121 69
-1.08632 0.277052 6.84887 176 121 67
-1.10352 0.318528 6.77381 174 122 72
-0.659199 -0.370846 7.93931 178 116 55
-0.659199 -0.370846 7.93931 178 116 55
-1.01101 0.205263 7.01096 179 119 57
-1.20419 0.500273 6.48949 161 92 33
-1.1481 0.407149 6.63203 174 119 63
-1.20629 0.503729 6.4824 161 93 32
-0.938152 0.0730124 7.16056 174 113 58
-0.96979 0.145968 7.07217 178 119 63
-0.972359 0.163365 7.05475 174 115 59
-1.17947 0.500021 6.48061 165 96 37
-0.945594 0.139827 7.08185 161 105 46
-1.08556 0.359725 6.70334 173 122 65
-1.07971 0.374319 6.67962 180 123 68
-1.04924 0.335811 6.74383 173 121 73
-0.894654 0.0984614 7.13594 194 131 62
-1.06449 0.361778 6.69765 179 121 71
-1.06449 0.361778 6.69765 179 121 71
-0.949978 0.208204 7.00711 191 132 62
-1.04082 0.331807 6.74446 168 106 55
-0.845745 0.0346616 7.23659 166 103 50
-1.086 0.413845 6.61811 171 120 67
-0.938247 0.215954 7.00177 192 131 66
-0.826273 0.0201929 7.26574 171 106 50
-1.06172 0.388096 6.65717 175 114 57
-1.11657 0.476257 6.51961 162 97 39
-1.01928 0.324119 6.75522 178 118 66
-1.1089 0.481553 6.51377 146 89 36
-1.00729 0.319738 6.75949 187 127 67
-1.00729 0.319738 6.75949 187 127 67
-1.06682 0.41554 6.61186 184 124 62
-1.07428 0.429977 6.59256 177 115 58
-0.82788 0.0579904 7.20837 157 94 51
-0.9195 0.222813 6.9935 162 109 57
-1.00876 0.337976 6.73414 184 124 64
-0.492185 -0.425612 8.05671 179 112 42
-0.396413 -0.551736 8.30368 172 105 37
-1.12814 0.528523 6.42323 208 197 175
-0.97551 0.297881 6.79055 184 123 68
-1.04264 0.418081 6.61003 162 105 60
-0.872366 0.172443 7.04216 170 114 55
-0.636527 -0.18961 7.61165 182 114 49
-0.993223 0.348256 6.71572 181 121 67
-0.887505 0.215871 6.99395 162 109 59
-0.889091 0.223891 6.98981 166 110 59
-1.08255 0.495419 6.48524 208 208 200
-0.787514 0.0540031 7.22417 165 99 47
-0.951433 0.29959 6.78954 182 123 67
-0.751224 0.0147471 7.29243 185 117 52
-0.869714 0.207899 7.00537 183 122 59
-1.02208 0.420137 6.60289 206 207 193
-0.616271 -0.184827 7.60993 156 92 46
-1.03048 0.448075 6.56399 209 209 199
-1.03048 0.448075 6.56399 209 209 199
-0.812723 0.159412 7.07034 210 207 190
-0.998357 0.422442 6.59974 200 200 190
-0.745517 0.0580582 7.2232 170 131 92
-0.885001 0.265086 6.84924 209 206 197
-0.790838 0.155702 7.07825 207 207 195
-0.997463 0.463749 6.52687 112 161 193
-0.726404 0.0866623 7.19109 204 204 194
-0.810218 0.219382 6.99269 211 209 197
-0.70898 0.0903639 7.19206 211 209 197
-0.705354 0.0946206 7.18663 211 211 201
-0.731518 0.140297 7.11593 208 208 196
-0.425576 -0.287628 7.80119 214 211 202
-0.662069 0.0522346 7.23019 172 176 151
-0.678314 0.111663 7.17972 106 109 90
-0.474081 -0.151931 7.59133 213 213 203
-0.793215 0.297216 6.79088 55 57 43
-0.78973 0.308051 6.78354 60 60 48
-0.774726 0.293748 6.80279 37 36 31
-0.839092 0.393407 6.6318 209 209 199
-0.761502 0.292867 6.80025 33 32 27
-0.798251 0.342835 6.71104 206 206 198
-0.762318 0.300204 6.79062 31 30 25
-0.757298 0.296379 6.79798 33 32 27
-0.980372 0.610064 6.25167 174 168 108
-0.915646 0.526308 6.3971 210 210 198
-0.967616 0.605122 6.25768 192 181 136
-0.809502 0.401177 6.6042 204 204 192
-0.961968 0.607762 6.25159 155 145 86
-0.963966 0.612037 6.2449 151 142 75
-0.375879 -0.151381 7.59919 116 118 94
-0.65574 0.235256 6.95849 34 35 21
-0.303685 -0.232551 7.73981 208 208 200
-0.346851 -0.173086 7.6355 211 212 206
-0.346851 -0.173086 7.6355 211 212 206
-0.952528 0.620636 6.22728 114 112 61
-0.950124 0.62366 6.22443 98 100 61
-0.353342 -0.148186 7.59983 106 104 83
-0.941528 0.622543 6.21987 94 88 64
-0.932713 0.619309 6.2242 86 90 67
-0.923046 0.608483 6.24443 95 101 63
-0.916485 0.605936 6.24842 100 107 63
-0.605323 0.234459 6.95335 166 170 137
-0.914536 0.620259 6.22225 74 77 60
-0.450354 0.0835924 7.27488 127 128 110
-0.89602 0.61752 6.23299 95 106 92
-0.905565 0.626081 6.20842 113 120 104
-0.811011 0.508228 6.41847 209 209 199
-0.569893 0.238522 6.94463 155 159 132
-0.892804 0.62963 6.20524 189 189 179
-0.225623 -0.206152 7.70503 209 209 199
-0.532085 0.204734 6.99149 153 157 132
-0.267299 -0.127638 7.58426 67 61 47
-0.740106 0.464019 6.49639 162 166 133
-0.235572 -0.143122 7.60325 89 84 65
-0.685161 0.405527 6.59617 126 131 111
-0.741193 0.51695 6.4066 146 148 124
-0.431839 0.192903 6.95488 97 100 73
-0.412001 -0.140721 6.78379 66 64 49
-0.412001 -0.140721 6.78379 66 64 49
-0.411686 -0.272043 6.6813 178 178 166
-0.60639 0.421113 6.56778 130 134 107
-0.59757 0.413828 6.58142 116 121 91
-0.645457 0.473697 6.47716 125 130 108
-0.412857 0.226059 6.98733 80 92 68
-0.392911 -0.334407 6.65628 193 193 183
-0.685255 0.538543 6.37909 120 123 102
-0.363369 -0.0453853 6.92306 61 58 43
-0.399789 0.171191 6.95458 94 93 73
-0.605521 0.443845 6.53064 201 205 182
-0.394202 0.157198 6.9524 67 66 48
-0.392547 0.162705 6.95183 68 67 49
-0.403053 0.242313 6.96629 94 99 79
-0.374848 -0.345302 6.64989 215 215 205
-0.367494 -0.355202 6.65432 203 203 193
-0.382546 0.146035 6.93992 58 59 43
-0.352359 0.0171019 6.9408 73 68 46
-0.567857 0.417583 6.57764 123 125 86
-0.366506 0.117569 6.92343 49 47 35
-0.363233 0.230614 6.98547 80 81 65
-0.553374 0.42804 6.55678 124 126 87
-0.364961 -0.305785 6.61394 215 213 201
-0.350154 0.230915 6.99672 75 76 62
-0.386375 0.281498 6.90851 90 92 68
-0.382171 0.284743 6.90393 88 91 64
-0.390483 -0.128903 6.53407 214 214 204
-0.578918 0.524814 6.40661 133 137 122
-0.391601 -0.160477 6.44742 74 71 64
-0.456707 0.413208 6.6073 149 152 123
-0.387034 -0.162997 6.43314 74 71 66
-0.384334 -0.16556 6.42823 71 68 63
-0.497589 0.466966 6.50821 68 67 49
-0.595151 0.590148 6.31207 82 80 42
-0.673594 0.675986 6.14241 109 112 83
-0.382717 -0.148525 6.4171 70 70 62
-0.375336 -0.178741 6.41634 73 70 63
-0.379729 -0.0490579 6.48445 37 37 25
-0.383055 -0.13908 6.41745 80 73 63
-0.382508 -0.139024 6.41869 80 73 63
-0.469384 0.468311 6.5146 77 79 57
-0.507406 0.526949 6.42316 86 85 65
-0.33598 -0.288044 6.3715 83 78 72
-0.515896 0.539578 6.40026 69 68 47
-0.312911 0.33714 6.80635 69 68 48
-0.546732 0.588669 6.31725 84 86 73
-0.253875 -0.30865 6.53328 77 74 67
-0.307406 0.158156 6.64342 66 65 47
-0.293924 0.244176 6.72237 59 56 47
-0.329311 -0.212138 6.30605 78 73 67
-0.33709 -0.189677 6.29315 73 70 65
-0.295014 0.158238 6.61466 66 67 53
-0.328142 -0.188382 6.29658 78 75 68
-0.288848 0.159623 6.6013 71 72 56
-0.249022 0.258272 6.74121 49 46 39
-0.24096 -0.257059 6.43052 80 77 72
-0.568067 0.689557 6.13087 75 73 60
-0.149367 -0.341829 6.59676 78 79 74
-0.235307 -0.251798 6.40365 75 72 67
-0.263051 0.186395 6.59367 71 69 54
-0.144921 -0.324891 6.5883 72 71 66
-0.140636 -0.337882 6.58819 72 71 66
-0.275508 0.0894167 6.47381 72 70 49
-0.131548 -0.338617 6.58567 77 76 71
-0.254754 -0.115385 6.39007 57 54 49
-0.248584 -0.153216 6.38332 60 57 52
-0.255163 -0.119989 6.38534 56 53 46
-0.244535 -0.15569 6.38375 61 58 53
-0.222124 -0.228024 6.38135 71 68 61
-0.238684 -0.15879 6.37666 62 59 54
-0.115956 -0.350113 6.57617 78 77 72
-0.230492 -0.192344 6.37564 70 67 62
-0.116035 -0.345901 6.57311 75 74 69
-0.116035 -0.345901 6.57311 75 74 69
-0.229825 -0.175857 6.37533 65 62 55
-0.229825 -0.175857 6.37533 65 62 55
-0.235177 -0.152592 6.37202 62 59 54
-0.221421 -0.210237 6.36979 74 71 66
-0.232104 -0.157218 6.37248 62 59 54
-0.111325 -0.322126 6.57472 74 73 68
-0.231947 -0.144898 6.3707 66 63 58
-0.203877 -0.218742 6.36613 82 79 74
-0.203825 -0.212754 6.36384 77 74 65
-0.169436 -0.277308 6.40999 69 70 64
-0.0897647 -0.345854 6.55201 76 76 68
-0.226011 -0.0968724 6.34841 97 96 75
-0.187347 -0.224233 6.36657 76 73 68
-0.212362 -0.142477 6.3508 71 68 63
-0.207132 -0.141587 6.34803 73 70 63
-0.181311 -0.209735 6.35592 76 73 64
-0.198841 -0.150512 6.34524 80 80 78
-0.23792 -0.0015273 6.33115 150 144 130
-0.194087 -0.158935 6.34439 78 79 81
-0.12085 -0.285273 6.45279 79 79 71
-0.205356 -0.11882 6.33627 80 80 80
-0.205356 -0.11882 6.33627 80 80 80
-0.155284 -0.247685 6.38209 76 73 68
-0.151492 -0.250787 6.38355 78 75 70
-0.182008 -0.174502 6.33949 205 207 196
-0.0601771 -0.346976 6.5394 73 72 70
-0.181602 -0.158434 6.33691 182 180 167
-0.185044 -0.151367 6.33202 113 111 98
-0.200404 -0.0995784 6.31958 194 195 187
-0.140022 -0.23594 6.37006 205 203 190
-0.196744 -0.0961957 6.30665 196 198 185
-0.176472 -0.143102 6.32482 199 200 186
-0.203964 -0.069164 6.29039 187 187 175
-0.229385 0.0427575 6.2879 96 96 68
-0.131359 -0.233959 6.36628 206 205 200
-0.215835 -0.0121869 6.27356 169 167 154
-0.222695 0.0370602 6.27698 103 101 78
-0.22339 0.0434896 6.27687 89 85 56
-0.135155 -0.206413 6.34794 209 209 197
-0.131917 -0.208606 6.3466 185 185 173
-0.13173 -0.208607 6.34697 185 185 173
-0.177172 -0.0964095 6.27407 212 212 200
-0.211371 0.025271 6.25143 171 169 156
-0.132907 -0.182843 6.32172 215 215 205
-0.148975 -0.149028 6.29993 218 218 208
-0.205147 0.00444989 6.24128 188 186 171
-0.151686 -0.136619 6.28583 212 212 202
-0.204274 0.0153184 6.23582 188 186 173
-0.12295 -0.187685 6.31769 215 215 207
-0.201637 0.148783 6.30989 44 42 29
-0.189896 -0.0246717 6.22904 195 195 185
-0.17667 -0.057566 6.23323 203 203 193
-0.191063 -0.0116088 6.22184 188 189 175
-0.15317 -0.110954 6.2566 203 203 193
-0.15317 -0.110954 6.2566 203 203 193
-0.132669 -0.150373 6.2827 202 202 192
-0.163966 -0.0824958 6.24505 199 199 189
-0.139432 -0.134226 6.27258 200 200 190
-0.185046 -0.0282884 6.22233 198 198 188
-0.108649 -0.188715 6.31532 205 205 193
-0.200865 0.080206 6.24042 136 134 122
-0.114502 -0.176968 6.30359 202 202 192
-0.151722 -0.105071 6.25404 203 203 193
-0.103279 -0.191799 6.31763 204 204 194
-0.195344 0.0266592 6.21418 192 190 177
-0.196198 0.0624299 6.22423 175 172 157
-0.181366 -0.0182059 6.213 201 201 191
-0.154569 -0.0834442 6.22954 201 201 191
-0.154941 -0.0768301 6.22877 201 201 191
-0.185459 0.0402235 6.20329 189 190 176
-0.124874 -0.13024 6.24895 203 203 193
-0.129401 -0.117713 6.24293 204 204 194
-0.183642 0.039773 6.19942 191 192 178
-0.180365 0.0241805 6.19621 190 190 178
-0.0893005 -0.177075 6.29108 202 202 192
-0.13545 -0.0947275 6.22295 202 202 192
-0.140243 -0.0780163 6.21774 199 199 189
-0.178548 0.0865092 6.20654 178 179 163
-0.119607 -0.114481 6.22622 200 200 190
-0.148368 -0.0446361 6.19445 201 201 191
-0.170023 0.0462291 6.18447 192 190 178
-0.168274 0.0360978 6.18065 198 196 184
-0.098193 -0.146384 6.24549 202 202 192
-0.109243 -0.116181 6.22089 204 204 194
-0.159936 0.0211048 6.17541 196 196 184
-0.156706 0.00513559 6.17442 201 201 191
-0.16575 0.0705713 6.18453 194 194 182
-0.11937 -0.0810039 6.2011 205 205 193
-0.10664 -0.107868 6.21615 204 204 194
-0.15037 0.00504733 6.17077 191 191 183
-0.0803151 -0.153258 6.24704 205 205 195
-0.0952284 -0.126936 6.22306 200 200 188
-0.0952284 -0.126936 6.22306 200 200 188
-0.128796 -0.0500339 6.18478 203 203 193
-0.0839463 -0.137316 6.2287 203 204 190
-0.0839463 -0.137316 6.2287 203 204 190
-0.0739818 -0.146094 6.2308 200 200 190
-0.123715 -0.0304253 6.17027 191 192 186
-0.097636 -0.0933271 6.19646 186 184 169
-0.11586 -0.0461891 6.17336 194 194 184
0.0739072 -0.287808 6.47727 195 195 185
-0.128062 -0.00196445 6.15728 186 186 178
-0.111554 0.566463 6.4991 64 61 54
-0.150739 0.550234 6.39809 64 61 54
-0.140631 0.0567481 6.15514 186 183 174
-0.140868 0.497929 6.39067 68 69 55
-0.141016 0.497548 6.39011 68 69 55
-0.142447 0.0773886 6.15971 202 202 192
-0.135841 0.536617 6.41654 66 64 52
-0.124178 0.00237805 6.15388 199 199 189
-0.141352 0.0924182 6.16229 204 204 194
-0.141352 0.0924182 6.16229 204 204 194
-0.0771093 -0.114891 6.19763 202 200 188
-0.128326 0.0138663 6.14803 191 191 183
-0.120686 -0.00828584 6.15231 204 204 192
-0.118139 -0.0140648 6.15233 191 189 174
-0.121862 0.000850706 6.15112 200 201 185
-0.130259 0.152242 6.20823 198 198 186
-0.124555 0.017044 6.14593 205 203 191
-0.135271 0.0821871 6.15329 204 204 194
-0.10994 -0.0325357 6.14929 194 193 189
-0.133847 0.0770342 6.15271 206 204 191
-0.105874 -0.0332736 6.1499 200 201 187
-0.06269 -0.124451 6.19841 203 200 191
-0.116781 0.0114441 6.1417 204 202 190
-0.126219 0.0600974 6.14489 169 166 159
-0.119597 0.0258262 6.14052 199 197 185
-0.119135 0.0259566 6.14139 199 197 185
-0.119597 0.0258262 6.14052 199 197 185
-0.117022 0.0181544 6.14085 182 180 168
-0.100559 -0.039751 6.14748 191 191 183
-0.127843 0.0833563 6.147 203 203 193
-0.127843 0.0833563 6.147 203 203 193
-0.0919413 -0.0564649 6.15336 183 184 170
-0.109574 -0.00813756 6.13729 213 211 199
-0.0839883 -0.0722221 6.15751 185 182 173
-0.0839883 -0.0722221 6.15751 185 182 173
-0.101961 -0.0248584 6.13549 204 203 182
-0.101961 -0.0248584 6.13549 204 203 182
-0.119191 0.0586015 6.13996 205 203 190
-0.114363 0.0337136 6.13297 199 199 191
-0.123216 0.503102 6.35759 82 85 68
-0.115515 0.0571658 6.13432 198 199 193
-0.115515 0.0571658 6.13432 198 199 193
-0.0968297 -0.0282426 6.13113 188 188 180
-0.102883 -0.00635316 6.12691 202 202 192
-0.10023 -0.0184382 6.12672 203 203 193
-0.102252 0.00511388 6.12049 202 202 192
-0.102252 0.00511388 6.12049 202 202 192
-0.107072 0.0350356 6.12375 205 205 197
-0.0957756 -0.0172656 6.12062 204 204 194
0.0122465 0.433486 6.60384 173 170 153
-0.102578 0.0153543 6.11984 205 205 197
-0.100759 0.0126309 6.11841 201 201 193
-0.116623 0.525979 6.35109 67 67 57
-0.0720701 -0.066418 6.13769 206 208 197
-0.103073 0.0301867 6.11689 205 205 197
0.00797501 0.440007 6.58344 172 169 152
-0.109348 0.0962265 6.13013 206 208 197
-0.061677 -0.0796303 6.14428 207 207 199
-0.113648 0.180728 6.16155 215 212 203
-0.115786 0.20513 6.16557 213 210 201
-0.103692 0.0744847 6.12347 147 148 140
-0.102821 0.0789172 6.12643 161 163 152
-0.106233 0.0993747 6.12695 204 206 195
-0.0315443 -0.118789 6.17496 205 205 195
-0.111717 0.190963 6.15657 213 211 198
-0.107606 0.156303 6.13941 212 210 198
-0.0848791 -0.0107974 6.09355 194 194 184
-0.085747 -0.00686388 6.08883 204 204 194
-0.0854025 -0.0066957 6.08958 204 204 194
-0.0548509 -0.0666847 6.11992 189 188 184
-0.0194865 -0.121036 6.16316 184 179 160
-0.0289582 -0.104991 6.14865 193 190 183
-0.0905306 0.0899224 6.11051 185 183 171
-0.0808337 0.00268459 6.07732 167 164 155
-0.100977 0.595922 6.34037 62 59 50
-0.0931291 0.538981 6.32802 68 66 54
-0.0839647 0.0736424 6.09445 226 226 214
-0.0832542 0.104705 6.10519 203 201 189
-0.0881573 0.59363 6.34382 54 52 37
-0.0852828 0.588533 6.3467 49 48 30
0.00638138 -0.149238 6.16318 206 205 187
-0.0239751 -0.0884778 6.1261 196 198 187
-0.0806253 0.555851 6.33129 75 76 60
-0.0806253 0.555851 6.33129 75 76 60
-0.0886607 0.22051 6.12878 216 213 204
-0.0886607 0.22051 6.12878 216 213 204
-0.0181971 -0.0841433 6.11579 153 154 149
-0.0762742 0.477987 6.27793 140 142 128
-0.0158065 -0.0838357 6.11905 206 206 204
-0.0725746 0.482111 6.27774 198 195 186
-0.0786774 0.213578 6.1234 211 212 196
-0.0797914 0.233092 6.12773 210 207 198
-0.078373 0.237542 6.12742 211 208 199
-0.0614238 0.0913188 6.07421 183 183 171
-0.0614238 0.0913188 6.07421 183 183 171
-0.0691496 0.38918 6.20748 205 205 195
-0.0511942 0.0225996 6.05852 194 191 186
-0.00863347 -0.0621184 6.08942 184 182 170
0.00275119 -0.080784 6.10209 129 125 114
0.00275119 -0.080784 6.10209 129 125 114
0.0250445 -0.116081 6.12177 186 186 176
-0.0390204 0.0347102 6.05746 203 200 191
-0.0355512 0.0211813 6.05529 212 209 194
-0.0457869 0.602104 6.32606 185 190 170
-0.0157403 -0.0231282 6.06933 189 186 169
-0.0413957 0.0722075 6.06179 137 138 132
-0.0239123 0.584077 6.36098 201 201 189
-0.0173388 -0.00127488 6.06112 214 211 204
0.00664663 -0.056199 6.08178 205 205 197
-0.0249724 0.0347344 6.05223 209 207 194
0.0027013 -0.0375146 6.07237 214 212 197
-0.0347309 0.0940616 6.05456 208 205 196
-0.0439759 0.402068 6.19025 210 207 198
-0.0387068 0.181951 6.0747 208 208 198
-0.0305592 0.111952 6.05609 210 208 196
0.00414407 0.581335 6.3653 205 202 193
-0.0249339 0.0960833 6.05179 126 125 120
-0.0248342 0.0920514 6.04958 200 200 192
0.0328038 -0.072072 6.08749 203 204 198
-0.0125353 0.0529358 6.04922 161 154 146
-0.0128587 0.0574926 6.04638 168 165 158
0.0392547 -0.0756361 6.08782 209 209 197
-0.006009 0.0508635 6.04776 212 213 207
-0.00237499 0.0408936 6.04981 214 215 207
-0.0170081 0.0969565 6.04573 201 202 194
0.0229779 0.580748 6.36845 208 208 198
-0.00452407 0.0644039 6.04533 186 182 171
-0.0193872 0.142023 6.05238 121 121 113
-0.0163258 0.127592 6.04957 170 167 152
0.00114676 0.0596097 6.04692 210 208 196
0.0280872 -0.0112059 6.06307 210 212 201
0.0148394 0.0256267 6.05269 200 197 188
-0.00574313 0.103603 6.04352 204 199 193
0.0206687 0.0200373 6.0563 208 210 199
-0.0034959 0.106498 6.041 201 195 183
0.00462169 0.0783792 6.04217 213 210 203
-0.0135891 0.185312 6.05383 212 209 200
-0.00841984 0.155045 6.04753 133 129 117
0.021611 0.0358239 6.05038 213 210 201
0.0665954 0.560626 6.40242 175 172 163
0.0478311 -0.0297155 6.06711 208 205 196
-0.0656915 0.6805 6.17 140 133 123
0.0548978 -0.0327795 6.07061 211 207 195
0.0394461 0.0139961 6.05398 217 214 199
0.000279394 0.173095 6.04923 211 208 199
0.0438911 0.0131813 6.05265 204 202 189
0.0702156 -0.0541205 6.07424 212 212 204
0.0306609 0.611913 6.31568 210 207 198
0.0627132 0.580598 6.36471 205 202 193
0.0328968 0.0651911 6.04004 137 134 119
0.0823413 -0.0581848 6.07123 216 215 197
0.0323227 0.0881282 6.03705 193 192 188
0.0323227 0.0881282 6.03705 193 192 188
0.0815702 -0.0499514 6.06876 217 215 202
0.0640708 0.001006 6.05562 154 151 142
0.0374745 0.61901 6.30473 212 209 200
0.0683766 0.587502 6.3526 209 206 197
0.0339998 0.0943026 6.0361 213 213 205
0.0664187 0.592423 6.3484 209 206 197
-0.0391247 0.681341 6.16964 214 212 200
0.0843203 -0.0345189 6.06522 218 215 206
0.0843203 -0.0345189 6.06522 218 215 206
-0.0595485 0.70521 6.1229 197 194 179
0.0605967 0.0390161 6.0447 215 213 201
0.11047 0.561598 6.40384 213 210 201
0.0659514 0.0320846 6.04714 213 212 207
0.0581523 0.0555786 6.0396 215 213 198
0.0750444 0.00766161 6.05095 214 212 199
0.0620953 0.0478031 6.04205 216 213 204
0.0552954 0.0713558 6.03892 212 212 202
0.111813 0.563647 6.39682 211 208 199
0.0843629 -0.0122366 6.05634 218 215 206
0.0849143 -0.0120309 6.05742 218 215 206
0.0524458 0.0824634 6.03465 220 214 200
0.0524458 0.0824634 6.03465 220 214 200
-0.030119 0.694484 6.16024 207 207 195
0.0613236 0.617237 6.30908 209 206 197
0.0564027 0.0838103 6.03136 208 208 198
0.0464041 0.129401 6.03157 213 210 201
0.082699 0.0158603 6.04897 215 213 201
0.0932314 0.589793 6.35032 174 172 160
0.0628128 0.0908331 6.0331 149 145 136
0.0628128 0.0908331 6.0331 149 145 136
0.123625 0.567886 6.39183 212 209 200
0.0242285 0.64934 6.22447 209 209 199
0.0738337 0.0704854 6.03442 211 208 203
0.0824639 0.0688492 6.03534 221 219 207
0.0929727 0.0398145 6.03982 214 211 202
-0.172176 0.772669 5.83603 209 209 199
0.115905 0.594558 6.34124 212 209 200
0.104479 0.617082 6.3066 211 209 197
0.096998 0.0904822 6.02937 214 211 202
0.0902739 0.115582 6.02613 213 210 201
-0.00291696 0.710286 6.11355 210 208 196
0.129638 0.608903 6.31123 214 211 202
0.121936 0.622858 6.29837 213 210 201
0.122231 0.622987 6.29894 213 210 201
0.144419 0.601116 6.33202 216 213 204
0.132608 0.614691 6.30529 216 213 204
0.125588 0.626347 6.29237 219 216 207
-0.000659813 0.736001 6.06655 212 210 198
-0.0452835 0.783991 5.98218 227 220 212
0.252602 0.536418 6.46322 214 211 202
0.180161 0.602012 6.32932 216 213 204
-0.0693864 0.810006 5.92366 205 206 201
-0.044549 0.799831 5.94529 213 210 201
0.191109 0.60726 6.3243 219 216 207
0.191109 0.60726 6.3243 219 216 207
0.209823 0.460697 6.27991 213 210 201
0.177367 0.628713 6.2888 217 214 205
-0.00630231 0.774694 5.98831 211 208 199
0.341603 -0.0176173 6.30869 213 210 201
0.117755 0.69034 6.18407 214 211 202
0.209527 0.608553 6.32554 216 214 202
0.00146266 0.781491 5.98804 209 206 197
-0.0136287 0.802926 5.95749 210 210 198
0.13548 0.677738 6.18787 215 212 203
0.143269 0.674829 6.19799 213 211 199
0.149674 0.669564 6.20467 206 204 191
0.142371 0.67688 6.18895 215 213 201
0.0175953 0.791473 5.97809 213 208 188
0.0161659 0.790896 5.97587 213 208 188
0.187241 0.195985 6.02127 218 215 208
0.0229675 0.789494 5.97012 166 163 154
0.0844843 0.740383 6.0648 201 201 189
0.086448 0.742442 6.06127 0 0 0
-0.00818274 0.823247 5.9124 0 0 0
0.102564 0.7344 6.08461 0 0 0
0.000966477 0.817552 5.9196 0 0 0
0.147569 0.695602 6.14954 0 0 0
0.202964 0.202247 6.02633 0 0 0
0.19783 0.24729 6.03664 0 0 0
0.149266 0.702723 6.13663 0 0 0
0.20311 0.356572 6.07604 0 0 0
0.129175 0.725144 6.0946 0 0 0
0.24578 0.637006 6.27977 0 0 0
0.251776 0.594712 6.26152 0 0 0
0.151724 0.71291 6.12089 0 0 0
0.151724 0.71291 6.12089 0 0 0
0.262593 0.526343 6.24589 0 0 0
0.266768 0.508075 6.24417 0 0 0
0.266902 0.634437 6.28176 0 0 0
0.176803 0.700856 6.13617 0 0 0
0.267642 0.638824 6.27453 0 0 0
0.267642 0.638824 6.27453 0 0 0
0.0732768 0.789742 5.96354 0 0 0
0.0732768 0.789742 5.96354 0 0 0
0.0428903 0.818887 5.90968 0 0 0
0.275141 0.639053 6.27369 0 0 0
0.086489 0.793771 5.95861 0 0 0
0.0928191 0.793826 5.96064 0 0 0
0.151518 0.744626 6.04944 0 0 0
0.0999907 0.792239 5.96168 0 0 0
-0.00101287 0.645989 5.68863 0 0 0
0.317272 0.633141 6.28553 0 0 0
0.189167 0.726476 6.08018 0 0 0
0.0988385 0.804498 5.94182 0 0 0
0.0822559 0.824562 5.90611 0 0 0
0.235879 0.699509 6.13306 0 0 0
0.0653295 0.847044 5.85949 0 0 0
0.220673 0.725324 6.08131 0 0 0
0.239283 0.715745 6.09423 0 0 0
0.110376 0.831955 5.88976 0 0 0
0.12561 0.821383 5.90706 0 0 0
0.537351 0.500153 6.52945 0 0 0
0.395627 0.621457 6.29778 0 0 0
0.234982 0.749119 6.03124 0 0 0
0.272305 0.728876 6.06721 0 0 0
0.461886 0.602685 6.3385 0 0 0
0.983161 0.177062 7.09334 0 0 0
1.03406 0.142876 7.15401 0 0 0
0.970371 0.197024 7.0532 0 0 0
1.07279 0.117256 7.18439 0 0 0
0.622414 0.496743 6.52839 0 0 0
1.0799 0.117017 7.18048 0 0 0
0.627708 0.498669 6.52547 0 0 0
1.10326 0.0971475 7.20979 0 0 0
0.973416 0.213708 7.01932 0 0 0
0.472722 0.624972 6.28869 0 0 0
0.472722 0.624972 6.28869 0 0 0
0.438938 0.813612 6.3125 0 0 0
1.15848 0.0480618 7.27892 0 0 0
0.640843 0.491792 6.53216 0 0 0
0.640843 0.491792 6.53216 0 0 0
0.981515 0.211406 7.02147 0 0 0
0.300459 0.750561 6.02147 0 0 0
0.975039 0.21871 7.0109 0 0 0
0.297784 0.754914 6.01427 0 0 0
1.09197 0.115658 7.17214 0 0 0
0.507951 0.6055 6.3269 0 0 0
1.00031 0.201834 7.03932 0 0 0
0.991196 0.20932 7.02299 0 0 0
0.313173 0.74248 6.0236 0 0 0
0.962406 0.243311 6.96939 0 0 0
0.35632 0.722942 6.0832 0 0 0
0.533752 0.594855 6.34382 0 0 0
1.03614 0.178657 7.06769 0 0 0
0.582201 0.559873 6.41192 0 0 0
1.06979 0.151683 7.10813 0 0 0
0.493387 0.630833 6.27519 0 0 0
0.312755 0.759164 6.00361 0 0 0
0.860363 0.322513 6.79709 0 0 0
1.12021 0.104683 7.16933 0 0 0
0.317755 0.755776 6.00945 0 0 0
1.06102 0.166097 7.0835 0 0 0
1.06484 0.160111 7.08748 0 0 0
1.00249 0.221599 6.9946 0 0 0
1.02579 0.203014 7.02796 0 0 0
0.643693 0.522751 6.48116 0 0 0
0.86079 0.335099 6.7822 0 0 0
1.13534 0.100408 7.16893 0 0 0
0.640669 0.530545 6.46551 0 0 0
0.388841 0.714208 6.08987 0 0 0
1.01485 0.226045 6.99331 0 0 0
1.07377 0.168124 7.06722 0 0 0
1.07377 0.168124 7.06722 0 0 0
1.01389 0.230308 6.97957 0 0 0
0.562983 0.598162 6.33405 0 0 0
0.614377 0.564119 6.40885 0 0 0
0.614377 0.564119 6.40885 0 0 0
1.08377 0.16187 7.07083 0 0 0
1.09586 0.156158 7.08186 0 0 0
0.862981 0.339079 6.74513 0 0 0
0.982971 0.258826 6.92234 0 0 0
0.5236 0.630177 6.26423 0 0 0
0.843806 0.357164 6.71559 0 0 0
0.701371 0.503085 6.50668 0 0 0
1.03021 0.228336 6.97016 0 0 0
1.03021 0.228336 6.97016 0 0 0
0.707113 0.49829 6.51194 0 0 0
0.39215 0.731873 6.05432 0 0 0
1.08432 0.176163 7.04007 0 0 0
0.992012 0.26141 6.90944 0 0 0
0.988719 0.27441 6.90052 0 0 0
1.09277 0.17285 7.03932 0 0 0
1.03896 0.227588 6.95597 0 0 0
0.247027 0.868985 5.82691 0 0 0
1.16744 0.133621 7.13457 0 0 0
1.0581 0.217081 6.97449 0 0 0
1.00493 0.26708 6.90052 0 0 0
0.567493 0.627285 6.27916 0 0 0
0.823499 0.408468 6.62834 0 0 0
1.16146 0.147116 7.10939 0 0 0
1.07353 0.207848 6.97919 0 0 0
1.0714 0.215144 6.96538 0 0 0
0.74873 0.493279 6.50615 0 0 0
1.03912 0.247872 6.90617 0 0 0
1.03912 0.247872 6.90617 0 0 0
0.748501 0.495499 6.49856 0 0 0
0.673636 0.564925 6.38748 0 0 0
1.08779 0.214117 6.95806 0 0 0
0.729225 0.523889 6.4541 0 0 0
0.739294 0.513193 6.46704 0 0 0
0.769663 0.493212 6.50439 0 0 0
0.290604 0.866837 5.82334 0 0 0
1.07683 0.240678 6.91986 0 0 0
0.852442 0.429705 6.60977 0 0 0
0.655571 0.59336 6.33583 0 0 0
0.638372 0.608853 6.30943 0 0 0
0.746071 0.519102 6.45707 0 0 0
0.765206 0.504339 6.48323 0 0 0
1.14958 0.202763 7.01485 0 0 0
0.789141 0.487578 6.50814 0 0 0
1.03897 0.283225 6.83523 0 0 0
0.889655 0.411167 6.61772 0 0 0
0.889655 0.411167 6.61772 0 0 0
1.05323 0.283202 6.83353 0 0 0
0.769643 0.528403 6.44324 0 0 0
1.15819 0.225531 6.98275 0 0 0
0.661598 0.614729 6.29169 0 0 0
1.05675 0.286846 6.8242 0 0 0
1.16039 0.229175 6.97267 0 0 0
1.21463 0.200666 7.04151 0 0 0
0.790537 0.521379 6.4479 0 0 0
1.11527 0.262498 6.89406 0 0 0
1.05606 0.300355 6.80296 0 0 0
0.464595 0.768877 5.98771 0 0 0
0.685538 0.609881 6.29382 0 0 0
0.685538 0.609881 6.29382 0 0 0
0.693329 0.609728 6.29364 0 0 0
0.465795 0.776712 5.97577 0 0 0
0.945128 0.394842 6.62021 0 0 0
0.476492 0.774924 5.9783 0 0 0
0.943774 0.403732 6.61027 0 0 0
0.48666 0.772462 5.97806 0 0 0
0.495447 0.768071 5.98669 0 0 0
0.952041 0.406722 6.60478 0 0 0
0.952041 0.406722 6.60478 0 0 0
0.500375 0.766101 5.98999 0 0 0
0.495406 0.769347 5.97843 0 0 0
0.842442 0.526711 6.44244 0 0 0
1.14831 0.291242 6.85651 0 0 0
1.23462 0.23955 6.97627 0 0 0
1.26502 0.219074 7.0174 0 0 0
1.20229 0.26576 6.92614 0 0 0
1.19166 0.278591 6.89168 0 0 0
0.338251 0.923785 5.72223 0 0 0
1.20964 0.274773 6.90856 0 0 0
0.436708 0.859369 5.84056 0 0 0
0.535759 0.778946 5.9637 0 0 0
0.926941 0.522024 6.4878 0 0 0
0.442043 0.870507 5.8243 0 0 0
1.03651 0.409888 6.60206 0 0 0
0.450889 0.882278 5.80066 0 0 0
0.471648 0.870985 5.81791 0 0 0
0.486413 0.861818 5.82939 0 0 0
0.469947 0.886667 5.79073 0 0 0
0.467318 0.888276 5.78697 0 0 0
0.608194 0.778095 5.95796 0 0 0
1.07239 0.445664 6.5717 0 0 0
1.35309 0.260334 6.94393 0 0 0
0.482656 0.8895 5.78429 0 0 0
0.522815 0.856874 5.83284 0 0 0
0.631922 0.784514 5.95085 0 0 0
1.38102 0.264994 6.94782 0 0 0
0.535665 0.861726 5.82135 0 0 0
0.438898 0.939615 5.6956 0 0 0
1.31345 0.328121 6.81858 0 0 0
0.670496 0.785716 5.9498 0 0 0
0.670496 0.785716 5.9498 0 0 0
1.29201 0.346052 6.7607 0 0 0
1.27025 0.368438 6.73069 0 0 0
1.28617 0.359558 6.74421 0 0 0
1.28617 0.359558 6.74421 0 0 0
1.23124 0.389525 6.6681 0 0 0
0.573019 0.867018 5.80763 0 0 0
0.573019 0.867018 5.80763 0 0 0
1.28978 0.365543 6.72094 0 0 0
1.05656 0.548401 6.4209 0 0 0
1.16168 0.459648 6.54997 0 0 0
1.248 0.406432 6.63739 0 0 0
1.00431 0.611857 6.32242 0 0 0
0.647952 0.870918 5.8053 0 0 0
1.04564 0.609999 6.3167 0 0 0
0.559998 0.943026 5.67703 0 0 0
1.06162 0.621283 6.31087 0 0 0
1.35623 0.400447 6.66806 0 0 0
1.13472 0.574387 6.38913 0 0 0
1.03557 0.654414 6.23732 0 0 0
1.41399 0.386322 6.70938 0 0 0
1.43965 0.37031 6.7395 0 0 0
1.16146 0.583363 6.37756 0 0 0
1.16527 0.592441 6.36687 0 0 0
0.620188 0.948576 5.67254 0 0 0
1.23561 0.58223 6.38402 0 0 0
0.984387 0.774765 6.07418 0 0 0
0.976711 0.77153 6.05608 0 0 0
1.29377 0.550511 6.43819 0 0 0
1.39043 0.45307 6.5375 0 0 0
0.971246 0.773942 6.02951 0 0 0
1.18263 0.645503 6.28947 0 0 0
1.2063 0.622392 6.31226 0 0 0
1.09035 0.713264 6.15622 0 0 0
1.28843 0.574455 6.3958 0 0 0
1.02055 0.758429 6.06795 0 0 0
1.25481 0.599814 6.34563 0 0 0
1.28015 0.585469 6.37148 0 0 0
1.31363 0.574023 6.39281 0 0 0
1.29238 0.59192 6.3585 0 0 0
1.29238 0.59192 6.3585 0 0 0
1.30108 0.588445 6.36137 0 0 0
1.31571 0.58129 6.37912 0 0 0
1.0339 0.774568 6.02642 0 0 0
1.26982 0.62045 6.30943 0 0 0
1.28674 0.608873 6.32305 0 0 0
1.0951 0.742881 6.08348 0 0 0
1.09826 0.752086 6.07036 0 0 0
1.35766 0.577745 6.37082 0 0 0
1.6039 0.418521 6.66726 0 0 0
1.09792 0.757207 6.05771 0 0 0
1.30163 0.620004 6.29536 0 0 0
1.17811 0.710952 6.14956 0 0 0
1.18763 0.709246 6.141 0 0 0
1.19636 0.706492 6.15062 0 0 0
1.21865 0.691626 6.17118 0 0 0
1.17028 0.727405 6.11215 0 0 0
-1.40043 0.11188 7.17836 163 94 29
-1.44159 0.151497 7.10053 162 92 32
-1.5172 0.186907 6.94743 166 97 28
-1.42179 0.135821 7.13101 160 92 31
-1.50293 0.182573 6.95148 164 96 31
-1.38656 0.119549 7.16884 160 90 31
-1.35616 0.0992712 7.21157 158 87 31
-1.38248 0.121335 7.16582 156 85 29
-1.50058 0.196738 6.93647 158 87 31
-1.34822 0.10043 7.20724 158 88 28
-1.34436 0.0985642 7.20738 155 84 28
-1.34937 0.105121 7.20031 155 86 29
-1.35768 0.112579 7.18604 155 86 29
-1.34257 0.102093 7.20352 153 82 28
-1.49067 0.197448 6.92999 155 85 26
-1.33167 0.106144 7.2025 162 93 34
-1.28485 0.0624913 7.26017 166 98 27
-1.27188 0.0559512 7.26307 168 97 31
-1.3208 0.10896 7.18223 167 97 35
-1.26784 0.0576186 7.25838 165 93 34
-1.23449 0.0246763 7.30652 165 95 33
-1.28567 0.0736735 7.21094 168 99 34
-1.31112 0.107002 7.17738 166 96 34
-1.29107 0.0843669 7.18145 158 89 30
-1.30749 0.108411 7.15279 160 91 32
-1.3412 0.14669 7.10666 161 93 32
-1.26638 0.0705229 7.19402 164 99 35
-1.11485 -0.0598026 7.39723 164 94 32
-1.33611 0.149732 7.05766 165 97 36
-1.29919 0.112909 7.10592 159 93 33
-1.23623 0.0668516 7.17896 160 94 34
-1.24266 0.0831516 7.156 155 85 33
-1.31067 0.164915 7.05617 159 86 31
-1.09611 -0.0550324 7.35313 154 84 32
-1.1908 0.0339735 7.20953 150 80 31
-1.20681 0.0547988 7.18117 151 81 29
-1.44572 0.266414 6.81349 157 84 31
-1.44572 0.266414 6.81349 157 84 31
-1.13801 -0.00191922 7.26435 137 73 27
-1.25571 0.118847 7.09076 149 82 30
-1.28228 0.155784 7.05945 144 76 27
-1.28228 0.155784 7.05945 144 76 27
-1.28228 0.155784 7.05945 144 76 27
-1.4431 0.277627 6.7872 148 78 27
-1.20348 0.0744428 7.15149 146 76 27
-1.12259 -0.00675833 7.25619 162 93 34
-1.04918 -0.0606118 7.37206 161 91 29
-1.04467 -0.065442 7.37802 160 90 28
-1.43656 0.281277 6.77744 142 74 25
-1.25112 0.151807 7.06081 152 81 29
-1.24874 0.153783 7.05789 156 85 33
-1.23771 0.155702 7.05898 155 82 27
-1.23173 0.158723 7.05794 159 87 29
-1.07903 -0.000618277 7.25809 153 84 29
-1.05559 -0.0253377 7.28786 157 87 27
-1.04762 -0.0228838 7.3048 153 83 23
-1.06905 0.00475556 7.25414 150 80 28
-1.29903 0.25252 6.92486 155 85 33
-1.10317 0.0477151 7.18617 157 88 29
-1.20696 0.167058 7.05257 146 78 29
-1.28066 0.243835 6.93247 154 85 30
-1.10909 0.0720352 7.16063 164 93 37
-1.09139 0.0529457 7.18298 159 90 33
-1.04773 0.0110755 7.24429 151 81 29
-1.2826 0.249294 6.92286 152 83 28
-1.25669 0.248021 6.91978 162 92 30
-1.34811 0.330171 6.78047 157 88 31
-1.26339 0.248576 6.89504 155 85 26
-1.25633 0.250511 6.91135 155 85 26
-1.09716 0.0917801 7.12737 168 99 32
-1.28955 0.286341 6.85896 163 95 32
-1.26512 0.266091 6.88718 162 97 31
-1.10379 0.115924 7.10809 164 99 31
-1.15471 0.183728 7.04044 165 100 34
-1.24872 0.26033 6.89399 164 99 33
-1.24872 0.26033 6.89399 164 99 33
-1.24032 0.265209 6.89112 148 81 26
-1.08486 0.109704 7.09747 163 95 32
-1.08486 0.109704 7.09747 163 95 32
-1.22615 0.264521 6.88622 153 87 27
-1.27298 0.313245 6.81226 163 95 30
-1.18907 0.245802 6.9208 165 95 33
-1.26179 0.308494 6.81462 169 104 36
-1.07277 0.141775 7.07728 172 98 33
-1.11503 0.192549 7.02662 163 98 30
-1.11393 0.19308 7.02891 163 98 30
-1.16423 0.22606 6.94661 170 99 33
-1.16386 0.232698 6.9315 175 109 35
-1.20348 0.27222 6.8777 170 103 33
-1.18137 0.252502 6.90067 170 105 37
-0.975509 0.0646073 7.17683 157 91 33
-1.15568 0.233032 6.92757 164 95 30
-1.00608 0.0972207 7.13358 156 89 34
-1.22855 0.300177 6.82589 212 214 201
-1.23891 0.309012 6.81054 215 209 197
-1.23891 0.309012 6.81054 215 209 197
-1.15019 0.229882 6.93151 160 108 60
-1.17075 0.25247 6.89641 158 96 37
-1.1414 0.235061 6.92969 196 192 181
-1.13517 0.234122 6.92587 209 207 195
-1.1543 0.252873 6.89405 194 192 179
-1.01373 0.128712 7.08683 170 101 34
-1.1702 0.268274 6.86798 204 201 192
-1.1314 0.235889 6.9216 201 199 187
-1.16415 0.263892 6.8748 199 197 185
-0.854155 -0.00543355 7.30094 168 97 35
-1.02221 0.146853 7.06978 176 105 39
-1.12037 0.233523 6.92317 208 206 194
-1.18422 0.289284 6.83344 205 205 193
-1.22072 0.327406 6.77535 208 208 196
-1.11437 0.234546 6.92211 209 207 195
-1.11437 0.234546 6.92211 209 207 195
-0.832624 -0.00809211 7.30627 167 97 35
-1.12065 0.24212 6.90257 210 208 196
-0.794016 -0.0268796 7.34913 171 102 37
-1.09439 0.230391 6.93151 214 212 200
-1.11973 0.24694 6.89153 210 208 196
-1.03207 0.194505 7.02147 211 209 197
-0.856276 0.041762 7.2373 208 210 197
-1.10124 0.245155 6.89446 208 208 198
-1.17355 0.315316 6.7847 141 141 131
-1.07834 0.239046 6.91762 209 206 197
-1.19462 0.341161 6.74881 125 125 115
-0.951349 0.140811 7.08255 198 198 186
-0.945575 0.139602 7.08166 203 203 191
-1.10929 0.272773 6.84741 118 117 112
-1.08871 0.260477 6.87084 208 210 199
-1.0737 0.247911 6.8839 172 192 190
-1.0931 0.266495 6.85586 200 198 185
-0.949624 0.158422 7.05818 207 207 197
-1.14737 0.330706 6.7587 208 208 196
-1.06594 0.274145 6.84037 202 202 192
-0.728418 0.0109287 7.29031 206 206 196
-1.13492 0.344255 6.73054 175 176 162
-0.932342 0.202869 7.01594 201 203 200
-1.1677 0.3808 6.67614 213 211 199
-0.887897 0.15934 7.05763 86 86 74
-1.12036 0.343451 6.73058 210 210 198
-1.03479 0.272838 6.83959 187 187 175
-1.02287 0.264766 6.85475 199 199 187
-1.01905 0.262509 6.85594 184 184 172
-0.866539 0.162502 7.05425 106 109 98
-0.722064 0.0529553 7.24335 208 205 196
-0.722064 0.0529553 7.24335 208 205 196
-1.00903 0.270616 6.84148 194 194 182
-1.03431 0.293634 6.80157 210 208 196
-0.891133 0.205861 7.00763 95 97 84
-1.11698 0.369886 6.68807 201 200 169
-1.07765 0.334898 6.73855 209 210 196
-0.695537 0.0355061 7.25727 204 204 192
-1.02757 0.296431 6.79284 207 208 190
-1.0204 0.294431 6.79698 199 201 180
-0.889178 0.223783 6.98968 33 33 23
-0.872179 0.207348 7.0004 37 39 28
-1.04017 0.322831 6.75771 199 200 182
-1.15158 0.422229 6.60366 126 107 65
-1.17961 0.446978 6.56353 166 142 78
-0.789755 0.155644 7.08028 44 44 34
-0.973257 0.289014 6.81377 184 187 168
-0.940905 0.273246 6.85118 43 41 28
-1.15335 0.449616 6.55961 86 86 62
-1.0288 0.352038 6.70927 137 129 64
-1.0288 0.352038 6.70927 137 129 64
-0.8225 0.214093 6.99628 28 28 18
-0.8225 0.214093 6.99628 28 28 18
-1.03899 0.362815 6.69373 125 116 59
-1.06543 0.387803 6.65044 111 110 62
-0.996208 0.339846 6.72567 133 129 58
-0.996208 0.339846 6.72567 133 129 58
-1.00322 0.366331 6.68332 109 117 60
-1.00322 0.366331 6.68332 109 117 60
-1.07592 0.443581 6.56692 177 182 152
-1.08944 0.453801 6.54805 206 208 194
-1.06863 0.460071 6.5404 144 147 126
-0.970805 0.396839 6.63474 152 158 124
-0.970805 0.396839 6.63474 152 158 124
-1.00765 0.435364 6.57466 148 149 133
-0.986861 0.423692 6.58905 148 153 131
-0.856259 0.326123 6.74445 143 148 118
-0.856259 0.326123 6.74445 143 148 118
-0.809843 0.295728 6.79907 147 151 126
-0.76644 0.293239 6.7994 110 115 92
-1.00851 0.486832 6.48308 137 140 121
-0.851845 0.366711 6.67501 103 107 90
-0.849956 0.366894 6.67772 103 107 90
-0.849956 0.366894 6.67772 103 107 90
-0.756476 0.303645 6.7773 106 111 88
-1.02249 0.521395 6.41675 116 119 100
-0.840524 0.393085 6.62983 144 148 133
-0.7615 0.33295 6.72699 116 128 104
-0.472102 -0.0852039 6.94803 79 73 49
-0.460636 -0.0941987 6.94691 61 58 41
-0.465985 -0.0712279 6.9371 57 56 36
-0.852155 0.417925 6.585 103 108 88
-0.568698 0.238798 6.94628 75 76 58
-0.517539 0.269766 7.03689 67 68 50
-0.45304 -0.0660215 6.92229 48 46 33
-0.92656 0.490253 6.46282 90 91 57
-0.894017 0.46597 6.49976 101 103 66
-0.452328 -0.0697437 6.90727 61 60 40
-0.842555 0.45368 6.51432 112 113 81
-0.842555 0.45368 6.51432 112 113 81
-0.508408 0.247338 6.94052 60 60 48
-0.399057 -0.163518 6.85639 215 213 201
-0.392254 -0.167095 6.86195 215 213 201
-0.435947 0.206442 6.99894 56 54 39
-0.916912 0.526045 6.39543 76 76 52
-0.405219 -0.157649 6.81624 214 214 202
-0.879438 0.501788 6.42966 75 73 60
-0.40704 -0.30026 6.70952 210 210 200
-0.417946 -0.280559 6.69933 216 214 202
-0.416057 -0.288356 6.6951 214 212 200
-0.415585 -0.137068 6.78979 198 185 93
-0.43834 0.208478 6.96579 58 58 46
-0.404473 -0.24403 6.72435 218 213 193
-0.407021 -0.145893 6.7783 199 186 92
-0.85942 0.502751 6.42332 80 81 67
-0.398117 -0.159334 6.77113 200 190 92
-0.410199 -0.260113 6.68719 84 80 68
-0.390394 -0.33803 6.66804 213 213 203
-0.706553 0.404208 6.59958 72 75 48
-0.378739 -0.33805 6.65328 83 80 71
-0.684746 0.405646 6.59728 76 74 62
-0.382224 -0.305736 6.62059 75 72 63
-0.7237 0.452325 6.51451 62 63 49
-0.300157 -0.207799 6.79193 73 70 61
-0.375709 0.274905 6.93143 57 59 37
-0.388217 -0.199569 6.62142 72 69 60
-0.392526 -0.16428 6.61543 76 74 62
-0.392526 -0.16428 6.61543 76 74 62
-0.919744 0.609202 6.23553 82 81 61
-0.619518 0.411115 6.58757 70 67 50
-0.922927 0.616052 6.223 56 58 37
-0.400586 -0.074338 6.61926 213 213 203
-0.618842 0.42582 6.56315 74 73 55
-0.387915 -0.176998 6.55371 76 73 66
-0.393632 -0.169115 6.54941 73 70 63
-0.396315 -0.157296 6.54883 70 67 60
-0.602668 0.425003 6.56263 88 87 67
-0.89253 0.617632 6.21821 66 64 43
-0.281023 -0.359982 6.59023 78 75 66
-0.748402 0.530306 6.38343 68 66 51
-0.391552 -0.137724 6.5398 69 66 57
-0.567924 0.41758 6.57756 66 64 49
-0.310778 0.311112 6.88541 81 80 60
-0.278407 0.0623751 6.78681 178 175 160
-0.363034 -0.302047 6.43812 77 74 67
-0.338248 0.281211 6.81103 62 60 45
-0.472537 0.395726 6.64653 34 31 22
-0.557691 0.446367 6.53212 182 180 168
-0.671043 0.52838 6.39103 207 207 197
-0.684499 0.541062 6.37518 86 84 69
-0.321038 0.331694 6.80989 151 149 136
-0.379991 -0.153399 6.42104 69 66 59
-0.376011 -0.173324 6.41367 69 66 59
-0.599781 0.496127 6.44926 184 184 172
-0.307042 0.339635 6.80397 142 139 122
-0.664334 0.545167 6.37075 191 187 175
-0.355406 -0.218271 6.3782 77 74 67
-0.311939 0.171898 6.66814 77 73 46
-0.284492 0.0972002 6.65571 87 81 65
-0.472796 0.432147 6.56318 27 27 19
-0.481931 0.439972 6.55334 29 29 21
-0.299788 0.134093 6.63311 120 113 94
-0.29994 0.177319 6.64332 66 65 45
-0.650254 0.576886 6.32639 135 132 117
-0.50424 0.486077 6.48477 116 109 91
-0.118191 -0.347204 6.57787 196 180 144
-0.114353 -0.349856 6.57807 175 149 100
-0.288618 0.144368 6.5893 83 83 55
-0.17142 -0.27405 6.4081 82 81 76
-0.561829 0.589572 6.31516 71 68 53
-0.23496 -0.143475 6.3753 211 211 201
-0.230478 -0.13596 6.36789 157 157 149
-0.0305476 -0.372366 6.52162 85 81 69
-0.241254 0.0640962 6.42912 198 198 186
-0.241254 0.0640962 6.42912 198 198 186
-0.227436 0.11089 6.46095 196 196 184
-0.20399 -0.142123 6.35002 214 214 204
-0.20399 -0.142123 6.35002 214 214 204
-0.14378 -0.214894 6.35874 210 208 196
-0.137493 -0.223804 6.36164 219 217 205
-0.213871 -0.0793027 6.32793 202 202 192
-0.161639 -0.175283 6.33383 202 202 192
1.10603 -0.318625 8.03707 191 190 185
0.0321546 -0.350689 6.49215 217 214 205
-0.179526 -0.111413 6.29548 191 190 172
-0.12665 -0.187603 6.32647 204 199 193
-0.187791 -0.0835706 6.27872 178 184 174
-0.215855 -0.0123455 6.27351 210 210 200
-0.168624 -0.112551 6.28066 206 205 200
-0.102662 -0.191589 6.31835 220 208 184
-0.19902 -0.0416606 6.25865 195 193 178
-0.0966252 -0.192683 6.31654 98 96 97
-0.174499 -0.0833176 6.26019 219 219 209
-0.148895 -0.12083 6.27491 218 213 207
-0.143464 -0.12171 6.26447 137 135 123
1.37739 -0.425792 8.19137 208 208 196
1.21248 -0.307499 8.01253 212 207 201
-0.138397 -0.105182 6.24764 207 208 194
-0.587523 0.727012 6.05893 203 203 191
-0.186891 -0.000459336 6.2155 206 206 196
-0.147809 -0.069409 6.2208 199 199 189
-0.136749 -0.0839193 6.21733 215 215 205
-0.182027 0.0149575 6.20279 204 204 194
0.107166 0.361453 6.77566 220 214 200
-0.147027 -0.0604228 6.2056 187 188 180
-0.185303 0.0402121 6.20332 215 215 207
0.0954585 0.373184 6.75745 215 212 207
-0.17102 0.0038595 6.19201 203 199 188
1.27168 -0.310213 7.98502 213 203 178
-0.1456 -0.0440276 6.19854 128 126 113
1.29149 -0.322156 7.99815 208 215 223
-0.179746 0.117915 6.22896 221 218 211
-0.179746 0.117915 6.22896 221 218 211
0.127631 0.361862 6.7733 203 201 186
1.315 -0.340512 8.01063 211 211 201
-0.118667 -0.0577932 6.19097 119 116 109
-0.0885094 -0.10392 6.20604 198 199 191
-0.0885094 -0.10392 6.20604 198 199 191
-0.129779 -0.0343811 6.1781 208 206 193
-0.115384 -0.0564946 6.18081 209 209 197
-0.121686 -0.0427229 6.1781 222 220 205
-0.154169 0.0436062 6.16883 123 124 119
-0.152811 0.54242 6.42267 208 208 196
-0.100331 -0.0664207 6.16992 200 200 190
-0.0379652 -0.147657 6.20976 205 202 193
-0.106598 -0.0469049 6.16854 228 219 212
-0.101223 -0.0588238 6.167 217 215 203
-0.122447 -0.0117214 6.16268 219 216 207
-0.148229 0.511105 6.39544 213 210 201
-0.120206 -0.0187237 6.15585 198 200 187
-0.0129116 0.17601 6.39522 208 205 196
-0.055177 -0.113045 6.18332 210 210 200
0.190041 0.368333 6.75438 178 176 163
-0.081782 -0.0719256 6.1606 208 208 198
-0.104958 -0.0289722 6.14748 140 138 126
-0.0397468 -0.123605 6.18404 209 209 199
-0.0397468 -0.123605 6.18404 209 209 199
-0.0944483 -0.0492441 6.14966 201 202 186
-0.132767 0.0674002 6.15268 229 226 219
-0.12167 0.0624264 6.14143 182 176 164
-0.0980576 -0.0224532 6.12832 221 222 217
-0.0533962 -0.0843146 6.15292 189 189 181
-0.120727 0.0672119 6.14211 197 193 182
-0.0600829 -0.0791926 6.14659 208 208 198
-0.0866234 -0.0427363 6.1297 204 205 197
-0.0896809 -0.0394375 6.1275 124 122 110
-0.0896809 -0.0394375 6.1275 124 122 110
-0.0125745 -0.139 6.17736 210 210 202
-0.111924 0.0515598 6.13268 219 217 205
-0.10835 0.0423953 6.12793 223 223 213
-0.0923194 -0.0199617 6.1162 205 199 185
-0.0962026 -0.00921457 6.11521 185 185 173
-0.117664 0.0943776 6.13838 210 210 200
-0.0900501 -0.0186389 6.11637 214 208 194
-0.0105785 -0.131151 6.16214 212 212 200
-0.104749 0.0313067 6.12073 185 183 171
