ply
format ascii 1.0 
element vertex 1339
property float32 x 
property float32 y 
property float32 z
property uchar red  
property uchar green
property uchar blue
element face 0
property list uchar int vertex_indices
end_header
0.762599 0.524376 6.48289 0 0 0
0.609972 0.749387 6.0616 0 0 0
0.707035 0.520149 6.28658 0 0 0
1.03445 0.145262 7.16819 0 0 0
1.18519 -0.0692554 7.56513 0 0 0
0.774446 0.540738 6.45666 0 0 0
1.10881 0.0439704 7.34129 0 0 0
1.05055 0.142781 7.17102 0 0 0
1.03912 0.163755 7.13083 0 0 0
0.716684 0.641334 6.27655 0 0 0
1.24371 -0.13891 7.66054 0 0 0
1.22573 -0.107088 7.60706 0 0 0
1.21641 -0.0914582 7.58254 0 0 0
1.06452 0.138357 7.17812 0 0 0
0.797753 0.52895 6.47291 0 0 0
0.731405 0.631192 6.28867 0 0 0
1.11474 0.0687594 7.29838 0 0 0
0.812912 0.511149 6.49822 0 0 0
0.816834 0.507978 6.50641 0 0 0
1.02608 0.198128 7.05582 0 0 0
1.02155 0.212657 7.04182 0 0 0
0.793853 0.54816 6.44091 0 0 0
1.25663 -0.14241 7.65255 0 0 0
1.01105 0.233421 7.00775 0 0 0
1.03803 0.193291 7.07597 0 0 0
1.18065 -0.0158147 7.4439 0 0 0
0.808937 0.527601 6.46617 0 0 0
0.808977 0.527799 6.46638 0 0 0
0.884085 0.393541 6.65378 0 0 0
1.18825 -0.016739 7.44326 0 0 0
1.05437 0.183005 7.08966 0 0 0
1.16132 -0.0806358 7.32091 0 0 0
1.23399 -0.0787378 7.5452 0 0 0
0.760152 0.615713 6.30772 0 0 0
0.819195 0.53924 6.45389 0 0 0
1.06365 0.182915 7.08953 0 0 0
1.24203 -0.0871684 7.55096 0 0 0
0.900281 0.413326 6.64031 0 0 0
1.05241 0.208626 7.04091 0 0 0
1.13122 0.102189 7.22875 0 0 0
1.08752 0.168398 7.11567 0 0 0
1.22167 -0.0343061 7.45696 0 0 0
1.09148 0.162915 7.12085 0 0 0
0.914069 0.40278 6.64481 0 0 0
1.07321 0.19944 7.06306 0 0 0
1.08908 0.172502 7.09873 0 0 0
1.09466 0.167273 7.11364 0 0 0
1.04345 0.23933 6.97829 0 0 0
1.09027 0.177322 7.09559 0 0 0
0.650027 0.804868 5.95007 0 0 0
0.924333 0.39225 6.64618 0 0 0
0.851206 0.527988 6.46559 0 0 0
1.26463 -0.0892112 7.52473 0 0 0
0.921583 0.414399 6.63451 0 0 0
1.06894 0.220358 7.01439 0 0 0
0.821861 0.580385 6.37876 0 0 0
0.821861 0.580385 6.37876 0 0 0
1.14667 0.10413 7.21056 0 0 0
1.14798 0.104224 7.21386 0 0 0
0.821755 0.582469 6.37425 0 0 0
1.13628 0.124545 7.16957 0 0 0
1.29201 -0.114402 7.56344 0 0 0
1.11615 0.166931 7.09827 0 0 0
1.09258 0.203433 7.02803 0 0 0
1.14978 0.123061 7.15783 0 0 0
0.87917 0.530843 6.45971 0 0 0
1.18986 0.0758472 7.23949 0 0 0
1.18175 0.0887372 7.21433 0 0 0
1.18175 0.0887372 7.21433 0 0 0
1.36164 -0.167628 7.66455 0 0 0
1.08016 0.238605 6.94648 0 0 0
0.949046 0.439541 6.60895 0 0 0
1.34202 -0.11505 7.5871 0 0 0
1.22671 0.0430212 7.28462 0 0 0
0.966987 0.421606 6.62073 0 0 0
0.960348 0.441527 6.6032 0 0 0
1.37295 -0.132838 7.6447 0 0 0
1.15889 0.150592 7.0972 0 0 0
1.07822 0.272186 6.89474 0 0 0
1.17905 0.12042 7.14684 0 0 0
0.873558 0.571699 6.38111 0 0 0
0.980828 0.397255 6.63718 0 0 0
0.980339 0.397 6.63588 0 0 0
1.07559 0.280377 6.88056 0 0 0
1.12381 0.20876 6.9918 0 0 0
0.986053 0.398887 6.63564 0 0 0
0.879824 0.57948 6.37178 0 0 0
1.02764 0.350267 6.70901 0 0 0
1.09561 0.276695 6.87824 0 0 0
0.85736 0.623448 6.2868 0 0 0
1.14719 0.193318 7.0023 0 0 0
1.13481 0.211442 6.96689 0 0 0
1.1204 0.237566 6.93063 0 0 0
1.22076 0.0976488 7.17444 0 0 0
1.09838 0.274342 6.86683 0 0 0
1.09632 0.278868 6.86203 0 0 0
1.1131 0.251667 6.89948 0 0 0
0.727803 0.818504 5.93228 0 0 0
1.11455 0.266282 6.87331 0 0 0
1.59397 -0.341873 8.05069 0 0 0
0.833133 0.856885 6.20284 0 0 0
0.833713 0.859465 6.19981 0 0 0
1.5995 -0.325512 8.03823 0 0 0
1.20587 0.180168 7.05765 0 0 0
1.24756 0.157207 7.11766 0 0 0
1.61437 -0.310061 8.01218 0 0 0
1.18779 0.240442 6.95289 0 0 0
1.14382 0.306189 6.8242 0 0 0
1.15346 0.295406 6.8443 0 0 0
1.27299 0.154353 7.14005 0 0 0
1.46661 -0.0897814 7.60303 0 0 0
1.47167 -0.0941363 7.6157 0 0 0
1.22681 0.214355 7.01247 0 0 0
1.44485 -0.05508 7.54219 0 0 0
1.15818 0.312613 6.81722 0 0 0
1.50128 -0.111261 7.65274 0 0 0
1.24307 0.213706 7.01778 0 0 0
1.24307 0.213706 7.01778 0 0 0
1.42075 0.00849944 7.42945 0 0 0
1.32417 0.136275 7.17099 0 0 0
1.06634 0.497934 6.53612 0 0 0
1.60162 -0.203353 7.81703 0 0 0
1.18975 0.313689 6.82093 0 0 0
1.10702 0.412115 6.61359 0 0 0
1.10702 0.412115 6.61359 0 0 0
1.217 0.293783 6.86734 0 0 0
1.52778 -0.0785786 7.5858 0 0 0
1.55586 -0.0973368 7.63088 0 0 0
1.53395 -0.0649757 7.5767 0 0 0
1.21899 0.318546 6.82103 0 0 0
1.21899 0.318546 6.82103 0 0 0
1.7282 -0.321835 8.02907 0 0 0
1.24522 0.297139 6.87293 0 0 0
1.30388 0.227128 7.01148 0 0 0
1.58067 -0.104607 7.64439 0 0 0
1.13068 0.464209 6.57125 0 0 0
1.23445 0.326181 6.81374 0 0 0
1.30185 0.257306 6.9336 0 0 0
1.5167 0.0207115 7.41109 0 0 0
1.76086 -0.279475 7.9507 0 0 0
1.79654 -0.28205 7.95306 0 0 0
1.26426 0.371418 6.72329 0 0 0
1.35313 0.277087 6.91924 0 0 0
1.8292 -0.319993 8.00576 0 0 0
1.59467 -0.0156354 7.46838 0 0 0
0.974408 0.789657 6.04935 0 0 0
1.69215 -0.12807 7.6843 0 0 0
1.14861 0.56194 6.42516 0 0 0
1.41875 0.215128 7.03053 0 0 0
1.41968 0.218231 7.03336 0 0 0
1.59801 0.00680152 7.4383 0 0 0
1.26383 0.401136 6.66056 0 0 0
1.8228 -0.266371 7.9394 0 0 0
1.83999 -0.291398 7.97203 0 0 0
1.61577 -0.00394656 7.45968 0 0 0
1.7112 -0.120762 7.67486 0 0 0
1.03773 0.731523 6.14732 0 0 0
1.6207 0.00567371 7.43921 0 0 0
1.6207 0.00567371 7.43921 0 0 0
1.8631 -0.307103 7.98436 0 0 0
1.8539 -0.281935 7.96231 0 0 0
1.62597 0.013649 7.43625 0 0 0
1.37232 0.315754 6.84309 0 0 0
1.09466 0.684098 6.22177 0 0 0
1.27529 0.442448 6.62332 0 0 0
1.64644 -0.00766663 7.45653 0 0 0
1.05147 0.75503 6.12068 0 0 0
1.3341 0.362429 6.73964 0 0 0
1.64374 0.0115408 7.43467 0 0 0
1.31093 0.400191 6.65948 0 0 0
1.31093 0.400191 6.65948 0 0 0
1.88968 -0.286354 7.96067 0 0 0
1.19747 0.577486 6.41138 0 0 0
1.04867 0.771518 6.07915 0 0 0
1.20364 0.578335 6.41154 0 0 0
1.6594 0.0190177 7.42848 0 0 0
1.20903 0.572832 6.41845 0 0 0
1.19195 0.596226 6.37469 0 0 0
0.943339 0.856884 5.79301 0 0 0
1.01603 0.826261 5.96455 0 0 0
1.29048 0.457638 6.56471 0 0 0
1.02032 0.82319 5.97041 0 0 0
0.991476 0.859624 5.9061 0 0 0
1.03243 0.819919 5.97743 0 0 0
1.06167 0.792618 6.04071 0 0 0
1.29941 0.457574 6.55322 0 0 0
1.91777 -0.253586 7.91181 0 0 0
1.69589 0.016494 7.42237 0 0 0
1.31307 0.4635 6.56166 0 0 0
1.31307 0.4635 6.56166 0 0 0
1.04781 0.818986 5.98287 0 0 0
1.9341 -0.25655 7.91154 0 0 0
1.07541 0.809754 6.00018 0 0 0
1.22511 0.633872 6.31883 0 0 0
1.08088 0.80963 5.99465 0 0 0
1.1031 0.793297 6.02559 0 0 0
1.08501 0.816536 5.97933 0 0 0
1.12506 0.784363 6.04235 0 0 0
1.24214 0.661698 6.28837 0 0 0
1.94489 -0.193004 7.79178 0 0 0
2.03714 -0.298486 7.95973 0 0 0
1.3933 0.447863 6.5581 0 0 0
2.00974 -0.219242 7.87871 0 0 0
2.06712 -0.291259 7.95554 0 0 0
1.28011 0.653851 6.28275 0 0 0
1.33307 0.594647 6.38563 0 0 0
1.41211 0.474058 6.52703 0 0 0
1.94852 -0.122191 7.66839 0 0 0
1.50912 0.383172 6.73692 0 0 0
1.4219 0.461313 6.5411 0 0 0
1.34656 0.59446 6.38148 0 0 0
1.23849 0.725529 6.14845 0 0 0
1.23111 0.73552 6.13416 0 0 0
1.31963 0.633742 6.31366 0 0 0
1.35469 0.597102 6.37776 0 0 0
1.44273 0.452262 6.55056 0 0 0
1.32147 0.638488 6.30468 0 0 0
1.38084 0.56883 6.42883 0 0 0
1.53005 0.378008 6.73291 0 0 0
1.52965 0.38641 6.72899 0 0 0
1.52965 0.38641 6.72899 0 0 0
1.44953 0.453333 6.55018 0 0 0
1.35839 0.601561 6.36698 0 0 0
1.35839 0.601561 6.36698 0 0 0
1.44259 0.47207 6.53138 0 0 0
1.45547 0.455781 6.55022 0 0 0
-1.33451 0.0929362 7.23061 170 102 41
-1.33252 0.138322 7.09919 160 95 39
-1.32805 0.156126 7.08929 166 104 45
-1.32426 0.149602 7.09556 166 101 45
-1.3171 0.125695 7.10439 160 95 39
-1.16093 -0.138924 7.59552 173 112 47
-1.35549 0.243514 6.96524 163 97 45
-1.2986 0.130533 7.09996 162 100 43
-1.28924 0.110754 7.11951 172 106 45
-1.17902 -0.0602713 7.40873 173 117 58
-1.27922 0.125238 7.10665 180 119 52
-1.06714 -0.243374 7.74125 177 117 55
-1.27084 0.116651 7.11469 176 114 55
-1.27702 0.143693 7.09648 175 116 60
-1.25565 0.0966143 7.13725 176 120 63
-1.25802 0.103216 7.12944 175 119 62
-1.16359 -0.0657409 7.41156 177 122 58
-1.22753 0.0386956 7.20319 179 125 63
-1.26463 0.128108 7.10083 175 120 63
-1.08122 -0.0477246 7.82245 182 124 61
-1.15174 -0.0656209 7.42481 179 119 57
-1.20423 0.0259401 7.23238 177 121 64
-1.30524 0.24281 6.96246 178 119 63
-1.35499 0.327818 6.81121 176 116 56
-1.21075 0.0490983 7.20127 182 126 69
-1.19583 0.0321448 7.22652 177 121 64
-1.13665 -0.0693554 7.40446 172 113 55
-1.31903 0.282959 6.89573 176 117 61
-1.01201 -0.263577 7.74373 166 107 49
-1.15942 -0.00928572 7.28916 160 104 47
-1.15213 -0.0141796 7.29733 166 105 51
-1.22886 0.151005 7.09422 180 121 65
-1.22664 0.146689 7.09641 182 123 67
-1.27858 0.253433 6.93466 180 120 66
-1.17786 0.0688613 7.17929 169 114 60
-1.21041 0.162775 7.08654 169 114 60
-1.21041 0.162775 7.08654 169 114 60
-1.25867 0.247704 6.94133 167 114 60
-0.850109 -0.474874 8.10901 162 98 36
-0.93494 -0.326376 7.8435 168 100 37
-1.07771 -0.0867067 7.41694 171 111 59
-1.06708 -0.090484 7.419 162 110 60
-1.03571 -0.132132 7.51259 149 95 57
-1.06551 -0.0861552 7.41408 155 103 63
-1.05075 -0.107522 7.44059 148 93 54
-1.23666 0.252043 6.93126 168 115 65
-1.09819 -0.014377 7.29419 163 111 63
-0.828562 -0.454323 8.07717 164 102 45
-1.27667 0.334083 6.80274 169 113 64
-1.18428 0.180043 7.07105 170 119 66
-1.23159 0.256728 6.91899 173 120 68
-1.10137 0.0248353 7.23153 157 104 60
-1.24099 0.300989 6.85427 175 120 63
-1.16393 0.178955 7.07454 169 115 68
-1.08623 0.0129625 7.25171 154 103 60
-1.06865 -0.0180201 7.29325 153 100 60
-1.06919 -0.0181373 7.29128 153 100 60
-1.14823 0.164735 7.08538 174 118 67
-1.09242 0.0475521 7.20415 157 104 62
-1.05912 -0.0123617 7.28937 156 105 62
-1.31431 0.461587 6.59748 144 75 33
-0.885847 -0.287639 7.76785 151 93 45
-1.2989 0.436875 6.63201 151 85 37
-1.13947 0.174652 7.07536 176 120 69
-1.13947 0.174652 7.07536 176 120 69
-1.16684 0.214725 6.98066 162 109 69
-1.19285 0.2597 6.9089 172 119 65
-1.19227 0.259819 6.91087 172 119 65
-1.1117 0.124668 7.11436 164 110 64
-1.18839 0.265004 6.90703 176 121 65
-1.07359 0.0642829 7.18578 167 111 62
-1.27282 0.423017 6.65222 165 101 39
-0.754398 -0.449809 8.06173 171 113 50
-1.09579 0.126724 7.10745 175 119 68
-1.09501 0.126972 7.11026 175 119 68
-1.16706 0.253875 6.9142 167 116 63
-1.14685 0.221833 6.96942 166 113 61
-1.16352 0.251219 6.91928 163 111 64
-1.22187 0.357131 6.7584 179 120 64
-1.14083 0.224548 6.96562 180 124 67
-1.20064 0.329025 6.79924 168 112 63
-1.20683 0.342837 6.77909 165 109 58
-1.13219 0.220595 6.97216 172 115 60
-1.13533 0.228459 6.95909 172 115 62
-1.01738 0.010998 7.25906 168 113 59
-1.26735 0.452756 6.59925 163 95 32
-1.14088 0.244411 6.92835 174 118 67
-1.14704 0.265786 6.89391 174 122 64
-0.787462 -0.330886 7.8421 184 121 54
-1.15471 0.288073 6.85493 176 124 67
-0.981512 -0.00623596 7.28652 171 116 59
-1.02433 0.0925151 7.15916 176 117 61
-1.00815 0.0708045 7.18948 173 121 64
-0.962371 0.135623 7.44772 176 120 63
-1.02895 0.11272 7.13589 176 120 63
-1.16311 0.339624 6.77496 167 115 65
-0.573834 -0.604993 8.34498 175 105 33
-0.989574 0.0551221 7.20725 159 105 59
-1.2304 0.466038 6.57828 154 84 33
-0.685675 -0.41511 7.99499 182 114 53
-0.976719 0.0518804 7.20766 185 124 59
-1.02202 0.141637 7.0967 162 109 59
-1.08457 0.24365 6.91091 174 121 69
-1.09785 0.274287 6.87501 176 121 67
-1.1158 0.318097 6.7976 174 122 72
-0.655865 -0.412676 7.99115 178 116 55
-0.655865 -0.412676 7.99115 178 116 55
-1.02028 0.19837 7.04097 179 119 57
-1.21959 0.509866 6.50811 161 92 33
-1.16177 0.41165 6.65313 174 119 63
-1.22175 0.513509 6.50087 161 93 32
-0.944954 0.0585208 7.19227 174 113 58
-0.977736 0.135674 7.10244 178 119 63
-0.980303 0.154107 7.08523 174 115 59
-1.19406 0.509621 6.49893 165 96 37
-0.952715 0.129179 7.11237 161 105 46
-1.09691 0.361637 6.72665 173 122 65
-1.09117 0.377034 6.70157 180 123 68
-1.05974 0.33638 6.76705 173 121 73
-0.899999 0.0854233 7.16747 194 131 62
-1.07515 0.363822 6.72082 179 121 71
-1.07515 0.363822 6.72082 179 121 71
-0.95733 0.201462 7.03665 191 132 62
-1.05102 0.332158 6.76762 168 106 55
-0.849407 0.0179719 7.27037 166 103 50
-1.09766 0.418758 6.63893 171 120 67
-0.945217 0.209653 7.03133 192 131 66
-0.829225 0.00252612 7.30028 171 106 50
-1.0726 0.39159 6.6787 175 114 57
-1.12918 0.4846 6.53864 162 97 39
-1.02877 0.324048 6.77857 178 118 66
-1.12128 0.490193 6.53273 146 89 36
-1.01638 0.319427 6.78289 187 127 67
-1.01638 0.319427 6.78289 187 127 67
-1.07751 0.420585 6.6335 184 124 62
-1.08555 0.435793 6.61292 177 115 58
-0.830912 0.042552 7.24171 157 94 51
-0.92584 0.216908 7.02294 162 109 57
-1.01792 0.338689 6.7571 184 124 64
-0.482424 -0.471238 8.11283 179 112 42
-0.382655 -0.605859 8.36782 172 105 37
-1.14105 0.539718 6.44034 208 197 175
-0.98355 0.29635 6.8145 184 123 68
-1.0529 0.423255 6.63068 162 105 60
-0.877019 0.163674 7.07214 170 114 55
-0.632515 -0.220049 7.65478 182 114 49
-1.00186 0.349555 6.7383 181 121 67
-0.892577 0.209637 7.02375 162 109 59
-0.894137 0.218089 7.01986 166 110 59
-1.09406 0.504839 6.50358 208 208 200
-0.789149 0.0383025 7.25807 165 99 47
-0.958681 0.298162 6.81351 182 123 67
-0.751562 -0.00330463 7.328 185 117 52
-0.87433 0.201155 7.03491 183 122 59
-1.03166 0.425438 6.62335 206 207 193
-0.611527 -0.215007 7.65317 156 92 46
-1.04034 0.454919 6.58381 209 209 199
-1.04034 0.454919 6.58381 209 209 199
-0.815239 0.149949 7.10146 210 207 190
-1.00717 0.427884 6.62013 200 200 190
-0.745694 0.0425773 7.25724 170 131 92
-0.890038 0.261709 6.87449 209 206 197
-0.792695 0.145945 7.10924 207 207 195
-1.00568 0.47149 6.54712 112 161 193
-0.725956 0.072841 7.22465 204 204 194
-0.812817 0.213303 7.02209 211 209 197
-0.70792 0.0768485 7.22593 211 209 197
-0.704187 0.0812498 7.22025 211 211 201
-0.731253 0.129703 7.14827 208 208 196
-0.413556 -0.32444 7.85015 214 211 202
-0.659302 0.0363957 7.26442 172 176 151
-0.676239 0.0992562 7.21355 106 109 90
-0.464173 -0.180297 7.63499 213 213 203
-0.795202 0.295695 6.8148 55 57 43
-0.791627 0.307137 6.80747 60 60 48
-0.776101 0.292026 6.82704 37 36 31
-0.842392 0.39736 6.65327 209 209 199
-0.762429 0.291101 6.82438 33 32 27
-0.800446 0.343901 6.73323 206 206 198
-0.763285 0.298852 6.81458 31 30 25
-0.758092 0.29481 6.82212 33 32 27
-0.988555 0.625757 6.26494 174 168 108
-0.921413 0.537574 6.41399 210 210 198
-0.975396 0.620556 6.271 192 181 136
-0.812114 0.405521 6.62406 204 204 192
-0.96957 0.623341 6.26477 155 145 86
-0.971633 0.627844 6.25796 151 142 75
-0.362332 -0.179808 7.64331 116 118 94
-0.653057 0.230117 6.98699 34 35 21
-0.287189 -0.266121 7.78785 208 208 200
-0.332161 -0.202883 7.68061 211 212 206
-0.332161 -0.202883 7.68061 211 212 206
-0.959838 0.636908 6.23994 114 112 61
-0.957365 0.640098 6.23707 98 100 61
-0.338963 -0.17645 7.64409 106 104 83
-0.94849 0.638921 6.23231 94 88 64
-0.939398 0.635518 6.23669 86 90 67
-0.929428 0.62412 6.2573 95 101 63
-0.922661 0.62144 6.26134 100 107 63
-0.600905 0.229282 6.98158 166 170 137
-0.920658 0.63653 6.23465 74 77 60
-0.440128 0.0693689 7.31182 127 128 110
-0.901143 0.633687 6.24662 95 106 92
-0.911406 0.642665 6.22048 113 120 104
-0.813783 0.518491 6.43449 209 209 199
-0.564115 0.233673 6.97305 155 159 132
-0.898259 0.646413 6.21725 189 189 179
-0.206254 -0.238161 7.75235 209 209 199
-0.524953 0.197935 7.02075 153 157 132
-0.249761 -0.154745 7.62847 67 61 47
-0.740546 0.471876 6.51387 162 166 133
-0.216805 -0.171192 7.64785 89 84 65
-0.683718 0.410145 6.61563 126 131 111
-0.741755 0.527717 6.42226 146 148 124
-0.421367 0.185375 6.98186 97 100 73
-0.400384 -0.165951 6.79596 66 64 49
-0.400384 -0.165951 6.79596 66 64 49
-0.399908 -0.303694 6.68665 178 178 166
-0.602404 0.426615 6.58641 130 134 107
-0.593277 0.418924 6.60034 116 121 91
-0.64286 0.482112 6.49395 125 130 108
-0.401633 0.220456 7.01679 80 92 68
-0.380463 -0.369127 6.65923 193 193 183
-0.684079 0.55051 6.39414 120 123 102
-0.350185 -0.0659781 6.94262 61 58 43
-0.388175 0.162443 6.98094 94 93 73
-0.601562 0.450613 6.54849 201 205 182
-0.382373 0.147671 6.97831 67 66 48
-0.380671 0.153485 6.97785 68 67 49
-0.391667 0.237545 6.99493 94 99 79
-0.361833 -0.380562 6.6523 215 215 205
-0.354232 -0.390984 6.65663 203 203 193
-0.370312 0.135903 6.96503 58 59 43
-0.338885 -0.000148406 6.9626 73 68 46
-0.562353 0.422971 6.59705 123 125 86
-0.353694 0.105881 6.94715 49 47 35
-0.350424 0.225157 7.01449 80 81 65
-0.547673 0.433934 6.57503 124 126 87
-0.351752 -0.338926 6.61607 215 213 201
-0.336745 0.225567 7.02655 75 76 62
-0.374541 0.278999 6.93585 90 92 68
-0.370202 0.282432 6.93115 88 91 64
-0.378453 -0.152769 6.5378 214 214 204
-0.574312 0.536057 6.42193 133 137 122
-0.379643 -0.185678 6.44756 74 71 64
-0.447775 0.418273 6.62671 149 152 123
-0.375343 -0.188072 6.43226 74 71 66
-0.372171 -0.190963 6.42759 71 68 63
-0.49018 0.475031 6.52547 68 67 49
-0.591243 0.604958 6.3257 82 80 42
-0.672365 0.69535 6.15263 109 112 83
-0.370583 -0.172923 6.41651 70 70 62
-0.362895 -0.204775 6.41498 73 70 63
-0.367569 -0.0686881 6.48836 37 37 25
-0.370914 -0.163114 6.41707 80 73 63
-0.370379 -0.162949 6.41838 80 73 63
-0.461056 0.476453 6.53201 77 79 57
-0.500502 0.538329 6.43884 86 85 65
-0.322251 -0.319385 6.36606 83 78 72
-0.509308 0.551649 6.41546 69 68 47
-0.298787 0.337851 6.83091 69 68 48
-0.541285 0.60341 6.33083 84 86 73
-0.237406 -0.341731 6.53227 77 74 67
-0.293084 0.149123 6.65751 66 65 47
-0.279158 0.23975 6.7414 59 56 47
-0.315613 -0.239507 6.30024 78 73 67
-0.323675 -0.215883 6.28748 73 70 65
-0.28034 0.149246 6.62767 66 67 53
-0.314465 -0.214544 6.291 78 75 68
-0.274001 0.150724 6.61383 71 72 56
-0.232746 0.254596 6.76112 49 46 39
-0.224376 -0.287186 6.42728 80 77 72
-0.563618 0.709684 6.14053 75 73 60
-0.12955 -0.376942 6.5967 78 79 74
-0.21862 -0.28157 6.39963 75 72 67
-0.247427 0.178944 6.60646 71 69 54
-0.125006 -0.359124 6.58833 72 71 66
-0.120579 -0.372771 6.5879 72 71 66
-0.26037 0.0769728 6.48016 72 70 49
-0.11122 -0.373542 6.58523 77 76 71
-0.238856 -0.138242 6.38881 57 54 49
-0.232463 -0.177971 6.38095 60 57 52
-0.239279 -0.143066 6.38383 56 53 46
-0.22829 -0.180574 6.38132 61 58 53
-0.205126 -0.256545 6.37709 71 68 61
-0.222276 -0.183814 6.3739 62 59 54
-0.095327 -0.385445 6.57486 78 77 72
-0.213799 -0.219056 6.37205 70 67 62
-0.0952641 -0.381157 6.57201 75 74 69
-0.0952641 -0.381157 6.57201 75 74 69
-0.213134 -0.201742 6.3721 65 62 55
-0.213134 -0.201742 6.3721 65 62 55
-0.218683 -0.177292 6.36923 62 59 54
-0.204451 -0.237832 6.36556 74 71 66
-0.215512 -0.182155 6.36959 62 59 54
-0.0905691 -0.356063 6.57402 74 73 68
-0.21537 -0.169209 6.36803 66 63 58
-0.186485 -0.246674 6.36138 82 79 74
-0.186347 -0.240471 6.35928 77 74 65
-0.15076 -0.308439 6.4053 69 70 64
-0.0682594 -0.38105 6.55008 76 76 68
-0.209372 -0.118696 6.34606 97 96 75
-0.169723 -0.25239 6.36125 76 73 68
-0.195254 -0.166622 6.34744 71 68 63
-0.189877 -0.165684 6.34458 73 70 63
-0.163195 -0.237296 6.35106 76 73 64
-0.181337 -0.175057 6.34146 80 80 78
-0.221801 -0.0184346 6.33045 150 144 130
-0.176512 -0.18383 6.34027 78 79 81
-0.100613 -0.317014 6.44908 79 79 71
-0.188105 -0.141736 6.33294 80 80 80
-0.188105 -0.141736 6.33294 80 80 80
-0.136294 -0.277254 6.37709 76 73 68
-0.132384 -0.28052 6.37851 78 75 70
-0.163994 -0.200247 6.3349 205 207 196
-0.0378186 -0.382209 6.53688 73 72 70
-0.163932 -0.183248 6.33211 182 180 167
-0.167166 -0.175926 6.32772 113 111 98
-0.183128 -0.121417 6.31605 194 195 187
-0.120629 -0.264898 6.36486 205 203 190
-0.179642 -0.117804 6.30238 196 198 185
-0.158446 -0.167166 6.32032 199 200 186
-0.186845 -0.0894436 6.28668 187 187 175
-0.21317 0.0282137 6.28673 96 96 68
-0.111724 -0.262813 6.36096 206 205 200
-0.199211 -0.0294765 6.27061 169 167 154
-0.206299 0.0222414 6.27529 103 101 78
-0.207024 0.0290019 6.27533 89 85 56
-0.115711 -0.233827 6.34266 209 209 197
-0.112379 -0.236127 6.34121 185 185 173
-0.112292 -0.236057 6.34144 185 185 173
-0.159276 -0.118042 6.26908 212 212 200
-0.194687 0.00989395 6.24859 171 169 156
-0.113495 -0.208994 6.31611 215 215 205
-0.130128 -0.173403 6.29445 218 218 208
-0.188278 -0.0119718 6.23762 188 186 171
-0.13297 -0.160327 6.2802 212 212 202
-0.187407 -0.000538137 6.23222 188 186 173
-0.103255 -0.214075 6.31179 215 215 207
-0.184678 0.139689 6.31166 44 42 29
-0.172628 -0.0425204 6.22418 195 195 185
-0.158914 -0.0771326 6.22779 203 203 193
-0.173811 -0.0288126 6.21713 188 189 175
-0.134607 -0.133288 6.25061 203 203 193
-0.134607 -0.133288 6.25061 203 203 193
-0.113394 -0.174778 6.27656 202 202 192
-0.14578 -0.103359 6.23937 199 199 189
-0.1204 -0.157786 6.26651 200 200 190
-0.167609 -0.0461177 6.21722 198 198 188
-0.0885419 -0.215162 6.30925 205 205 193
-0.184098 0.0677044 6.23822 136 134 122
-0.0947159 -0.202729 6.29726 202 202 192
-0.13313 -0.127105 6.24808 203 203 193
-0.0831155 -0.218354 6.31135 204 204 194
-0.178285 0.0114205 6.21009 192 190 177
-0.179184 0.0490001 6.22125 175 172 157
-0.163904 -0.0357007 6.20772 201 201 191
-0.136153 -0.104322 6.22329 201 201 191
-0.136622 -0.0973382 6.22252 201 201 191
-0.168198 0.0257157 6.19903 189 190 176
-0.105493 -0.153543 6.24213 203 203 193
-0.110182 -0.140368 6.23622 204 204 194
-0.166297 0.0252247 6.19507 191 192 178
-0.162959 0.00893129 6.19138 190 190 178
-0.0687163 -0.202881 6.28437 202 202 192
-0.116577 -0.116137 6.21599 202 202 192
-0.121452 -0.0986015 6.21116 199 199 189
-0.161092 0.0743362 6.20341 178 179 163
-0.100159 -0.136935 6.21899 200 200 190
-0.129916 -0.0634765 6.1879 201 201 191
-0.152506 0.0320788 6.17943 192 190 178
-0.150529 0.0213894 6.17554 198 196 184
-0.0780374 -0.170507 6.23805 202 202 192
-0.0895112 -0.138714 6.21339 204 204 194
-0.142008 0.00565557 6.16964 196 196 184
-0.138608 -0.0111391 6.16837 201 201 191
-0.147962 0.057612 6.18027 194 194 182
-0.100024 -0.101712 6.1938 205 205 193
-0.0868562 -0.129974 6.20866 204 204 194
-0.1321 -0.0112287 6.16457 191 191 183
-0.0596343 -0.177746 6.23939 205 205 195
-0.0750773 -0.150024 6.21532 200 200 188
-0.0750773 -0.150024 6.21532 200 200 188
-0.109803 -0.0691378 6.17769 203 203 193
-0.063444 -0.16095 6.22084 203 204 190
-0.063444 -0.16095 6.22084 203 204 190
-0.0531784 -0.17018 6.22276 200 200 190
-0.104729 -0.0484987 6.16296 191 192 186
-0.0777753 -0.11464 6.18843 186 184 169
-0.0965365 -0.0650825 6.16591 194 194 184
0.100028 -0.319979 6.47332 195 195 185
-0.109184 -0.0185825 6.15036 186 186 178
-0.106246 0.574188 6.47976 64 61 54
-0.132445 0.562879 6.41167 64 61 54
-0.122185 0.0431207 6.14949 186 183 174
-0.122084 0.507706 6.40303 68 69 55
-0.122346 0.507239 6.40224 68 69 55
-0.124063 0.0648066 6.15466 202 202 192
-0.117001 0.548508 6.43039 66 64 52
-0.105203 -0.0140162 6.14692 199 199 189
-0.122945 0.0805997 6.15764 204 204 194
-0.122945 0.0805997 6.15764 204 204 194
-0.0565333 -0.137322 6.18923 202 200 188
-0.1095 -0.00193141 6.14116 191 191 183
-0.101604 -0.0252174 6.14505 204 204 192
-0.0989784 -0.0312897 6.14493 191 189 174
-0.102827 -0.0156164 6.14402 200 201 185
-0.111456 0.14343 6.20629 198 198 186
-0.10563 0.00140841 6.13904 205 203 191
-0.116704 0.0698566 6.14809 204 204 194
-0.0905356 -0.0506891 6.14135 194 193 189
-0.115286 0.0644651 6.1473 206 204 191
-0.0864505 -0.0514631 6.14175 200 201 187
-0.0416914 -0.147374 6.18974 203 200 191
-0.0975281 -0.00437633 6.13467 204 202 190
-0.107392 0.0466492 6.1389 169 166 159
-0.100557 0.0106424 6.13361 199 197 185
-0.0999716 0.0108527 6.13466 199 197 185
-0.100557 0.0106424 6.13361 199 197 185
-0.097899 0.0025798 6.13377 182 180 168
-0.0808868 -0.05827 6.13926 191 191 183
-0.109082 0.0710914 6.14158 203 203 193
-0.109082 0.0710914 6.14158 203 203 193
-0.0720965 -0.0758375 6.14472 183 184 170
-0.0903185 -0.0250345 6.12931 213 211 199
-0.0637805 -0.0924067 6.14881 185 182 173
-0.0637805 -0.0924067 6.14881 185 182 173
-0.0823813 -0.0426001 6.12723 204 203 182
-0.0823813 -0.0426001 6.12723 204 203 182
-0.10025 0.0450813 6.1336 205 203 190
-0.0952053 0.0189405 6.12596 199 199 191
-0.102938 0.513324 6.36986 82 85 68
-0.0967668 0.0435425 6.12727 198 199 193
-0.0967668 0.0435425 6.12727 198 199 193
-0.077115 -0.0461481 6.12262 188 188 180
-0.0832541 -0.023063 6.11895 202 202 192
-0.0807407 -0.0358396 6.11811 203 203 193
-0.0826238 -0.0110103 6.11258 202 202 192
-0.0826238 -0.0110103 6.11258 202 202 192
-0.0875884 0.0204109 6.11662 205 205 197
-0.0761847 -0.0345999 6.11182 204 204 194
0.0366402 0.439604 6.62147 173 170 153
-0.0831307 -0.000297785 6.11191 205 205 197
-0.0812392 -0.00318755 6.1104 201 201 193
-0.097235 0.537283 6.36248 67 67 57
-0.051596 -0.0862715 6.12842 206 208 197
-0.0836408 0.0152593 6.10923 205 205 197
0.032146 0.446492 6.60046 172 169 152
-0.0901201 0.0846348 6.12433 206 208 197
-0.0408746 -0.10017 6.13486 207 207 199
-0.0945409 0.173452 6.15858 215 212 203
-0.0967462 0.199115 6.1633 213 210 201
-0.0843821 0.0617848 6.11681 147 148 140
-0.0834004 0.0664437 6.12011 161 163 152
-0.0869417 0.0879606 6.12106 204 206 195
-0.00988197 -0.141387 6.16523 205 205 195
-0.0926095 0.184218 6.15361 213 211 198
-0.088414 0.147777 6.13509 212 210 198
-0.0647958 -0.0276788 6.08439 194 194 184
-0.0660008 -0.0236216 6.07916 204 204 194
-0.0655244 -0.0234344 6.08016 204 204 194
-0.0339525 -0.0865209 6.10998 189 188 184
0.00246748 -0.143728 6.15292 184 179 160
-0.00719516 -0.126835 6.13861 193 190 183
-0.0708216 0.0780282 6.10383 185 183 171
-0.0608777 -0.0135607 6.06769 167 164 155
-0.0811923 0.611132 6.35285 62 59 50
-0.07321 0.550927 6.33846 68 66 54
-0.0641068 0.0609437 6.08688 226 226 214
-0.0633694 0.0935688 6.09861 203 201 189
-0.0681905 0.608654 6.35591 54 52 37
-0.0649731 0.603329 6.35914 49 48 30
0.0292257 -0.173353 6.15242 206 205 187
-0.00216876 -0.109444 6.11568 196 198 187
-0.0603167 0.568736 6.34215 75 76 60
-0.0603167 0.568736 6.34215 75 76 60
-0.0689651 0.215318 6.12546 216 213 204
-0.0689651 0.215318 6.12546 216 213 204
0.00373001 -0.104871 6.1051 153 154 149
-0.0559402 0.486524 6.28514 140 142 128
0.0062001 -0.104559 6.10845 206 206 204
-0.0521306 0.490872 6.28502 198 195 186
-0.0587596 0.208011 6.11958 211 212 196
-0.0601921 0.228476 6.12403 210 207 198
-0.0583979 0.233232 6.12436 211 208 199
-0.0410131 0.0795354 6.06622 183 183 171
-0.0410131 0.0795354 6.06622 183 183 171
-0.0487626 0.392869 6.21027 205 205 195
-0.0306272 0.00734038 6.04826 194 191 186
0.0134435 -0.0816912 6.07831 184 182 170
0.0252091 -0.101328 6.0909 129 125 114
0.0252091 -0.101328 6.0909 129 125 114
0.0482268 -0.138451 6.1103 186 186 176
-0.0179906 0.0200789 6.0476 203 200 191
-0.0144213 0.00587208 6.04506 212 209 194
-0.0243262 0.617623 6.33776 185 190 170
0.0060323 -0.0407028 6.05846 189 186 169
-0.0204472 0.0594611 6.05287 137 138 132
-0.00171959 0.598555 6.37317 201 201 189
0.00434037 -0.0177375 6.05047 214 211 204
0.0291156 -0.0754722 6.07045 205 205 197
-0.00356912 0.0201028 6.04212 209 207 194
0.0250094 -0.0558308 6.06116 214 212 197
-0.0136406 0.0824293 6.04583 208 205 196
-0.0229034 0.406438 6.19256 210 207 198
-0.0177272 0.174785 6.06848 208 208 198
-0.00948509 0.101187 6.04751 210 208 196
0.0272497 0.595652 6.37741 205 202 193
-0.00357976 0.0845502 6.04295 126 125 120
-0.00361624 0.0802798 6.04032 200 200 192
0.056035 -0.0921733 6.07582 203 204 198
0.00919055 0.0392155 6.0393 161 154 146
0.00884353 0.0440076 6.03647 168 165 158
0.0626685 -0.0959215 6.07604 209 209 197
0.0158955 0.0370362 6.0377 212 213 207
0.0196462 0.0265572 6.03958 214 215 207
0.00454481 0.0854713 6.03666 201 202 194
0.0466969 0.595028 6.38053 208 208 198
0.0174021 0.0512624 6.03547 186 182 171
0.00208923 0.132823 6.04448 121 121 113
0.00523745 0.117657 6.04125 170 167 152
0.0232419 0.0462187 6.03697 210 208 196
0.0508829 -0.0282517 6.05164 210 212 201
0.0372058 0.0104594 6.04181 200 197 188
0.0161129 0.0924496 6.03443 204 199 193
0.0433746 0.00461963 6.04568 208 210 199
0.0184107 0.0954932 6.03188 201 195 183
0.0267815 0.0659416 6.03244 213 210 203
0.00802417 0.178325 6.04684 212 209 200
0.0133373 0.146509 6.03967 133 129 117
0.0443083 0.0212106 6.03989 213 210 201
0.0918632 0.57379 6.41501 175 172 163
0.0713696 -0.0476717 6.05559 208 205 196
-0.0456121 0.700142 6.17776 140 133 123
0.0786494 -0.0509036 6.05908 211 207 195
0.0626702 -0.00173649 6.04303 217 214 199
0.0222774 0.165475 6.04173 211 208 199
0.0672331 -0.00259345 6.0416 204 202 189
0.09442 -0.0733311 6.06227 212 212 204
0.0544675 0.627936 6.32665 210 207 198
0.0876815 0.59485 6.37638 205 202 193
0.0558473 0.052067 6.02976 137 134 119
0.10687 -0.0776017 6.05899 216 215 197
0.0547523 0.0760381 6.02634 193 192 188
0.0547523 0.0760381 6.02634 193 192 188
0.106063 -0.0689518 6.05662 217 215 202
0.0878176 -0.0154553 6.04392 154 151 142
0.0613615 0.635363 6.31523 212 209 200
0.0934671 0.602127 6.36394 209 206 197
0.0567871 0.0826037 6.02599 213 213 205
0.0914264 0.607321 6.35971 209 206 197
-0.0182272 0.701019 6.17721 214 212 200
0.108866 -0.0527444 6.05327 218 215 206
0.108866 -0.0527444 6.05327 218 215 206
-0.0394807 0.726149 6.1295 197 194 179
0.0843553 0.0245402 6.03382 215 213 201
0.137147 0.574798 6.4162 213 210 201
0.0896985 0.0171951 6.03582 213 212 207
0.0818115 0.0419486 6.02892 215 213 198
0.0992486 -0.00841447 6.0395 214 212 199
0.0858795 0.0337733 6.03125 216 213 204
0.0788627 0.0585255 6.02857 212 212 202
0.1385 0.576955 6.40896 211 208 199
0.10886 -0.029329 6.04458 218 215 206
0.109247 -0.0291715 6.04534 218 215 206
0.0759086 0.0702046 6.02441 220 214 200
0.0759086 0.0702046 6.02441 220 214 200
-0.00899192 0.714879 6.1677 207 207 195
0.086056 0.633534 6.31968 209 206 197
0.0799604 0.0716217 6.02102 208 208 198
0.0696573 0.119534 6.02226 213 210 201
0.107103 0.000192443 6.03757 215 213 201
0.119099 0.604533 6.36144 174 172 160
0.0865534 0.0789915 6.02292 149 145 136
0.0865534 0.0789915 6.02292 149 145 136
0.150664 0.581423 6.4038 212 209 200
0.0473366 0.667289 6.23283 209 209 199
0.0978987 0.0576031 6.02377 211 208 203
0.106774 0.0558749 6.02462 221 219 207
0.117609 0.0253591 6.02855 214 211 202
-0.16806 0.790824 5.80881 209 209 199
0.142446 0.609546 6.35197 212 209 200
0.130486 0.633299 6.31664 211 209 197
0.121676 0.0785992 6.0188 214 211 202
0.114737 0.104983 6.01603 213 210 201
0.0188403 0.731468 6.11951 210 208 196
0.156462 0.624653 6.32107 214 211 202
0.14845 0.639381 6.30811 213 210 201
0.148809 0.639558 6.30881 213 210 201
0.171814 0.616448 6.34235 216 213 204
0.159494 0.630758 6.31502 216 213 204
0.152186 0.643056 6.30193 219 216 207
0.0209462 0.758524 6.07139 212 210 198
-0.0254138 0.809021 5.98549 227 220 212
0.284147 0.548177 6.47624 214 211 202
0.20867 0.617372 6.33929 216 213 204
-0.0506104 0.836343 5.92555 205 206 201
-0.0248234 0.825653 5.94768 213 210 201
0.219934 0.622903 6.33413 219 216 207
0.219934 0.622903 6.33413 219 216 207
0.238998 0.46813 6.28478 213 210 201
0.205568 0.645523 6.29789 217 214 205
0.0147649 0.799203 5.99132 211 208 199
0.37479 -0.0357967 6.30317 213 210 201
0.143538 0.710501 6.19115 214 211 202
0.238982 0.624295 6.33538 216 214 202
0.0227549 0.806373 5.99112 209 206 197
0.00706247 0.828934 5.9601 210 210 198
0.161843 0.697164 6.19468 215 212 203
0.169914 0.694128 6.20504 213 211 199
0.176564 0.688553 6.21179 206 204 191
0.168935 0.696276 6.1957 215 213 201
0.0391999 0.816874 5.98072 213 208 188
0.037283 0.816138 5.97779 213 208 188
0.214365 0.189418 6.01189 218 215 208
0.0448138 0.814768 5.97258 166 163 154
0.108651 0.763103 6.069 201 201 189
0.110655 0.765269 6.06536 0 0 0
0.0124552 0.850266 5.91386 0 0 0
0.127378 0.756818 6.08922 0 0 0
0.0219105 0.844269 5.92111 0 0 0
0.174099 0.715953 6.15525 0 0 0
0.230557 0.195984 6.01712 0 0 0
0.225329 0.243352 6.02873 0 0 0
0.175777 0.723448 6.14202 0 0 0
0.230964 0.358347 6.07165 0 0 0
0.154848 0.74705 6.09914 0 0 0
0.276067 0.65423 6.28816 0 0 0
0.28214 0.609532 6.26827 0 0 0
0.178156 0.734177 6.12582 0 0 0
0.178156 0.734177 6.12582 0 0 0
0.293191 0.537337 6.25052 0 0 0
0.297481 0.518055 6.24831 0 0 0
0.297858 0.651506 6.29 0 0 0
0.204151 0.721459 6.14128 0 0 0
0.298579 0.656128 6.28258 0 0 0
0.298579 0.656128 6.28258 0 0 0
0.0965827 0.814984 5.96536 0 0 0
0.0965827 0.814984 5.96536 0 0 0
0.0650201 0.845628 5.91052 0 0 0
0.306305 0.656363 6.28166 0 0 0
0.110158 0.819218 5.96022 0 0 0
0.116685 0.819277 5.96227 0 0 0
0.177618 0.76751 6.05262 0 0 0
0.124076 0.8176 5.96325 0 0 0
0.00916987 0.658707 5.65899 0 0 0
0.349816 0.650108 6.29345 0 0 0
0.216572 0.748389 6.08374 0 0 0
0.122781 0.830491 5.94297 0 0 0
0.105518 0.851585 5.90661 0 0 0
0.265002 0.719992 6.13753 0 0 0
0.0878481 0.875195 5.85902 0 0 0
0.24903 0.747154 6.08461 0 0 0
0.268276 0.737054 6.09762 0 0 0
0.13437 0.859325 5.88961 0 0 0
0.150145 0.848203 5.90713 0 0 0
0.578466 0.509715 6.54197 0 0 0
0.430668 0.637736 6.30523 0 0 0
0.263467 0.772155 6.03314 0 0 0
0.302122 0.750837 6.06963 0 0 0
0.499277 0.617906 6.34652 0 0 0
1.04357 0.167601 7.1185 0 0 0
1.09678 0.13131 7.18067 0 0 0
1.02999 0.188773 7.07714 0 0 0
1.1371 0.104123 7.21149 0 0 0
0.666241 0.506041 6.54006 0 0 0
1.14442 0.103868 7.20733 0 0 0
0.671683 0.508069 6.53703 0 0 0
1.16886 0.0827778 7.23731 0 0 0
1.03283 0.20645 7.04213 0 0 0
0.510096 0.641366 6.2952 0 0 0
0.510096 0.641366 6.2952 0 0 0
0.475576 0.840924 6.32434 0 0 0
1.22662 0.0306657 7.30799 0 0 0
0.685389 0.500807 6.54388 0 0 0
0.685389 0.500807 6.54388 0 0 0
1.04122 0.204005 7.04425 0 0 0
0.330819 0.773604 6.02245 0 0 0
1.03444 0.211746 7.03344 0 0 0
0.328018 0.778184 6.01512 0 0 0
1.15681 0.102431 7.19848 0 0 0
0.546687 0.620825 6.33413 0 0 0
1.06082 0.193845 7.0625 0 0 0
1.05125 0.201787 7.04571 0 0 0
0.343921 0.765067 6.02438 0 0 0
1.02102 0.237811 6.9908 0 0 0
0.388745 0.74454 6.08529 0 0 0
0.57341 0.609582 6.35122 0 0 0
1.09811 0.169264 7.09128 0 0 0
0.623876 0.57267 6.42076 0 0 0
1.13328 0.140649 7.13261 0 0 0
0.531299 0.647518 6.28113 0 0 0
0.34336 0.782632 6.00403 0 0 0
0.914028 0.321738 6.81378 0 0 0
1.18597 0.0907947 7.19503 0 0 0
0.348546 0.779066 6.00996 0 0 0
1.12398 0.155936 7.10729 0 0 0
1.12796 0.149595 7.11127 0 0 0
1.06266 0.214789 7.01625 0 0 0
1.08705 0.195078 7.05045 0 0 0
0.687833 0.533465 6.49135 0 0 0
0.914351 0.335047 6.79855 0 0 0
1.2016 0.0862574 7.19438 0 0 0
0.684592 0.541688 6.47527 0 0 0
0.422276 0.735305 6.09172 0 0 0
1.07544 0.21948 7.01491 0 0 0
1.137 0.158085 7.09021 0 0 0
1.137 0.158085 7.09021 0 0 0
1.07432 0.224 7.00067 0 0 0
0.603471 0.613037 6.34088 0 0 0
0.65704 0.577125 6.41736 0 0 0
0.65704 0.577125 6.41736 0 0 0
1.14736 0.151456 7.09375 0 0 0
1.15997 0.145389 7.10504 0 0 0
0.916264 0.339257 6.75999 0 0 0
1.04182 0.254229 6.94187 0 0 0
0.56235 0.646781 6.26946 0 0 0
0.896212 0.358392 6.72979 0 0 0
0.747531 0.512654 6.51692 0 0 0
1.09107 0.221905 6.99065 0 0 0
1.09107 0.221905 6.99065 0 0 0
0.753494 0.507586 6.52223 0 0 0
0.425437 0.753874 6.05522 0 0 0
1.14763 0.166607 7.06195 0 0 0
1.05104 0.25696 6.92838 0 0 0
1.04758 0.270716 6.91941 0 0 0
1.15634 0.163095 7.06102 0 0 0
1.09996 0.221116 6.97574 0 0 0
0.274575 0.898113 5.82408 0 0 0
1.23453 0.121409 7.15898 0 0 0
1.11992 0.20997 6.99466 0 0 0
1.06431 0.262948 6.91909 0 0 0
0.607701 0.643712 6.28449 0 0 0
0.87451 0.41262 6.64027 0 0 0
1.2281 0.135723 7.13303 0 0 0
1.13589 0.200186 6.99921 0 0 0
1.13356 0.207916 6.98497 0 0 0
0.796364 0.502246 6.51571 0 0 0
1.09964 0.242599 6.92422 0 0 0
1.09964 0.242599 6.92422 0 0 0
0.796061 0.504585 6.50787 0 0 0
0.717959 0.577894 6.39463 0 0 0
1.15042 0.206819 6.97716 0 0 0
0.775874 0.534545 6.46252 0 0 0
0.786304 0.523262 6.47557 0 0 0
0.81794 0.502154 6.51369 0 0 0
0.319368 0.895795 5.81992 0 0 0
1.13874 0.234944 6.93801 0 0 0
0.90424 0.435028 6.62115 0 0 0
0.698919 0.60788 6.34175 0 0 0
0.680982 0.624223 6.31483 0 0 0
0.793211 0.52949 6.46527 0 0 0
0.813163 0.513897 6.49197 0 0 0
1.2149 0.194698 7.03566 0 0 0
0.83815 0.496166 6.5174 0 0 0
1.09881 0.280013 6.85103 0 0 0
0.942679 0.415402 6.62866 0 0 0
0.942679 0.415402 6.62866 0 0 0
1.11352 0.279973 6.84912 0 0 0
0.817402 0.539278 6.45087 0 0 0
1.22349 0.218796 7.00258 0 0 0
0.704768 0.630379 6.29632 0 0 0
1.11706 0.283826 6.83944 0 0 0
1.22566 0.222655 6.99211 0 0 0
1.28246 0.192386 7.06288 0 0 0
0.838977 0.531841 6.45535 0 0 0
1.17823 0.257991 6.91123 0 0 0
1.11614 0.298114 6.8176 0 0 0
0.499215 0.792625 5.98583 0 0 0
0.729448 0.625237 6.29819 0 0 0
0.729448 0.625237 6.29819 0 0 0
0.737473 0.625067 6.29792 0 0 0
0.500662 0.800944 5.97406 0 0 0
0.999902 0.398094 6.63035 0 0 0
0.511686 0.799053 5.97655 0 0 0
0.998421 0.407486 6.62021 0 0 0
0.522145 0.796442 5.97614 0 0 0
0.531251 0.791821 5.9849 0 0 0
1.0069 0.410634 6.61448 0 0 0
1.0069 0.410634 6.61448 0 0 0
0.536347 0.789745 5.98823 0 0 0
0.530822 0.793056 5.97589 0 0 0
0.892446 0.537415 6.44928 0 0 0
1.21201 0.288365 6.87238 0 0 0
1.30245 0.233546 6.99542 0 0 0
1.33431 0.211824 7.03763 0 0 0
1.26852 0.261332 6.94397 0 0 0
1.25716 0.274927 6.90839 0 0 0
0.367641 0.955496 5.71604 0 0 0
1.27593 0.270864 6.92575 0 0 0
0.469723 0.88782 5.83609 0 0 0
0.572541 0.803196 5.96089 0 0 0
0.980025 0.532422 6.49551 0 0 0
0.475085 0.899516 5.81943 0 0 0
1.094 0.413887 6.61088 0 0 0
0.483993 0.911848 5.79511 0 0 0
0.505466 0.899965 5.81251 0 0 0
0.520732 0.890312 5.82405 0 0 0
0.503502 0.916423 5.78472 0 0 0
0.50077 0.918111 5.78089 0 0 0
0.64699 0.802199 5.95416 0 0 0
1.13076 0.451635 6.57969 0 0 0
1.4245 0.255412 6.96093 0 0 0
0.516511 0.919375 5.77798 0 0 0
0.558176 0.885064 5.82713 0 0 0
0.671331 0.808926 5.94667 0 0 0
1.45342 0.260308 6.96482 0 0 0
0.571287 0.890129 5.8152 0 0 0
0.470846 0.971983 5.68774 0 0 0
1.38258 0.327119 6.83251 0 0 0
0.710987 0.810145 5.94519 0 0 0
0.710987 0.810145 5.94519 0 0 0
1.35933 0.346161 6.77218 0 0 0
1.33655 0.369849 6.74161 0 0 0
1.3535 0.360376 6.75581 0 0 0
1.3535 0.360376 6.75581 0 0 0
1.29558 0.392166 6.67722 0 0 0
0.609556 0.895621 5.80069 0 0 0
0.609556 0.895621 5.80069 0 0 0
1.35657 0.366762 6.73117 0 0 0
1.11293 0.56006 6.42511 0 0 0
1.22258 0.466289 6.55641 0 0 0
1.31253 0.410001 6.64539 0 0 0
1.0582 0.62687 6.32462 0 0 0
0.686527 0.89963 5.79751 0 0 0
1.10055 0.624893 6.31805 0 0 0
0.595054 0.97535 5.66725 0 0 0
1.117 0.636873 6.31215 0 0 0
1.42485 0.403462 6.67645 0 0 0
1.19312 0.587369 6.39174 0 0 0
1.08938 0.671758 6.2367 0 0 0
1.48458 0.388568 6.7182 0 0 0
1.51142 0.371617 6.74899 0 0 0
1.22057 0.596701 6.37958 0 0 0
1.22468 0.606215 6.36889 0 0 0
0.656808 0.981099 5.66201 0 0 0
1.29697 0.595511 6.38543 0 0 0
1.00891 0.789651 6.02904 0 0 0
1.02694 0.795065 6.05158 0 0 0
1.35749 0.562002 6.44046 0 0 0
1.4581 0.459028 6.5407 0 0 0
1.02101 0.79754 6.02412 0 0 0
1.21143 0.653863 6.24264 0 0 0
1.26595 0.637851 6.31196 0 0 0
1.14466 0.733507 6.15266 0 0 0
1.35155 0.587125 6.39693 0 0 0
1.07213 0.781201 6.06311 0 0 0
1.31627 0.61387 6.34557 0 0 0
1.3427 0.598726 6.37191 0 0 0
1.37737 0.586743 6.39348 0 0 0
1.35512 0.605496 6.35837 0 0 0
1.35512 0.605496 6.35837 0 0 0
1.36406 0.601944 6.36121 0 0 0
1.37935 0.594394 6.37936 0 0 0
1.08537 0.798098 6.02018 0 0 0
1.33127 0.6357 6.30821 0 0 0
1.34883 0.623338 6.32186 0 0 0
1.14859 0.764551 6.07754 0 0 0
1.15202 0.774393 6.06454 0 0 0
1.42245 0.590434 6.37014 0 0 0
1.67983 0.422321 6.67274 0 0 0
1.15153 0.779763 6.05152 0 0 0
1.3638 0.635153 6.29318 0 0 0
1.23504 0.731055 6.14499 0 0 0
1.25228 0.730622 6.14365 0 0 0
1.25381 0.726319 6.14577 0 0 0
1.27695 0.710639 6.16657 0 0 0
1.22624 0.74817 6.10612 0 0 0
-1.4229 0.0993369 7.21063 163 94 29
-1.46509 0.141229 7.13125 162 92 32
-1.54234 0.178791 6.97398 166 97 28
-1.44477 0.124659 7.16235 160 92 31
-1.52762 0.174232 6.97807 164 96 31
-1.40854 0.107454 7.20109 160 90 31
-1.37731 0.0860042 7.24477 158 87 31
-1.40432 0.109347 7.19805 156 85 29
-1.52517 0.189187 6.96303 158 87 31
-1.36908 0.0872432 7.24037 158 88 28
-1.36509 0.0852789 7.24047 155 84 28
-1.37024 0.0922027 7.23335 155 86 29
-1.37878 0.100091 7.21879 155 86 29
-1.36323 0.0890087 7.2366 153 82 28
-1.51491 0.189958 6.9564 155 85 26
-1.35145 0.093271 7.23664 162 93 34
-1.30375 0.0471669 7.2942 166 98 27
-1.29034 0.0402742 7.29706 168 97 31
-1.34065 0.096315 7.21489 167 97 35
-1.28614 0.0420462 7.29228 165 93 34
-1.25181 0.00721505 7.3412 165 95 33
-1.30438 0.0590788 7.24363 168 99 34
-1.33061 0.0942704 7.20986 166 96 34
-1.30983 0.0704192 7.21345 158 89 30
-1.32623 0.0958053 7.18535 160 91 32
-1.36144 0.136242 7.13786 161 93 32
-1.28435 0.0558136 7.22612 164 99 35
-1.12828 -0.0820433 7.43297 164 94 32
-1.35593 0.139561 7.08732 165 97 36
-1.31792 0.100675 7.13621 159 93 33
-1.2527 0.0520017 7.21126 160 94 34
-1.25968 0.0692312 7.18728 155 85 33
-1.3297 0.155587 7.08632 159 86 31
-1.10871 -0.0768786 7.38754 154 84 32
-1.20585 0.0173079 7.24194 150 80 31
-1.2223 0.0393153 7.21323 151 81 29
-1.46815 0.262879 6.83833 157 84 31
-1.46815 0.262879 6.83833 157 84 31
-1.15151 -0.0206366 7.29765 137 73 27
-1.27295 0.106998 7.12086 149 82 30
-1.30036 0.145978 7.08953 144 76 27
-1.30036 0.145978 7.08953 144 76 27
-1.30036 0.145978 7.08953 144 76 27
-1.46534 0.27474 6.81153 148 78 27
-1.21914 0.0600863 7.18248 146 76 27
-1.13579 -0.0257305 7.28859 162 93 34
-1.06024 -0.0828117 7.40716 161 91 29
-1.05558 -0.0879202 7.4132 160 90 28
-1.45856 0.278608 6.80159 142 74 25
-1.26817 0.141807 7.0909 152 81 29
-1.2657 0.143898 7.08796 156 85 33
-1.25432 0.145926 7.08917 155 82 27
-1.24815 0.149117 7.0882 159 87 29
-1.09077 -0.0192554 7.2909 153 84 29
-1.0657 -0.0452902 7.32308 157 87 27
-1.05842 -0.0428488 7.33869 153 83 23
-1.08045 -0.0135785 7.28701 150 80 28
-1.31731 0.248201 6.95326 155 85 33
-1.11555 0.0318718 7.21787 157 88 29
-1.22256 0.157933 7.08297 146 78 29
-1.29836 0.239049 6.9609 154 85 30
-1.12162 0.0575692 7.19216 164 93 37
-1.10337 0.0373972 7.21476 159 90 33
-1.05838 -0.00688578 7.27708 151 81 29
-1.30033 0.244819 6.95112 152 83 28
-1.27315 0.243471 6.94859 162 92 30
-1.36754 0.330237 6.80625 157 88 31
-1.2777 0.245336 6.92914 155 85 26
-1.27316 0.246146 6.93932 155 85 26
-1.10921 0.0784679 7.15837 168 99 32
-1.30733 0.283976 6.88616 163 95 32
-1.28218 0.262604 6.91477 162 97 31
-1.11686 0.103561 7.13739 164 99 31
-1.16857 0.175572 7.07104 165 100 34
-1.26487 0.256497 6.92227 164 99 33
-1.26487 0.256497 6.92227 164 99 33
-1.25621 0.261652 6.91943 148 81 26
-1.09642 0.0974376 7.12799 163 95 32
-1.09642 0.0974376 7.12799 163 95 32
-1.24193 0.260985 6.91379 153 87 27
-1.2901 0.312428 6.83869 163 95 30
-1.20374 0.241222 6.94905 165 95 33
-1.27854 0.307426 6.84101 169 104 36
-1.08393 0.131303 7.10808 172 98 33
-1.12754 0.184928 7.05708 163 98 30
-1.12615 0.185453 7.05985 163 98 30
-1.17814 0.220379 6.9752 170 99 33
-1.17771 0.227404 6.95977 175 109 35
-1.21852 0.269136 6.90523 170 103 33
-1.19572 0.248326 6.92844 170 105 37
-0.983554 0.0497411 7.20905 157 91 33
-1.16924 0.227769 6.95572 164 95 30
-1.01509 0.0842247 7.16517 156 89 34
-1.24425 0.298672 6.85246 212 214 201
-1.25491 0.308 6.83684 215 209 197
-1.25491 0.308 6.83684 215 209 197
-1.16358 0.224445 6.95972 160 108 60
-1.18443 0.248268 6.9245 158 96 37
-1.15451 0.229916 6.958 196 192 181
-1.14805 0.228936 6.95403 209 207 195
-1.16774 0.248748 6.92164 194 192 179
-1.02275 0.11752 7.11791 170 101 34
-1.1841 0.265018 6.8951 204 201 192
-1.14415 0.230809 6.94966 201 199 187
-1.17786 0.260391 6.90204 199 197 185
-0.85827 -0.0244252 7.33582 168 97 35
-1.03165 0.136699 7.10056 176 105 39
-1.13276 0.228319 6.95123 208 206 194
-1.19849 0.287213 6.85998 205 205 193
-1.23605 0.32746 6.801 208 208 196
-1.12656 0.229404 6.95017 209 207 195
-1.12656 0.229404 6.95017 209 207 195
-0.836051 -0.0272142 7.34126 167 97 35
-1.13299 0.237419 6.93017 210 208 196
-0.796219 -0.0471442 7.38516 171 102 37
-1.10595 0.225021 6.9598 214 212 200
-1.13201 0.24252 6.9189 210 208 196
-1.04179 0.18705 7.05193 211 209 197
-0.86036 0.0255193 7.27127 208 210 197
-1.11292 0.240647 6.92189 208 208 198
-1.18737 0.31474 6.81035 141 141 131
-1.08934 0.234181 6.94569 209 206 197
-1.20905 0.342022 6.77397 125 125 115
-0.958424 0.130328 7.1137 198 198 186
-0.952448 0.129057 7.11276 203 203 191
-1.12114 0.269838 6.874 118 117 112
-1.09993 0.256851 6.89791 208 210 199
-1.08444 0.243587 6.91106 172 192 190
-1.10443 0.263216 6.88257 200 198 185
-0.956601 0.148955 7.08899 207 207 197
-1.16005 0.330967 6.78421 208 208 196
-1.07618 0.271276 6.867 202 202 192
-0.728905 -0.00728052 7.32435 206 206 196
-1.14737 0.345357 6.75516 175 176 162
-0.938704 0.195933 7.04654 201 203 200
-1.18111 0.383928 6.69996 213 211 199
-0.892781 0.149946 7.0885 86 86 74
-1.13235 0.34452 6.75518 210 210 198
-1.04418 0.269967 6.86593 187 187 175
-1.0319 0.261438 6.88139 199 199 187
-1.02795 0.259059 6.88256 184 184 172
-0.870693 0.153295 7.08511 106 109 98
-0.721486 0.0373209 7.27809 208 205 196
-0.721486 0.0373209 7.27809 208 205 196
-1.01758 0.267635 6.86782 194 194 182
-1.04362 0.291954 6.82718 210 208 196
-0.896085 0.199122 7.03804 95 97 84
-1.12878 0.372448 6.71196 201 200 169
-1.08811 0.33546 6.76334 209 210 196
-0.694031 0.0188729 7.29205 204 204 192
-1.03663 0.294918 6.81822 207 208 190
-1.02924 0.292808 6.82245 199 201 180
-0.894039 0.218018 7.01993 33 33 23
-0.876477 0.200709 7.0306 37 39 28
-1.04948 0.322736 6.78275 199 200 182
-1.16435 0.427698 6.62617 126 107 65
-1.19319 0.4538 6.58541 166 142 78
-0.791334 0.14603 7.11192 44 44 34
-0.980596 0.287101 6.83965 184 187 168
-0.947246 0.270434 6.87792 43 41 28
-1.16611 0.45661 6.58139 86 86 62
-1.03779 0.353668 6.73332 137 129 64
-1.03779 0.353668 6.73332 137 129 64
-0.825113 0.207853 7.02653 28 28 18
-0.825113 0.207853 7.02653 28 28 18
-1.0483 0.365043 6.71755 125 116 59
-1.07541 0.39134 6.67359 111 110 62
-1.00417 0.340811 6.74991 133 129 58
-1.00417 0.340811 6.74991 133 129 58
-1.01136 0.368786 6.70684 109 117 60
-1.01136 0.368786 6.70684 109 117 60
-1.08625 0.450307 6.58865 177 182 152
-1.10017 0.461086 6.56945 206 208 194
-1.0787 0.46772 6.56167 144 147 126
-0.977859 0.401029 6.65735 152 158 124
-0.977859 0.401029 6.65735 152 158 124
-1.01583 0.441685 6.59631 148 149 133
-0.994374 0.429279 6.61077 148 153 131
-0.859692 0.326386 6.76879 143 148 118
-0.859692 0.326386 6.76879 143 148 118
-0.811795 0.294275 6.82445 147 151 126
-0.766955 0.291662 6.82465 110 115 92
-1.01663 0.496015 6.50297 137 140 121
-0.855178 0.369185 6.69779 103 107 90
-0.853147 0.369468 6.7008 103 107 90
-0.853147 0.369468 6.7008 103 107 90
-0.756649 0.302669 6.80203 106 111 88
-1.03097 0.532474 6.43535 116 119 100
-0.843385 0.397141 6.65189 144 148 133
-0.761822 0.333641 6.75072 116 128 104
-0.463303 -0.107678 6.96671 79 73 49
-0.450692 -0.117139 6.96631 61 58 41
-0.456552 -0.0928547 6.95639 57 56 36
-0.855369 0.42337 6.60618 103 108 88
-0.562637 0.234056 6.97513 75 76 58
-0.509764 0.266671 7.07001 67 68 50
-0.442855 -0.087401 6.94157 48 46 33
-0.932085 0.49968 6.48188 90 91 57
-0.898646 0.473948 6.51909 101 103 66
-0.44212 -0.0912815 6.9259 61 60 40
-0.845596 0.461002 6.53364 112 113 81
-0.845596 0.461002 6.53364 112 113 81
-0.50029 0.243085 6.96927 60 60 48
-0.38772 -0.189827 6.86973 215 213 201
-0.380053 -0.193675 6.87615 215 213 201
-0.425295 0.199816 7.02866 56 54 39
-0.922112 0.537445 6.41307 76 76 52
-0.393464 -0.183583 6.82909 214 214 202
-0.883469 0.511875 6.44772 75 73 60
-0.395342 -0.333111 6.71487 210 210 200
-0.408412 -0.312251 6.70328 216 214 202
-0.404649 -0.320545 6.70031 214 212 200
-0.404524 -0.161765 6.8019 198 185 93
-0.42779 0.20201 6.99428 58 58 46
-0.392709 -0.274102 6.73169 218 213 193
-0.395997 -0.171056 6.78934 199 186 92
-0.862821 0.5129 6.44111 80 81 67
-0.386159 -0.185224 6.78233 200 190 92
-0.398627 -0.290861 6.69285 84 80 68
-0.381614 -0.372728 6.66847 213 213 203
-0.705095 0.408941 6.62047 72 75 48
-0.36619 -0.372608 6.65567 83 80 71
-0.68284 0.410349 6.61763 76 74 62
-0.369819 -0.33856 6.62275 75 72 63
-0.722822 0.45974 6.53368 62 63 49
-0.285035 -0.236362 6.8023 73 70 61
-0.363061 0.27221 6.96026 57 59 37
-0.376039 -0.227061 6.62637 72 69 60
-0.381094 -0.189899 6.62042 76 74 62
-0.381094 -0.189899 6.62042 76 74 62
-0.925014 0.625107 6.24987 82 81 61
-0.615267 0.416253 6.6079 70 67 50
-0.928294 0.632323 6.2371 56 58 37
-0.388858 -0.0953974 6.62741 213 213 203
-0.614593 0.43178 6.58298 74 73 55
-0.375802 -0.203137 6.55695 76 73 66
-0.382273 -0.194776 6.55208 73 70 63
-0.385417 -0.182345 6.55144 70 67 60
-0.5979 0.43092 6.58235 88 87 67
-0.896987 0.634001 6.23204 66 64 43
-0.265576 -0.395517 6.58962 78 75 66
-0.748384 0.542013 6.40007 68 66 51
-0.379585 -0.161827 6.54359 69 66 57
-0.562025 0.423086 6.59749 66 64 49
-0.295962 0.310503 6.91323 81 80 60
