ply
format ascii 1.0 
element vertex 1352
property float32 x 
property float32 y 
property float32 z
property uchar red  
property uchar green
property uchar blue
element face 0
property list uchar int vertex_indices
end_header
-1.7667 1.67322 6.92333 144 75 33
-1.74816 1.63189 6.95911 151 85 37
-1.56857 1.21089 7.46544 176 120 69
-1.56857 1.21089 7.46544 176 120 69
-1.59585 1.26807 7.33904 162 109 69
-1.62554 1.34187 7.26129 172 119 65
-1.62554 1.34187 7.26129 172 119 65
-1.53041 1.12026 7.48646 164 110 64
-1.62072 1.35288 7.26523 176 121 65
-1.50715 1.06796 7.48165 163 111 63
-1.48256 1.01647 7.55232 167 111 62
-1.58937 1.29533 7.31772 161 108 64
-1.7164 1.60912 6.98149 165 101 39
-1.42351 0.869386 7.65714 167 112 58
-1.11818 0.180103 8.56732 171 113 50
-1.52188 1.16942 7.52797 165 112 62
-1.69095 1.56757 7.03141 174 115 55
-1.725 1.64902 6.93355 164 96 35
-1.47447 1.02384 7.54362 171 116 62
-1.50955 1.12408 7.48286 175 119 68
-1.50955 1.12408 7.48286 175 119 68
-1.59333 1.33167 7.26646 167 116 63
-1.57072 1.28005 7.32872 166 113 61
-1.58922 1.32753 7.27257 163 111 64
-1.563 1.28579 7.32862 180 124 67
-1.63168 1.45594 7.14397 168 112 63
-1.63892 1.47887 7.12268 165 109 58
-1.55254 1.27946 7.33641 172 115 60
-1.55595 1.29217 7.32167 172 115 62
-1.41527 0.92452 7.61628 168 113 59
-1.70721 1.65613 6.92119 163 95 32
-1.56119 1.31697 7.2849 174 118 67
-1.54306 1.29217 7.3089 179 127 70
-1.68298 1.64111 6.94313 154 83 37
-1.68159 1.637 6.94129 154 83 37
-1.14996 0.372638 8.30489 184 121 54
-1.57548 1.38726 7.20204 176 124 67
-1.39736 0.947003 7.59971 175 120 63
-1.3723 0.895534 7.64359 171 116 59
-1.37039 0.899315 7.66136 171 116 59
-0.918945 -0.0789 8.94709 160 95 37
-0.918945 -0.0789 8.94709 160 95 37
-0.907625 -0.105438 8.96877 157 94 41
-1.42277 1.0669 7.53735 176 117 61
-1.40318 1.03054 7.56897 173 121 64
-1.48583 0.911959 6.60382 176 120 63
-1.42879 1.10187 7.51684 176 120 63
-1.69687 1.74588 6.83409 163 94 37
-0.90216 -0.0740186 8.91977 175 105 33
-1.3799 1.00349 7.5854 159 105 59
-1.02867 0.236037 8.49312 182 114 53
-1.02867 0.236037 8.49312 182 114 53
-1.36453 0.994912 7.57392 185 124 59
-1.58703 1.53484 7.04195 164 111 61
-1.42045 1.14844 7.4703 162 109 59
-1.48879 1.31137 7.25767 174 121 69
-1.49826 1.33965 7.24425 179 124 68
-1.49826 1.33965 7.24425 179 124 68
-1.50551 1.36462 7.22609 176 121 67
-0.991035 0.240082 8.49169 178 116 55
-1.64542 1.74946 6.82433 161 92 33
-1.57722 1.58739 6.97931 174 119 63
-1.64767 1.75497 6.81559 161 93 32
-1.36447 1.14059 7.48557 178 119 63
-1.36892 1.17197 7.46853 174 115 59
-1.61244 1.74678 6.81068 165 96 37
-1.33363 1.13005 7.49785 161 105 46
-1.23406 0.899561 7.71243 191 131 61
-1.59697 1.72902 6.83269 169 101 40
-1.49828 1.50621 7.06344 173 122 65
-1.43396 1.39004 7.1693 177 120 67
-1.49075 1.53009 7.03238 180 123 68
-1.26827 1.05559 7.55318 194 131 62
-1.47093 1.50895 7.05616 179 121 71
-1.47088 1.50952 7.05739 179 121 71
-1.34121 1.25745 7.4373 191 132 62
-1.44253 1.45606 7.10372 168 106 55
-1.20939 0.941967 7.65572 166 103 50
-1.22844 1.02318 7.68213 177 116 61
-0.714497 -0.0872618 8.98778 182 112 40
-1.49724 1.60032 6.96838 171 120 67
-1.32675 1.2728 7.43671 192 131 66
-1.18428 0.920163 7.70365 171 106 50
-1.21187 0.98976 7.6346 163 101 54
-1.15596 0.867061 7.76408 176 110 49
-1.46712 1.55407 7.00868 175 114 57
-1.52406 1.7168 6.85271 146 89 36
-1.39451 1.41757 7.13433 187 129 66
-1.0372 0.631113 7.98 185 116 47
-1.47125 1.60358 6.96592 184 124 62
-1.48164 1.62705 6.93869 177 115 58
-1.14276 0.887629 7.73889 175 111 49
-1.18508 0.986973 7.64259 157 94 51
-1.30265 1.28564 7.43058 162 109 57
-1.40125 1.46701 7.0941 184 124 64
-1.40125 1.46701 7.0941 184 124 64
-0.777677 0.14659 8.66062 179 112 42
-1.35938 1.39593 7.15327 184 123 68
-0.665241 -0.0285247 8.92128 146 80 30
-1.23965 1.19054 7.46741 170 114 55
-1.11409 0.907886 7.74275 184 119 51
-1.46957 1.68246 6.89361 179 115 53
-0.949022 0.554435 8.10664 182 114 49
-1.26014 1.27085 7.42595 162 109 59
-1.39114 1.51596 7.03947 176 128 79
-1.26305 1.28689 7.4267 166 110 59
-1.13433 0.982271 7.6692 165 99 47
-1.08979 0.914778 7.75069 185 117 52
-0.638957 -0.00233266 8.8915 166 95 39
-1.23819 1.25607 7.43429 183 122 59
-0.86509 0.432159 8.25551 175 111 50
-1.41467 1.60923 6.9498 206 207 193
-0.923097 0.563937 8.11068 156 92 46
-1.42502 1.65903 6.91009 209 209 199
-1.42502 1.65903 6.91009 209 209 199
-1.06593 0.940077 7.73063 160 97 46
-1.16455 1.16907 7.50444 210 207 190
-1.38435 1.61367 6.94802 200 200 190
-1.3924 1.63869 6.93015 202 202 190
-1.08051 0.990857 7.67497 170 131 92
-1.05517 0.959826 7.717 209 206 191
-1.24579 1.34149 7.22714 209 206 197
-1.37819 1.68754 6.87806 112 161 193
-1.05615 1.04412 7.64987 204 204 194
-1.16072 1.27931 7.43343 211 209 197
-1.03518 1.0508 7.65045 211 209 197
-1.02947 1.06007 7.65192 211 211 201
-1.06225 1.13961 7.56973 208 208 196
-0.467012 -0.0241034 8.97764 210 210 200
-0.687291 0.383936 8.32661 214 211 202
-0.972313 0.980797 7.68769 172 176 151
-0.438507 -0.00817445 8.97251 210 210 200
-0.995944 1.09475 7.65961 106 109 90
-0.957302 1.07961 7.70227 117 121 106
-0.739282 0.628499 8.1266 213 213 203
-1.19412 1.51697 7.03952 210 210 200
-1.19338 1.51898 7.04516 210 210 200
-1.12573 1.39663 7.16475 55 57 43
-0.65748 0.513655 8.23937 212 212 202
-1.12205 1.41797 7.16286 60 60 48
-1.10291 1.39237 7.1828 37 36 31
-0.416116 0.102094 8.80915 209 209 199
-1.17853 1.56426 6.99271 209 209 199
-1.08546 1.39001 7.17849 33 32 27
-1.08648 1.40326 7.16903 31 30 25
-1.08032 1.39699 7.17828 33 32 27
-1.34657 1.92367 6.54093 174 168 108
-1.26748 1.78896 6.72262 210 210 198
-1.33032 1.91481 6.54707 192 181 136
-1.33032 1.91481 6.54707 192 181 136
-1.13816 1.57442 6.95636 204 204 192
-1.32277 1.91888 6.53971 155 145 86
-1.32516 1.92622 6.53234 151 142 75
-0.958828 1.30669 7.4009 34 35 21
-0.32418 0.130647 8.81206 204 202 190
-0.32418 0.130647 8.81206 204 202 190
-1.30974 1.92554 6.5278 138 130 68
-0.519968 0.48919 8.32158 208 208 200
-0.573795 0.593257 8.19464 211 212 206
-1.30975 1.93996 6.51148 114 112 61
-1.30685 1.94577 6.50958 98 100 61
-0.504547 0.490358 8.32442 213 213 205
-0.581648 0.638202 8.15717 106 104 83
-0.281914 0.139255 8.86276 207 204 195
-1.29512 1.94209 6.50156 94 88 64
-1.28395 1.93643 6.50626 86 90 67
-1.27252 1.91886 6.53036 95 101 63
-1.26427 1.91458 6.53502 100 107 63
-0.253223 0.152306 8.83162 189 188 183
-0.892717 1.3043 7.39469 166 170 137
-1.26079 1.93818 6.5047 74 77 60
-0.272498 0.242883 8.75362 193 193 185
-0.449401 0.527297 8.303 209 209 199
-0.703797 1.05825 7.81696 127 128 110
-1.23666 1.93913 6.53077 95 106 92
-1.13566 1.75216 6.73422 209 209 199
-0.0302605 -0.134955 9.23473 203 203 191
-0.845619 1.31191 7.3892 155 159 132
-1.23256 1.95391 6.48596 189 189 179
-0.416113 0.537669 8.29553 209 209 199
-0.416113 0.537669 8.29553 209 209 199
-0.468473 0.678258 8.15978 67 61 47
-1.04762 1.67889 6.82773 162 166 133
-0.426731 0.649767 8.1799 89 84 65
-0.980167 1.5802 6.94426 126 131 111
-0.920147 1.48115 7.07046 124 132 111
-1.04639 1.76869 6.72594 146 148 124
-0.663091 1.21805 7.36804 97 100 73
-0.596113 0.515277 6.7791 66 64 49
-0.596113 0.515277 6.7791 66 64 49
-0.578401 0.255847 6.51172 178 178 166
-0.878055 1.60722 6.91543 130 134 107
-0.867178 1.59527 6.93218 116 121 91
-0.925596 1.69579 6.80952 125 130 108
-0.643303 1.29727 7.46225 80 92 68
-0.974801 1.80863 6.70239 120 123 102
-0.553097 0.724 7.09121 61 58 43
-0.61955 1.17245 7.3483 94 93 73
-0.876023 1.64633 6.87401 201 205 182
-0.530039 0.108825 6.42 217 214 205
-0.610938 1.1426 7.33117 67 66 48
-0.60923 1.15404 7.33571 68 67 49
-0.527399 0.119656 6.4085 215 215 205
-0.594 1.11655 7.29965 58 59 43
-0.545181 0.852268 7.17958 73 68 46
-0.569824 1.05391 7.24508 49 47 35
-0.57936 1.30649 7.46401 80 81 65
-0.566614 1.30936 7.47384 75 76 62
-0.864837 1.74154 6.79756 97 101 68
-0.553882 0.49858 6.40347 214 214 204
-0.549128 0.427177 6.24344 74 71 64
-0.541722 0.420239 6.22228 74 71 66
-0.53713 0.415071 6.21656 71 68 63
-0.817173 1.81947 6.72081 114 116 95
-0.737653 1.69172 6.86353 68 67 49
-0.859015 1.90331 6.64139 82 80 42
-0.549834 0.646235 6.39655 44 44 34
-0.953184 2.03975 6.43254 109 112 83
-0.53721 0.444053 6.20815 70 70 62
-0.526075 0.389035 6.18567 73 70 63
-0.543543 0.640621 6.39173 37 37 25
-0.536802 0.462036 6.22068 80 73 63
-0.537662 0.461757 6.21795 80 73 63
-0.701943 1.69679 6.87708 77 79 57
-0.74922 1.7984 6.77471 86 85 65
-0.469093 0.187293 6.0453 83 78 72
-0.797128 1.90229 6.65105 84 86 73
-0.47898 1.07762 6.82028 66 65 47
-0.472527 1.27311 7.02992 59 56 47
-0.461837 0.354944 6.00922 78 75 68
-0.453215 1.07174 6.75412 71 72 56
0.481934 0.173991 8.95807 208 208 198
-0.362938 0.249535 6.15791 80 77 72
-0.818877 2.06769 6.42979 75 73 60
-0.258811 0.118547 6.34351 78 79 74
-0.355296 0.255432 6.12275 75 72 67
-0.422002 1.12468 6.76661 71 69 54
-0.253819 0.147739 6.34418 72 71 66
-0.248307 0.124517 6.33425 72 71 66
-0.425108 0.905933 6.49224 72 70 49
-0.237459 0.122868 6.33039 77 76 71
-0.384345 0.501487 6.20373 57 54 49
-0.384358 0.492265 6.19319 56 53 46
-0.378472 0.451024 6.1719 58 55 50
-0.36987 0.426464 6.16445 61 58 53
-0.23327 0.171456 6.3477 75 74 69
-0.339917 0.295045 6.10825 71 68 61
-0.362459 0.419757 6.15191 62 59 54
-0.221979 0.100572 6.29808 78 77 72
-0.35114 0.358604 6.12584 70 67 62
-0.218473 0.108343 6.30697 75 74 69
-0.218473 0.108343 6.30697 75 74 69
-0.351116 0.388466 6.13764 65 62 55
-0.351116 0.388466 6.13764 65 62 55
-0.358393 0.430396 6.14984 62 59 54
-0.339379 0.325466 6.10447 74 71 66
-0.354559 0.422011 6.1472 62 59 54
-0.217058 0.150189 6.31823 74 73 68
-0.354878 0.444272 6.15378 66 63 58
-0.320384 0.308864 6.08739 82 79 74
-0.318341 0.320081 6.09468 77 74 65
-0.282203 0.215546 6.10854 71 72 66
-0.280054 0.20959 6.1083 69 70 64
-0.186812 0.105814 6.27709 76 76 68
-0.349086 0.529252 6.15696 97 96 75
-0.330908 0.445738 6.12705 71 68 63
-0.32464 0.446949 6.12385 73 70 63
-0.291697 0.324382 6.0863 76 73 64
-0.314332 0.430226 6.11348 80 80 78
-0.309982 0.414039 6.10137 78 79 81
-0.221712 0.201581 6.1751 79 79 71
-0.323024 0.486921 6.12348 80 80 80
-0.256271 0.254367 6.09788 78 75 70
-0.293245 0.385741 6.08808 205 207 196
-0.151571 0.102206 6.25908 73 72 70
-0.294963 0.41366 6.0911 182 180 167
-0.297448 0.426716 6.094 113 111 98
-0.318433 0.519192 6.10986 194 195 187
-0.242827 0.279123 6.08958 205 203 190
-0.313207 0.52412 6.09513 196 198 185
-0.2889 0.440022 6.0854 199 200 186
-0.357043 0.781133 6.17179 96 96 68
-0.232594 0.282147 6.08589 206 205 200
-0.337977 0.674536 6.10806 169 167 154
-0.348217 0.768353 6.1513 103 101 78
-0.349356 0.780557 6.15598 89 85 56
-0.237289 0.329164 6.07909 209 209 197
-0.233364 0.325025 6.07567 185 185 173
-0.235289 0.324263 6.07021 185 185 173
-0.287988 0.518561 6.04951 212 212 200
-0.332926 0.741516 6.1046 171 169 156
-0.253741 0.426243 6.05018 218 218 208
-0.256848 0.44676 6.03848 212 212 202
-0.323304 0.720037 6.07419 188 186 173
-0.222476 0.358711 6.0491 215 215 207
-0.304728 0.643669 6.03349 195 195 185
-0.305795 0.667193 6.03411 188 189 175
-0.25842 0.489222 6.0143 203 203 193
-0.25842 0.489222 6.0143 203 203 193
-0.23387 0.421269 6.02471 202 202 192
-0.271771 0.539625 6.0176 199 199 189
-0.242007 0.449146 6.02136 200 200 190
-0.297732 0.635817 6.02216 198 198 188
-0.20556 0.356494 6.04551 205 205 193
-0.322088 0.844308 6.13073 136 134 122
-0.214265 0.375254 6.03142 202 202 192
-0.256826 0.499591 6.01487 203 203 193
-0.201253 0.350409 6.04124 204 204 194
-0.312213 0.737635 6.05078 192 190 177
-0.315225 0.807139 6.09236 175 172 157
-0.293673 0.653449 6.01656 201 201 191
-0.304991 0.721553 6.03705 195 195 183
-0.260047 0.535461 5.99456 201 201 191
-0.261708 0.5469 5.99528 201 201 191
-0.300603 0.761229 6.04477 189 190 176
-0.224169 0.452887 5.99036 203 203 193
-0.224169 0.452887 5.99036 203 203 193
-0.229689 0.474802 5.99042 204 204 194
-0.298182 0.759782 6.039 191 192 178
-0.293562 0.729829 6.02265 190 190 178
-0.0463514 0.0884159 6.18015 206 206 196
-0.182373 0.37406 6.01942 202 202 192
-0.212514 0.442194 5.98969 206 206 196
-0.238038 0.513086 5.97421 202 202 192
-0.294311 0.849845 6.0846 178 179 163
-0.217692 0.478173 5.96878 200 200 190
-0.252813 0.601364 5.97148 201 201 191
-0.278942 0.74957 6.00907 198 196 184
-0.19222 0.423045 5.9748 202 202 192
-0.263516 0.675877 5.97663 200 200 190
-0.205276 0.474267 5.96023 204 204 194
-0.268479 0.720278 5.98991 196 196 184
-0.263756 0.690469 5.97776 201 201 191
-0.273984 0.767106 6.0103 198 196 184
-0.27743 0.815457 6.04034 194 194 182
-0.217604 0.535501 5.95621 205 205 193
-0.256095 0.689691 5.97258 191 191 183
-0.235971 0.613582 5.96397 208 209 193
-0.171096 0.410801 5.97287 205 205 195
0.892183 0.290281 8.90784 94 97 102
-0.188569 0.455023 5.95626 200 200 188
-0.229155 0.589848 5.95423 203 203 193
-0.175216 0.437006 5.95749 203 204 190
-0.175216 0.437006 5.95749 203 204 190
-0.227772 0.616043 5.94636 111 111 101
0.947531 0.255897 8.96267 159 160 164
-0.163363 0.421403 5.95468 200 200 190
-0.224017 0.623454 5.94541 191 192 186
-0.213615 0.5951 5.94081 194 194 184
0.00725059 0.199467 6.21832 195 195 185
-0.222242 0.645756 5.94575 169 166 159
-0.228911 0.674362 5.94857 186 186 178
-0.541154 1.49336 5.76098 64 61 54
-0.28742 1.84739 6.77255 64 61 54
-0.245778 0.78402 5.98749 186 183 174
-0.268119 1.73563 6.72667 68 69 55
-0.268119 1.73563 6.72667 68 69 55
-0.248847 0.823919 6.00932 202 202 192
-0.26827 1.82299 6.79209 66 64 52
-0.224331 0.681875 5.94685 199 199 189
-0.248165 0.852992 6.02429 204 204 194
-0.248165 0.852992 6.02429 204 204 194
-0.166834 0.473097 5.92865 202 200 188
-0.229425 0.702297 5.94638 191 191 183
-0.2198 0.661781 5.93702 204 204 192
-0.216604 0.651062 5.933 191 189 174
-0.221443 0.678567 5.94179 200 201 185
-0.238555 0.97706 6.13883 198 198 186
-0.224981 0.707874 5.94573 205 203 191
-0.224981 0.707874 5.94573 205 203 191
-0.257227 1.71415 6.70197 61 62 44
-0.240196 0.831873 6.00359 204 204 194
-0.206251 0.616392 5.91568 194 193 189
-0.238073 0.822057 5.99953 206 204 191
-0.202182 0.614585 5.91406 200 201 187
-0.149703 0.455842 5.92356 203 200 191
-0.215436 0.696572 5.93534 204 202 190
-0.228335 0.788534 5.97533 169 166 159
-0.219195 0.723365 5.9443 199 197 185
-0.219111 0.723321 5.94445 199 197 185
-0.219195 0.723365 5.9443 199 197 185
-0.215906 0.709085 5.93936 182 180 168
-0.215906 0.709085 5.93936 182 180 168
-0.231122 0.832955 5.99539 203 203 193
-0.231122 0.832955 5.99539 203 203 193
-0.185407 0.572355 5.90261 183 184 170
-0.206699 0.659106 5.91397 213 211 199
-0.174822 0.544774 5.90045 185 182 173
-0.196618 0.628314 5.90133 204 203 182
-0.196618 0.628314 5.90133 204 203 182
-0.219732 0.784735 5.96713 205 203 190
-0.212973 0.736827 5.93909 199 199 191
-0.242307 1.74028 6.68193 82 85 68
-0.214589 0.780861 5.95865 198 199 193
-0.214589 0.780861 5.95865 198 199 193
-0.19844 0.66077 5.90075 202 202 192
-0.19512 0.638223 5.89131 203 203 193
-0.197991 0.680637 5.89881 202 202 192
-0.197991 0.680637 5.89881 202 202 192
-0.179305 0.593529 5.8773 205 205 195
-0.204815 0.736813 5.92456 205 205 197
-0.189708 0.639381 5.88344 204 204 194
-0.078049 1.6521 7.0245 173 170 153
-0.198679 0.699998 5.9056 205 205 197
-0.195742 0.694966 5.90313 201 201 193
-0.240398 1.78141 6.67388 67 67 57
-0.198481 0.727381 5.91431 205 205 197
-0.0832469 1.66065 6.99534 172 169 152
-0.208828 0.854349 5.98047 206 208 197
-0.148046 0.529173 5.8769 207 207 199
-0.216808 1.02406 6.09308 215 212 203
-0.221253 1.07177 6.1148 213 210 201
-0.201849 0.811588 5.95329 147 148 140
-0.200381 0.820827 5.96262 161 163 152
-0.20518 0.859328 5.97774 204 206 195
-0.112806 0.462298 5.89432 205 205 195
-0.208112 0.971876 6.0409 212 210 198
-0.156158 0.567284 5.85117 203 204 190
-0.177154 0.646375 5.84713 194 194 184
-0.193795 0.839281 5.95812 208 206 193
-0.177166 0.653344 5.84507 204 204 194
-0.176198 0.654295 5.84802 204 204 194
-0.109283 0.476019 5.88223 205 205 193
-0.139669 0.549011 5.85103 189 188 184
-0.0997778 0.455851 5.87253 184 179 160
-0.109263 0.483676 5.86667 193 190 183
-0.18552 0.838787 5.9475 185 183 171
1.08813 0.296384 8.91586 207 207 197
-0.170701 0.669592 5.83698 167 164 155
-0.21726 1.93818 6.73456 62 59 50
-0.209549 1.80305 6.64794 68 66 54
-0.13539 0.55867 5.83819 203 204 190
-0.200994 1.9346 6.73854 54 52 37
-0.0675648 0.405852 5.85802 206 205 187
-0.103184 0.510242 5.84589 196 198 187
-0.194032 1.84109 6.66892 75 76 60
-0.188719 1.84696 6.68511 75 76 60
-0.156197 0.668612 5.82278 211 212 204
-0.18752 1.0944 6.07158 216 213 204
-0.18752 1.0944 6.07158 216 213 204
-0.123973 0.626139 5.85448 211 211 201
-0.0962504 0.516539 5.83426 153 154 149
-0.184299 1.65756 6.51337 140 142 128
-0.0935256 0.517597 5.83927 206 206 204
-0.179694 1.66636 6.51676 198 195 186
-0.173793 1.08063 6.06196 211 212 196
-0.175832 1.11963 6.08301 210 207 198
-0.175421 1.12769 6.08282 211 208 199
-0.149783 0.83482 5.89602 183 183 171
-0.149783 0.83482 5.89602 183 183 171
-0.170568 1.4526 6.32652 205 205 195
-0.170568 1.4526 6.32652 205 205 195
-0.136121 0.702871 5.82346 194 191 186
-0.163609 1.08019 6.04841 184 184 172
-0.0848111 0.552551 5.81195 184 182 170
-0.0714664 0.520528 5.81766 129 125 114
-0.0714664 0.520528 5.81766 129 125 114
-0.0716042 0.528797 5.81211 205 206 198
-0.121541 0.725674 5.83217 203 200 191
-0.117128 0.700167 5.81966 212 209 194
-0.144856 1.94839 6.7187 185 190 170
-0.0933284 0.620715 5.8098 189 186 169
-0.12521 0.796577 5.8649 137 138 132
-0.0668188 0.562145 5.80563 205 205 197
-0.104811 0.724832 5.8251 209 207 194
-0.071509 0.594812 5.80487 214 212 197
-0.117543 0.836454 5.87009 208 205 196
-0.138849 1.47522 6.31072 210 207 198
-0.112673 0.870612 5.88582 210 208 196
-0.0852907 1.90872 6.7534 205 202 193
-0.105849 0.839786 5.86782 126 125 120
-0.105508 0.831622 5.86178 200 200 192
-0.0360824 0.534098 5.80383 203 204 198
-0.0903315 0.758266 5.83396 161 154 146
-0.0907268 0.766284 5.83302 168 165 158
1.25671 0.334573 8.91566 214 214 204
-0.0284988 0.527662 5.80207 209 209 197
-0.082537 0.754147 5.83062 212 213 207
-0.078131 0.735909 5.82673 214 215 207
-0.09629 0.840337 5.85983 201 202 194
-0.10005 0.927217 5.90181 121 121 113
-0.0960769 0.899155 5.88739 170 167 152
-0.0741655 0.770364 5.83582 210 208 196
-0.0672224 0.730722 5.82177 211 208 201
-0.0425758 0.640915 5.80845 210 212 201
-0.058112 0.707468 5.8194 200 197 188
-0.0829289 0.852519 5.86173 204 199 193
-0.0507406 0.69827 5.82242 208 210 199
-0.0938547 1.01074 5.93556 212 209 200
-0.04906 0.714794 5.81997 218 215 206
-0.0870154 0.951239 5.90442 133 129 117
-0.0496942 0.726595 5.8249 213 210 201
-0.0184507 0.608267 5.80439 208 205 196
-0.0280813 0.658346 5.81107 204 205 189
-0.0121605 0.60198 5.80251 211 207 195
-0.0284613 0.686692 5.81552 217 214 199
-0.0231861 0.68496 5.81318 204 202 189
0.00788404 0.564729 5.79858 212 212 204
-0.00865925 1.90781 6.75485 205 202 193
-0.036441 0.779646 5.83088 137 134 119
0.0221643 0.556833 5.79188 216 215 197
-0.0367739 0.821888 5.84323 193 192 188
-0.0367739 0.821888 5.84323 193 192 188
0.0212713 0.571474 5.794 217 215 202
-9.30982e-05 0.662211 5.8076 154 151 142
-0.0011103 1.91954 6.74082 209 206 197
-0.0353021 0.833424 5.84557 213 213 205
-0.00362781 1.92918 6.73806 209 206 197
0.0245155 0.599151 5.79967 218 215 206
0.0245155 0.599151 5.79967 218 215 206
-0.164557 2.10777 6.45266 197 194 179
-0.003566 0.731146 5.81977 215 213 201
0.0587664 1.88334 6.82133 213 210 201
0.00234651 0.718515 5.81769 213 212 207
-0.0063993 0.761617 5.82441 215 213 198
0.0136505 0.674479 5.80801 214 212 199
-0.00987531 0.791045 5.83442 212 212 202
0.024628 0.638652 5.80232 218 215 206
0.0243637 0.638385 5.80157 218 215 206
-0.0132719 0.811141 5.8359 220 214 200
-0.0132719 0.811141 5.8359 220 214 200
-0.00445799 1.97855 6.70901 209 206 197
-0.00852909 0.813085 5.83218 208 208 198
0.036268 0.624332 5.80004 217 214 205
-0.0207617 0.899358 5.86446 213 210 201
0.0226944 0.689332 5.81115 215 213 201
-0.000964309 0.826642 5.83994 149 145 136
-0.000964309 0.826642 5.83994 149 145 136
0.0708452 1.88873 6.79271 212 209 200
-0.0570829 2.01679 6.57758 209 209 199
0.109734 1.84605 6.84974 211 209 197
0.012213 0.78864 5.82792 211 208 203
0.0222214 0.785311 5.82761 221 219 207
0.0224587 0.785751 5.82844 221 219 207
1.40505 0.396426 8.85744 214 211 202
0.0349165 0.732283 5.81497 214 211 202
-0.596763 1.68471 4.98308 209 209 199
0.0612565 1.93251 6.73043 212 209 200
0.0520258 0.746253 5.82113 214 211 202
0.0466656 1.97181 6.69136 211 209 197
0.0397861 0.825372 5.83549 214 211 202
-0.0909935 2.11698 6.44403 210 208 196
1.46513 0.385812 8.85395 206 203 198
0.0795367 1.95542 6.69319 214 211 202
0.069619 1.98242 6.68352 213 210 201
0.0987244 1.94473 6.7222 216 213 204
1.49499 0.37306 8.86461 211 212 206
-0.073809 2.12602 6.4388 208 206 194
-0.073809 2.12602 6.4388 208 206 194
0.0834993 1.96652 6.68846 216 213 204
0.0744598 1.98839 6.67666 219 216 207
0.066117 0.890032 5.86256 215 212 203
0.161545 1.90373 6.78558 215 212 203
-0.144296 2.2381 6.28723 227 220 212
0.295527 1.78135 6.97528 209 206 197
0.248181 1.84601 6.8891 214 211 202
0.145618 1.94646 6.72032 216 213 204
-0.172846 2.27766 6.21574 205 206 201
1.5491 0.400314 8.82738 216 213 204
-0.142797 2.26127 6.23983 213 210 201
0.160056 1.95677 6.71708 219 216 207
0.160056 1.95677 6.71708 219 216 207
0.181626 1.6246 6.51586 213 210 201
1.76013 0.155867 9.09123 215 212 203
-0.0938595 2.21993 6.2912 211 208 199
0.332415 0.671298 6.18268 213 210 201
0.0711169 2.10428 6.56639 214 211 202
0.189823 1.96615 6.73601 216 214 202
-0.0839277 2.23521 6.29674 209 206 197
1.40103 0.628629 8.53141 216 217 199
-0.103221 2.27283 6.26362 210 210 198
-0.124916 2.28453 6.22039 211 208 199
-0.124916 2.28453 6.22039 211 208 199
0.0940746 2.07726 6.56213 215 212 203
0.104217 2.07409 6.57701 213 211 199
0.106724 2.05767 6.56818 206 204 191
0.103094 2.07579 6.56354 215 213 201
-0.0579665 2.26062 6.30276 213 208 188
-0.0571083 2.26342 6.30642 213 208 188
-0.139975 2.32417 6.15153 149 147 132
0.14877 1.02561 5.90233 218 215 208
0.0255385 2.17333 6.3886 0 0 0
0.046279 2.16323 6.42123 0 0 0
0.104366 2.09819 6.49829 0 0 0
0.167887 1.03885 5.91505 0 0 0
0.162376 1.12892 5.96333 0 0 0
0.106681 2.10999 6.48295 0 0 0
0.170703 1.35605 6.10618 0 0 0
1.33203 0.809596 8.28538 0 0 0
0.232257 2.01019 6.67098 0 0 0
0.238821 1.91064 6.60312 0 0 0
0.115953 2.13508 6.48148 0 0 0
1.57639 0.516976 8.59641 0 0 0
0.250818 1.75679 6.51847 0 0 0
0.255662 1.71693 6.50026 0 0 0
1.4206 0.726519 8.38197 0 0 0
1.36406 0.800193 8.30754 0 0 0
0.255719 1.7716 6.52375 0 0 0
1.35473 0.817367 8.27498 0 0 0
0.259959 2.00542 6.67315 0 0 0
0.142567 2.10611 6.48186 0 0 0
1.41987 0.757191 8.36229 0 0 0
0.145374 2.1049 6.48364 0 0 0
0.260975 2.01296 6.66482 0 0 0
0.260975 2.01296 6.66482 0 0 0
0.00929907 2.24668 6.26625 0 0 0
0.00929907 2.24668 6.26625 0 0 0
1.36325 0.81906 8.25197 0 0 0
-0.0295393 2.29341 6.20064 0 0 0
0.270815 2.01332 6.66397 0 0 0
0.026438 2.25429 6.26202 0 0 0
0.026438 2.25429 6.26202 0 0 0
0.110165 2.17539 6.3737 0 0 0
0.0439097 2.25211 6.26637 0 0 0
1.45578 0.77591 8.31916 0 0 0
1.46473 0.753842 8.32329 0 0 0
0.0287683 2.29753 6.2624 0 0 0
0.326177 2.0045 6.68092 0 0 0
0.158937 2.14544 6.41103 0 0 0
0.0425498 2.27292 6.24377 0 0 0
0.219607 2.10305 6.47828 0 0 0
-0.000185915 2.33989 6.14238 0 0 0
1.9188 0.406009 8.91741 0 0 0
1.5391 0.720551 8.30917 0 0 0
0.199943 2.14374 6.41333 0 0 0
0.224071 2.12681 6.42751 0 0 0
0.0437159 2.3343 6.17732 0 0 0
1.47674 0.814574 8.18863 0 0 0
0.0578298 2.31712 6.18139 0 0 0
1.48759 0.824071 8.19844 0 0 0
0.0774184 2.29949 6.20166 0 0 0
0.617247 1.78562 6.99032 0 0 0
1.51563 0.774331 8.20769 0 0 0
0.0751045 2.30822 6.19213 0 0 0
1.54334 0.741317 8.23093 0 0 0
1.50351 0.797162 8.17984 0 0 0
1.50351 0.797162 8.17984 0 0 0
1.99123 0.393351 8.9155 0 0 0
0.218703 2.18082 6.35101 0 0 0
0.228527 2.18115 6.34169 0 0 0
0.516796 1.95531 6.75152 0 0 0
1.99377 0.479458 8.81174 0 0 0
1.78125 0.57812 8.43718 0 0 0
1.21913 1.23168 7.70287 0 0 0
1.28907 1.17237 7.78163 0 0 0
1.20099 1.26525 7.64972 0 0 0
1.3032 1.15801 7.78555 0 0 0
1.34074 1.12425 7.81307 0 0 0
1.33413 1.13506 7.80585 0 0 0
0.730233 1.77903 6.99036 0 0 0
0.152933 2.32893 6.16964 0 0 0
1.20096 1.29208 7.61285 0 0 0
1.34998 1.12289 7.80619 0 0 0
0.737314 1.78254 6.98743 0 0 0
1.33552 1.13744 7.78363 0 0 0
0.744814 1.77315 6.99345 0 0 0
1.38158 1.08686 7.84062 0 0 0
1.20449 1.29331 7.60583 0 0 0
0.530712 1.98976 6.68712 0 0 0
1.45587 0.996986 7.91947 0 0 0
0.759261 1.77253 7.00344 0 0 0
0.759261 1.77253 7.00344 0 0 0
1.21534 1.28891 7.60796 0 0 0
1.20668 1.30215 7.59589 0 0 0
1.36527 1.11811 7.79039 0 0 0
0.577434 1.95873 6.73668 0 0 0
1.24113 1.27265 7.63182 0 0 0
1.40515 1.07121 7.83185 0 0 0
1.22831 1.28484 7.60928 0 0 0
0.320072 2.16468 6.33615 0 0 0
1.1894 1.34536 7.5453 0 0 0
0.376862 2.14126 6.42064 0 0 0
0.400481 2.11628 6.44752 0 0 0
1.28892 1.22947 7.66188 0 0 0
0.676182 1.88417 6.8451 0 0 0
1.3344 1.18092 7.7098 0 0 0
0.557853 1.99897 6.67046 0 0 0
0.319769 2.19543 6.31703 0 0 0
1.04749 1.47282 7.30937 0 0 0
1.4758 1.0277 7.87801 0 0 0
1.32231 1.20624 7.6794 0 0 0
1.32687 1.19423 7.68063 0 0 0
1.43259 1.06748 7.80389 0 0 0
1.24281 1.3047 7.57143 0 0 0
1.27482 1.2727 7.61435 0 0 0
0.758377 1.82324 6.93394 0 0 0
1.81804 0.79422 8.39002 0 0 0
1.86164 0.760577 8.44283 0 0 0
1.21855 1.34619 7.52821 0 0 0
0.754198 1.83588 6.91392 0 0 0
1.26025 1.31424 7.57465 0 0 0
1.78171 0.851715 8.3064 0 0 0
1.855 0.783552 8.40684 0 0 0
1.33822 1.20685 7.65286 0 0 0
1.33822 1.20685 7.65286 0 0 0
1.25822 1.32009 7.5541 0 0 0
0.650006 1.94543 6.74522 0 0 0
0.719159 1.89324 6.84554 0 0 0
0.719159 1.89324 6.84554 0 0 0
1.35109 1.19424 7.65364 0 0 0
1.32768 1.26197 7.63808 0 0 0
1.36776 1.18462 7.66865 0 0 0
1.04889 1.49531 7.23391 0 0 0
1.02314 1.52674 7.19817 0 0 0
0.841242 1.7705 6.97971 0 0 0
1.81244 0.853846 8.29621 0 0 0
0.834854 1.78793 6.96325 0 0 0
1.362 1.19648 7.6276 0 0 0
1.27903 1.31359 7.53624 0 0 0
1.27903 1.31359 7.53624 0 0 0
0.84234 1.7789 6.96824 0 0 0
0.423292 2.15237 6.38171 0 0 0
0.423292 2.15237 6.38171 0 0 0
1.35096 1.21785 7.61277 0 0 0
1.88595 0.799488 8.39343 0 0 0
1.22646 1.36999 7.45794 0 0 0
1.83747 0.844538 8.32058 0 0 0
1.22324 1.39613 7.4549 0 0 0
2.1987 0.502664 8.79923 0 0 0
1.36174 1.21056 7.6086 0 0 0
1.96232 0.747394 8.48023 0 0 0
1.90174 0.804519 8.38643 0 0 0
1.46744 1.14898 7.74677 0 0 0
1.31538 1.29044 7.53454 0 0 0
1.24398 1.38026 7.44861 0 0 0
0.655628 1.99348 6.67788 0 0 0
0.995616 1.61523 7.09322 0 0 0
1.45883 1.17224 7.71452 0 0 0
1.96126 0.779701 8.44045 0 0 0
1.33518 1.27167 7.53465 0 0 0
1.33205 1.28409 7.51707 0 0 0
1.9075 0.824624 8.33786 0 0 0
1.47662 1.18832 7.72615 0 0 0
1.98875 0.774138 8.44649 0 0 0
0.896881 1.76668 6.95593 0 0 0
1.28757 1.34014 7.44167 0 0 0
1.28757 1.34014 7.44167 0 0 0
1.03356 1.57274 7.09029 0 0 0
0.896281 1.76937 6.94482 0 0 0
0.794915 1.88541 6.81674 0 0 0
0.796701 1.88944 6.81277 0 0 0
1.35326 1.28023 7.50405 0 0 0
0.764026 1.93061 6.75902 0 0 0
0.875502 1.82211 6.90283 0 0 0
0.883803 1.79923 6.90617 0 0 0
2.026 0.75767 8.4491 0 0 0
0.924674 1.76634 6.95407 0 0 0
1.05611 1.57444 7.08579 0 0 0
0.291246 2.3757 6.10789 0 0 0
0.337751 2.34024 6.17 0 0 0
1.33888 1.32836 7.46168 0 0 0
1.03567 1.65728 7.08287 0 0 0
0.772347 1.93674 6.74892 0 0 0
0.892798 1.8095 6.89479 0 0 0
0.918474 1.78474 6.92747 0 0 0
0.918474 1.78474 6.92747 0 0 0
1.87593 0.951982 8.23236 0 0 0
1.44192 1.27029 7.59973 0 0 0
0.954625 1.75773 6.96504 0 0 0
0.917012 1.81018 6.90512 0 0 0
1.28578 1.39908 7.35044 0 0 0
1.0836 1.61913 7.08138 0 0 0
1.0836 1.61913 7.08138 0 0 0
0.363007 2.35269 6.15754 0 0 0
0.821847 1.8965 6.7448 0 0 0
1.30484 1.39876 7.34838 0 0 0
0.924271 1.82642 6.88083 0 0 0
1.45415 1.31212 7.56576 0 0 0
0.779706 1.97086 6.69298 0 0 0
1.91233 0.94223 8.19815 0 0 0
1.3092 1.40434 7.33563 0 0 0
1.45661 1.31757 7.5514 0 0 0
0.813302 1.9455 6.71919 0 0 0
0.813302 1.9455 6.71919 0 0 0
0.831698 1.92299 6.73915 0 0 0
1.10664 1.6207 7.0715 0 0 0
0.95387 1.80701 6.89555 0 0 0
1.53383 1.27307 7.65117 0 0 0
2.3797 0.535268 8.78755 0 0 0
0.951604 1.8125 6.88357 0 0 0
1.39205 1.3699 7.4403 0 0 0
1.30827 1.42831 7.31122 0 0 0
0.518479 2.21621 6.30776 0 0 0
0.811057 1.96107 6.69354 0 0 0
2.39982 0.546132 8.78219 0 0 0
0.82134 1.96079 6.69349 0 0 0
0.519238 2.22804 6.29211 0 0 0
1.95449 0.969591 8.19858 0 0 0
1.49064 1.33441 7.55549 0 0 0
0.919779 1.88385 6.80046 0 0 0
1.15423 1.60143 7.06465 0 0 0
0.54629 2.21961 6.29329 0 0 0
1.54728 1.32518 7.59943 0 0 0
0.557825 2.21279 6.30429 0 0 0
1.16521 1.60658 7.0584 0 0 0
0.564269 2.20955 6.30833 0 0 0
1.92613 1.01565 8.0994 0 0 0
0.5635 2.21929 6.30472 0 0 0
1.43784 1.42358 7.40433 0 0 0
1.56064 1.34214 7.57434 0 0 0
1.60356 1.30798 7.63032 0 0 0
1.4988 1.40554 7.45795 0 0 0
1.52478 1.40179 7.48589 0 0 0
2.23307 0.841292 8.40989 0 0 0
1.4112 1.52761 7.32051 0 0 0
0.610184 2.23016 6.27696 0 0 0
2.06396 1.00536 8.15389 0 0 0
1.13771 1.82809 6.96157 0 0 0
1.30769 1.56651 7.1152 0 0 0
0.886172 2.00296 6.61061 0 0 0
0.488062 2.38695 6.11826 0 0 0
2.64386 0.509643 8.86034 0 0 0
1.27862 1.61396 7.06196 0 0 0
2.66644 0.513381 8.857 0 0 0
2.65968 0.488009 8.81747 0 0 0
0.499302 2.40535 6.08926 0 0 0
2.66705 0.494025 8.82084 0 0 0
2.65968 0.494259 8.80936 0 0 0
1.02606 1.92604 6.73134 0 0 0
0.526336 2.38628 6.1093 0 0 0
0.545439 2.36983 6.1213 0 0 0
0.52393 2.41208 6.07723 0 0 0
0.520463 2.41435 6.07229 0 0 0
0.704432 2.22751 6.26983 0 0 0
1.32964 1.68493 7.04508 0 0 0
0.565311 2.38764 6.1058 0 0 0
1.72299 1.38101 7.5459 0 0 0
0.540363 2.41643 6.06946 0 0 0
2.55023 0.71673 8.60182 0 0 0
0.592636 2.3605 6.12441 0 0 0
1.50311 1.55711 7.2244 0 0 0
0.609122 2.36762 6.10993 0 0 0
0.482918 2.49736 5.96295 0 0 0
2.86433 0.485683 8.89048 0 0 0
1.66606 1.49633 7.38558 0 0 0
2.61919 0.710591 8.57053 0 0 0
0.786135 2.24295 6.26529 0 0 0
0.786135 2.24295 6.26529 0 0 0
1.63168 1.52056 7.2975 0 0 0
1.60263 1.56154 7.26453 0 0 0
1.62547 1.54546 7.28244 0 0 0
1.62547 1.54546 7.28244 0 0 0
1.5454 1.59024 7.1712 0 0 0
0.657436 2.3754 6.09316 0 0 0
0.657436 2.3754 6.09316 0 0 0
1.54427 1.59808 7.15414 0 0 0
2.682 0.715571 8.58025 0 0 0
1.67724 1.53062 7.32748 0 0 0
1.30889 1.86886 6.87711 0 0 0
1.4498 1.711 7.02576 0 0 0
2.97852 0.482712 8.90977 0 0 0
2.94015 0.516609 8.86251 0 0 0
2.68088 0.752822 8.54929 0 0 0
1.56736 1.61926 7.13429 0 0 0
1.24283 1.98359 6.77029 0 0 0
2.76402 0.709183 8.60841 0 0 0
2.28883 1.10983 7.99375 0 0 0
2.28883 1.10983 7.99375 0 0 0
3.04411 0.491579 8.90638 0 0 0
0.693063 2.42478 6.04038 0 0 0
3.00401 0.522751 8.82695 0 0 0
3.09267 0.48439 8.91618 0 0 0
0.75526 2.3847 6.09535 0 0 0
1.29734 1.97702 6.7601 0 0 0
0.639235 2.50041 5.9397 0 0 0
1.31542 1.99832 6.75325 0 0 0
1.71864 1.61579 7.19142 0 0 0
1.41478 1.91865 6.85031 0 0 0
3.15124 0.505996 8.90574 0 0 0
1.82783 1.56965 7.30896 0 0 0
1.27766 2.04893 6.65498 0 0 0
1.79938 1.59735 7.25382 0 0 0
3.17219 0.509479 8.8866 0 0 0
1.83549 1.57055 7.29375 0 0 0
1.455 1.93749 6.84645 0 0 0
1.45967 1.95313 6.8344 0 0 0
0.814067 2.45693 6.06015 0 0 0
2.11523 1.42506 7.58542 0 0 0
2.99726 0.722715 8.60533 0 0 0
2.26918 1.3331 7.71236 0 0 0
1.55166 1.93643 6.85446 0 0 0
0.666141 1.80051 5.41346 0 0 0
1.19787 2.25276 6.44533 0 0 0
1.63142 1.88282 6.92315 0 0 0
1.75547 1.69614 7.01172 0 0 0
1.18807 2.24895 6.40214 0 0 0
0.916073 1.64157 5.68539 0 0 0
1.51027 2.00379 6.76471 0 0 0
1.35629 2.1595 6.57897 0 0 0
1.25542 2.22779 6.45623 0 0 0
1.614 1.94168 6.84312 0 0 0
1.65193 1.91753 6.85804 0 0 0
1.62993 1.9523 6.827 0 0 0
1.62993 1.9523 6.827 0 0 0
1.66192 1.92745 6.85296 0 0 0
1.63804 1.94439 6.82437 0 0 0
1.65894 1.93411 6.84961 0 0 0
1.61887 1.96646 6.79784 0 0 0
1.27101 2.25043 6.40035 0 0 0
1.59502 1.99957 6.76151 0 0 0
1.62077 1.9793 6.78063 0 0 0
1.28315 2.25263 6.4023 0 0 0
1.29423 2.24256 6.40727 0 0 0
1.35868 2.20226 6.48057 0 0 0
2.43954 1.36083 7.69733 0 0 0
1.27656 2.26049 6.37946 0 0 0
2.09055 1.63626 7.29118 0 0 0
1.35813 2.21559 6.45857 0 0 0
1.71225 1.92544 6.83332 0 0 0
2.06034 1.66001 7.22282 0 0 0
1.35701 2.22289 6.44148 0 0 0
1.46754 2.15045 6.56183 0 0 0
2.45229 1.40479 7.63374 0 0 0
1.48617 2.14696 6.55613 0 0 0
1.49123 2.14099 6.56062 0 0 0
2.09833 1.65858 7.22685 0 0 0
1.521 2.11454 6.58393 0 0 0
1.46099 2.1783 6.52096 0 0 0
-1.92497 1.07238 7.57922 164 93 27
-1.9294 1.07974 7.57432 163 94 29
-1.9763 1.14624 7.48226 162 92 32
-2.0499 1.18703 7.25786 166 97 28
-1.95322 1.11995 7.51849 160 92 31
-2.03159 1.17909 7.26142 164 96 31
-1.91176 1.09419 7.56818 160 90 31
-1.89226 1.07683 7.59249 155 86 31
-1.87633 1.06083 7.62131 158 87 31
-1.90642 1.0974 7.56547 156 85 29
-2.02934 1.20565 7.2516 158 87 31
-1.86563 1.06252 7.61608 158 88 28
-1.86027 1.05871 7.61471 155 84 28
-1.8669 1.07096 7.60946 155 86 29
-1.87655 1.08359 7.59267 155 86 29
-1.85809 1.06538 7.61227 153 82 28
-2.0157 1.20597 7.24266 155 85 26
-1.84652 1.07124 7.60738 162 93 34
-1.85139 1.08641 7.57534 168 101 30
-1.76814 0.981885 7.66974 168 97 31
-1.82782 1.0759 7.58622 167 97 35
-1.76247 0.984521 7.6641 165 93 34
-1.72126 0.92578 7.71269 165 95 33
-1.78008 1.00838 7.59968 168 99 34
-1.78392 1.02475 7.56113 158 89 30
-1.8061 1.06743 7.53206 160 91 32
-1.84843 1.13934 7.49781 161 93 32
-1.75161 0.998804 7.56979 164 99 35
-1.56642 0.769997 7.78536 164 94 32
-1.83327 1.1356 7.41942 165 97 36
-1.78674 1.06904 7.46445 159 93 33
-1.71077 0.986645 7.53725 160 94 34
-1.71726 1.01799 7.52214 155 85 33
-1.80421 1.16775 7.43571 159 86 31
-1.45624 0.68747 7.87197 153 82 30
-1.65211 0.925702 7.55639 150 80 31
-1.96337 1.33608 7.12029 155 85 33
-1.67392 0.960687 7.52075 151 81 29
-1.67392 0.960687 7.52075 151 81 29
-1.9535 1.32683 7.12588 157 84 31
-1.9535 1.32683 7.12588 157 84 31
-1.60777 0.887304 7.60935 148 80 33
-1.76311 1.12119 7.43588 142 76 28
-1.5865 0.864978 7.61971 137 73 27
-1.76649 1.14971 7.43426 144 76 27
-1.76649 1.14971 7.43426 144 76 27
-1.76649 1.14971 7.43426 144 76 27
-1.94786 1.34471 7.09427 148 78 27
-1.66465 0.999606 7.50912 146 76 27
-1.47813 0.764724 7.74907 161 91 29
-1.47243 0.755963 7.75428 160 90 28
-1.9386 1.35038 7.08253 142 74 25
-1.7261 1.14218 7.43535 152 81 29
-1.72297 1.14577 7.43281 156 85 33
-1.8203 1.3047 7.3204 150 80 29
-1.70952 1.15025 7.43779 155 82 27
-1.70236 1.15652 7.43988 159 87 29
-1.50898 0.866667 7.61958 153 84 29
-1.54887 0.741422 7.27978 157 87 27
-1.47226 0.829948 7.67729 153 83 23
-1.70264 1.19967 7.44219 161 92 27
-1.78531 1.32533 7.3097 155 85 33
-1.53726 0.95247 7.54867 157 88 29
-1.67157 1.17343 7.4422 146 78 29
-1.54536 0.997876 7.53139 164 93 37
-1.52271 0.962874 7.55018 159 90 33
-1.46898 0.888615 7.61238 151 81 29
-1.7632 1.31831 7.30449 152 83 28
-1.72977 1.31337 7.29606 162 92 30
-1.83924 1.45745 7.14492 157 88 31
-1.84074 1.10786 6.59997 155 85 26
-1.72783 1.31879 7.28883 155 85 26
-1.52846 1.0326 7.49795 168 99 32
-1.76885 1.38286 7.23566 163 95 32
-1.54078 1.07463 7.47872 164 99 31
-0.824538 0.219554 8.4675 171 108 41
-1.60605 1.20711 7.44469 165 100 34
-1.71675 1.33462 7.26962 164 99 33
-1.71675 1.33462 7.26962 164 99 33
-1.70717 1.34446 7.26923 148 81 26
-1.51129 1.0642 7.46813 163 95 32
-1.68786 1.34362 7.26417 153 87 27
-1.67638 1.3355 7.26563 171 104 36
-1.74531 1.43008 7.18697 163 95 30
-1.64246 1.31218 7.30587 165 95 33
-1.73036 1.42063 7.18696 169 104 36
-1.4987 1.12759 7.46969 172 98 33
-1.55456 1.22357 7.43458 163 98 30
-1.61094 1.27633 7.33073 170 99 33
-1.39645 0.994096 7.56788 166 99 29
-0.54685 0.0179976 8.76962 174 118 57
-1.60925 1.2871 7.31238 175 109 35
-1.71635 1.42987 7.18468 196 170 135
-1.63052 1.32208 7.27984 170 105 37
-0.528638 0.0347193 8.7849 177 115 64
-1.37552 0.987626 7.56405 157 91 33
-1.59818 1.28708 7.30687 164 95 30
-1.41384 1.04664 7.52323 156 89 34
-1.68805 1.40606 7.20007 212 214 201
-1.59118 1.28134 7.31067 160 108 60
-0.459484 -0.0317028 8.87145 183 122 65
-1.61692 1.31986 7.27001 158 96 37
-0.915387 0.462159 8.1508 181 115 37
-0.439418 -0.0135278 8.87984 165 109 62
-0.489837 0.0416793 8.80495 164 110 63
-1.57185 1.28939 7.307 209 207 195
-1.59481 1.32187 7.27155 194 192 179
-1.42309 1.10292 7.47493 170 101 34
-1.61391 1.34854 7.24251 204 201 192
-1.56667 1.29227 7.30203 201 199 187
-1.60642 1.34084 7.24989 199 197 185
-1.22631 0.867744 7.71032 168 97 35
-1.43353 1.13756 7.46731 176 105 39
-1.55233 1.28777 7.30316 208 206 194
-1.04997 0.679591 7.92733 168 98 38
-1.32708 1.00372 7.54929 151 81 32
-1.67509 1.45285 7.14439 208 208 196
-1.54467 1.28983 7.30298 209 207 195
-1.19996 0.862766 7.71519 167 97 35
-0.854708 0.459911 8.17049 165 100 36
-1.55099 1.30145 7.27754 210 208 196
-1.15335 0.832814 7.77208 171 102 37
-1.54893 1.30925 7.26415 210 208 196
-1.44737 1.22807 7.43572 211 209 197
-1.66497 1.47563 7.11686 180 178 165
-1.22724 0.953606 7.65375 208 210 197
-1.52541 1.30643 7.26879 208 208 198
-1.61382 1.42995 7.15153 141 141 131
-1.49863 1.29907 7.30337 209 206 197
-1.52467 1.32684 7.25501 204 204 192
-1.64007 1.47665 7.11633 125 125 115
-1.42118 1.24837 7.42929 209 209 197
-1.34328 1.12864 7.48911 198 198 186
-1.33551 1.12599 7.48683 203 203 191
-0.183994 -0.135895 9.08308 179 120 64
-1.53343 1.35455 7.21799 118 117 112
-1.48895 1.3104 7.25635 172 192 190
-1.51284 1.34336 7.22701 200 198 185
-1.3404 1.16074 7.46688 207 207 197
-1.57927 1.45643 7.12441 208 208 196
-0.813399 0.596208 8.07571 206 206 196
-1.4765 1.35556 7.2109 202 202 192
-1.34975 1.26448 7.42939 204 205 197
-1.067 0.900757 7.71839 206 206 196
-1.5242 1.43405 7.13706 203 203 191
-1.56126 1.48005 7.09382 175 176 162
-1.6016 1.54513 7.03752 213 211 199
-1.26086 1.16356 7.47264 86 86 74
-0.577975 0.390506 8.33387 209 206 197
-1.43676 1.3542 7.2112 187 187 175
-1.42235 1.34064 7.22928 199 199 187
-1.41722 1.33615 7.22926 184 184 172
-1.2333 1.16987 7.47223 106 109 98
-1.05587 0.980074 7.68985 208 205 196
-1.05587 0.980074 7.68985 208 205 196
-1.4036 1.35035 7.21428 194 194 182
-1.26531 1.25166 7.43723 95 97 84
-1.53647 1.52541 7.05035 201 200 169
-1.48753 1.46213 7.10107 209 210 196
-1.22707 1.19675 7.46326 66 68 55
-1.02099 0.946595 7.69697 204 204 192
-0.566487 0.468874 8.27382 203 203 191
-1.26343 1.28552 7.42456 33 33 23
-1.23999 1.25354 7.42821 37 39 28
-1.44017 1.44074 7.12303 199 200 182
-0.674122 0.616685 8.12146 201 205 191
-1.57743 1.61723 6.95966 126 107 65
-1.57743 1.61723 6.95966 126 107 65
-1.09639 1.09804 7.57638 87 92 72
-1.61167 1.66034 6.91553 166 142 78
-1.13645 1.16214 7.51628 44 44 34
-0.537438 0.504289 8.24676 143 168 100
-1.55999 1.61943 6.95016 141 127 78
-1.35677 1.38392 7.1896 184 187 168
0.0752176 -0.0903964 9.10547 206 206 196
-1.31801 1.3594 7.23887 43 41 28
-1.35914 1.39565 7.15371 204 203 175
-1.57801 1.66561 6.91352 86 86 62
-1.42347 1.49363 7.07452 137 129 64
-1.42347 1.49363 7.07452 137 129 64
-1.1761 1.26787 7.43277 28 28 18
-1.1761 1.26787 7.43277 28 28 18
-1.43613 1.51294 7.05865 125 116 59
-1.46683 1.55602 7.01183 111 110 62
-0.542625 0.575503 8.18974 193 193 181
-1.38197 1.47188 7.09208 133 129 58
-1.44064 1.56186 7.00827 63 64 46
-1.53171 1.6738 6.90197 65 62 53
-1.38931 1.51862 7.04751 109 117 60
-1.38931 1.51862 7.04751 109 117 60
-1.47889 1.65582 6.92523 177 182 152
-1.49521 1.67298 6.90298 206 208 194
-0.485705 0.648431 8.15264 211 211 199
-0.483177 0.668623 8.13693 211 212 204
-0.435396 0.644738 8.15273 212 212 200
-1.34588 1.57325 6.99934 152 158 124
-1.34588 1.57325 6.99934 152 158 124
-0.393298 0.602873 8.18388 212 212 200
-1.48788 1.74335 6.82652 149 153 120
-1.20257 1.44922 7.12031 143 148 118
-1.20257 1.44922 7.12031 143 148 118
-1.14551 1.39761 7.18473 147 151 126
-1.1917 1.52112 7.05002 103 107 90
-1.07503 1.41029 7.16021 106 111 88
-1.40202 1.78739 6.7555 116 119 100
-1.17718 1.56608 6.99665 144 148 133
-1.07923 1.46124 7.10492 116 128 104
-0.69273 0.647149 7.07444 79 73 49
-0.677553 0.629143 7.0647 61 58 41
-0.686085 0.672805 7.06909 57 56 36
-1.18997 1.60847 6.94552 103 108 88
-0.794899 1.25138 7.44261 66 69 40
-0.843117 1.31347 7.3949 75 76 58
-0.667918 0.680456 7.05294 48 46 33
0.373554 0.187075 8.8425 208 208 200
-1.28039 1.73316 6.8079 90 91 57
-1.23869 1.69116 6.8505 101 103 66
-0.665503 0.670553 7.02517 61 60 40
-0.804872 1.32007 7.39495 72 74 52
-1.173 1.66891 6.86545 112 113 81
-0.598042 1.21459 7.64207 69 68 48
-0.764623 1.33147 7.39894 60 60 48
-0.587846 0.481676 6.86336 215 213 201
-0.581535 0.474751 6.86504 215 213 201
-1.08838 1.60016 6.92928 96 100 73
-0.592455 0.22889 6.54662 215 215 205
-1.26462 1.79363 6.73117 76 76 52
-0.59449 0.485765 6.80122 214 214 202
-0.594008 0.241352 6.51443 216 214 202
-0.59114 0.225652 6.4999 214 212 200
-0.672323 1.25454 7.40653 58 58 46
-1.12022 1.67065 6.8517 68 69 51
-0.593495 0.503138 6.75523 199 186 92
-1.19101 1.75101 6.75856 80 81 67
-0.585145 0.276091 6.51241 84 80 68
-0.556755 0.132631 6.42005 213 213 203
-1.20472 1.77228 6.74148 64 65 49
0.587631 0.19242 8.89213 212 212 202
-0.54141 0.130848 6.39824 83 80 71
-0.973035 1.58875 6.96834 76 74 62
-0.544872 0.184759 6.37646 75 72 63
-1.02082 1.66722 6.8699 62 63 49
0.67963 0.235722 8.90088 77 77 67
-0.591861 1.39119 7.42326 57 59 37
-0.557428 0.378387 6.4662 72 69 60
-0.562568 0.44346 6.48967 76 74 62
-0.562568 0.44346 6.48967 76 74 62
-1.26016 1.93203 6.54546 82 81 61
-1.26367 1.94352 6.53103 56 58 37
0.744068 0.230047 8.90534 89 85 74
-0.578975 0.613611 6.57024 213 213 203
-1.23423 1.93216 6.54842 66 64 43
0.70441 0.273553 8.83081 80 80 70
-0.887819 1.62374 6.93203 74 73 55
-0.534898 0.200559 6.23181 77 74 65
-0.553565 0.410414 6.38342 76 73 66
-0.559088 0.425345 6.38653 73 70 63
-0.563072 0.446894 6.39464 70 67 60
-0.866787 1.62207 6.93137 88 87 67
-1.22447 1.94613 6.52622 66 64 43
-0.421772 0.0840452 6.29307 78 75 66
-1.04753 1.80248 6.72518 68 66 51
-0.559015 0.481315 6.39519 69 66 57
0.846304 0.235281 8.94086 80 82 69
0.846304 0.235281 8.94086 80 82 69
-0.822622 1.61028 6.95134 66 64 49
-0.822622 1.61028 6.95134 66 64 49
-0.510641 0.168769 6.11411 77 74 67
-1.21743 1.98837 6.47194 67 66 48
-0.533993 1.37599 7.22488 62 60 45
-0.703333 1.58197 7.05231 34 31 22
-0.948609 1.80159 6.74038 207 207 197
-0.965736 1.82498 6.72533 86 84 69
-0.510808 1.48981 7.28558 151 149 136
-0.530311 0.397484 6.1801 69 66 59
0.913945 0.286095 8.8644 208 210 196
-0.297282 0.115895 6.34328 199 194 162
-0.495664 1.50208 7.27592 142 139 122
0.912236 0.309637 8.85713 213 212 184
0.935681 0.295146 8.88818 208 202 144
-0.939766 1.83314 6.72299 191 187 175
-0.501823 0.310545 6.09291 77 74 67
-0.48493 1.11261 6.87863 77 73 46
-0.699435 1.63979 6.94741 27 27 19
1.0268 0.247266 8.92188 134 98 74
1.0268 0.247266 8.92188 134 98 74
-0.465694 1.02786 6.78667 120 113 94
-0.468397 1.11855 6.84395 66 65 45
-0.920641 1.89106 6.67988 135 132 117
-0.737905 1.73681 6.86622 116 109 91
-0.230381 0.104453 6.29361 196 180 144
-0.225857 0.0997503 6.29196 175 149 100
-0.390897 1.38462 7.16662 103 98 79
-1.0817 2.02302 6.46383 72 70 57
-0.448195 1.04127 6.72957 83 83 55
1.19507 0.260198 8.9125 158 133 79
1.4425 0.114498 9.1637 119 97 74
-0.80673 1.91743 6.67775 71 68 53
-0.362714 0.445904 6.15285 211 211 201
-0.357257 0.458616 6.14807 157 157 149
-0.125688 0.0530179 6.19563 85 81 69
-0.303747 0.297982 6.08045 209 209 199
-0.37902 0.848414 6.40469 198 198 186
-0.343088 0.506484 6.14801 201 201 191
-0.36508 0.94684 6.49541 196 196 184
-0.324956 0.444583 6.11802 214 214 204
-0.324956 0.444583 6.11802 214 214 204
-0.348193 0.550628 6.1577 201 201 191
-0.245816 0.29766 6.07419 219 217 205
-0.337151 0.557328 6.13456 202 202 192
-0.273731 0.381585 6.07019 202 202 192
1.36686 0.356063 8.86967 191 190 185
-0.212942 0.299716 6.07182 204 204 194
-0.29436 0.492776 6.06288 191 190 172
-0.237525 0.366814 6.05178 199 203 188
1.39264 0.396496 8.83633 213 210 201
-0.303982 0.541599 6.05955 178 184 174
-0.33826 0.674314 6.10753 210 210 200
-0.203755 0.34967 6.03748 220 208 184
-0.216292 0.369259 6.03248 129 128 134
-0.316389 0.617101 6.06418 195 193 178
-0.196609 0.347419 6.03425 98 96 97
-0.256877 0.472066 6.027 218 213 207
-0.256877 0.472066 6.027 218 213 207
-0.273802 0.515584 6.0226 214 214 202
-0.250483 0.469092 6.01094 137 135 123
1.55183 0.332563 8.89701 206 205 201
-0.244127 0.496834 5.99922 207 208 194
1.5316 0.373003 8.83539 207 207 195
-0.302047 0.686384 6.03092 206 206 196
-0.25474 0.558588 5.98699 199 199 189
-0.241314 0.531586 5.97165 215 215 205
-0.296074 0.713253 6.02428 204 204 194
0.0521923 1.54828 7.27716 220 214 200
-0.253398 0.572786 5.97161 187 188 180
-0.299339 0.761859 6.04679 215 215 207
0.0372923 1.5693 7.25684 215 212 207
-0.281919 0.690716 6.00088 203 199 188
1.60136 0.367426 8.81107 213 203 178
-0.251698 0.602046 5.97385 128 126 113
1.63011 0.344116 8.82631 208 215 223
-0.297153 0.914711 6.14379 221 218 211
-0.297153 0.914711 6.14379 221 218 211
0.0793765 1.5488 7.27474 203 201 186
-0.21949 0.575258 5.95327 119 116 109
-0.184129 0.492661 5.94139 198 199 191
-0.194583 0.511027 5.93544 202 203 195
1.62849 0.36876 8.75667 212 213 199
-0.232435 0.616606 5.95183 208 206 193
-0.215307 0.576021 5.93951 209 209 197
-0.222789 0.601101 5.94578 222 220 205
-0.261088 0.762137 5.99914 123 124 119
-0.279334 1.84938 6.8351 208 208 196
-0.197171 0.555931 5.91667 200 200 190
-0.257292 0.768802 5.99135 219 215 203
-0.124965 0.413428 5.91575 205 202 193
-0.204658 0.591769 5.92916 228 219 212
-0.198187 0.569476 5.91809 217 215 203
-0.223525 0.656258 5.94673 219 216 207
-0.271631 1.7717 6.75889 213 210 201
-0.21858 0.642465 5.9344 198 200 187
-0.0978465 1.06459 6.45888 208 205 196
-0.144397 0.472445 5.90275 210 210 200
0.162579 1.55881 7.2522 178 176 163
-0.175075 0.544283 5.89962 208 208 198
-0.202267 0.621838 5.91219 140 138 126
-0.12637 0.453281 5.89645 209 209 199
-0.12637 0.453281 5.89645 209 209 199
-0.189772 0.584363 5.90026 201 202 186
-0.18763 0.585389 5.89458 199 199 187
-0.221984 0.79263 5.97343 182 176 164
-0.191856 0.631388 5.89136 221 222 217
-0.141549 0.520274 5.8802 189 189 181
-0.221709 0.801507 5.97694 197 193 182
-0.149229 0.528689 5.87461 208 208 198
-0.183594 0.598883 5.87551 124 122 110
-0.183594 0.598883 5.87551 124 122 110
-0.094539 0.424271 5.8763 210 210 202
-0.110775 0.476549 5.88029 210 207 198
-0.210765 0.770072 5.95121 219 217 205
-0.214414 0.811132 5.97466 214 216 205
-0.206286 0.751886 5.93731 223 223 213
-0.186501 0.6331 5.87352 205 199 185
-0.191119 0.652914 5.87999 185 185 173
-0.218237 0.852724 5.99253 210 210 200
-0.183843 0.63558 5.87484 214 208 194
-0.0918414 0.436234 5.86024 212 212 200
-0.2017 0.729705 5.91837 185 183 171
-0.188212 0.66564 5.86941 215 212 203
-0.247019 1.91614 6.75722 212 212 202
-0.21134 0.959819 6.04521 211 208 199
-0.18378 0.670724 5.86057 213 210 201
-0.204379 0.887657 5.99193 213 212 194
1.83818 0.456565 8.80286 167 164 157
1.83818 0.456565 8.80286 167 164 157
-0.211673 1.04458 6.09796 208 205 196
-0.211673 1.04458 6.09796 208 205 196
-0.208697 0.982269 6.05197 212 210 198
-0.207053 1.92291 6.75519 211 209 197
-0.190611 0.888034 5.97494 217 215 200
-0.0701132 0.466332 5.82903 155 151 148
-0.055816 0.441071 5.82677 161 157 146
-0.055928 0.433948 5.81985 206 201 195
1.92114 0.45586 8.83905 205 202 193
-0.187619 1.9318 6.75557 214 211 202
-0.096458 0.548077 5.81629 184 183 165
-0.194316 1.94955 6.73974 213 210 201
-0.159861 0.727019 5.84601 220 217 208
-0.060319 0.523666 5.80502 216 220 206
-0.060319 0.523666 5.80502 216 220 206
-0.137713 0.702059 5.82109 216 213 204
-0.153543 1.95517 6.73994 212 210 198
-0.155768 1.02007 6.02088 215 213 201
-0.129291 0.703175 5.8188 215 212 203
-0.153143 1.9616 6.7312 212 210 198
-0.137854 0.799293 5.86853 215 212 203
-0.0447651 0.520985 5.79558 185 182 175
-0.0967157 0.667269 5.81236 214 211 202
-0.1319 0.817538 5.87243 216 214 202
-0.0745402 1.92833 6.78519 212 208 197
-0.0350298 0.559524 5.79656 213 210 201
-0.113473 0.780469 5.84636 213 210 201
-0.113473 0.780469 5.84636 213 210 201
1.49111 0.807239 8.21287 216 213 204
-0.123845 1.22967 6.13651 212 209 200
1.53902 0.756598 8.22514 208 200 189
-0.0394642 1.92684 6.77844 207 206 201
-0.121171 1.02287 5.97507 210 208 196
2.15674 0.444869 8.86349 179 181 180
1.40565 0.929674 8.1056 212 209 200
1.79413 0.691911 8.49421 224 217 201
-0.105273 1.12421 6.0392 214 210 201
-0.0364085 0.695824 5.81811 214 211 202
-0.103717 1.10845 6.02433 221 216 194
