ply
format ascii 1.0 
element vertex 195
property float32 x 
property float32 y 
property float32 z
property uchar red  
property uchar green
property uchar blue
element face 0
property list uchar int vertex_indices
end_header
-6.98707 -2.36946 19.8909 243 191 203
-6.47484 -3.46916 19.9982 182 113 132
-5.47091 -0.135325 18.246 208 148 158
-6.54469 -5.41072 22.1191 50 20 18
-6.08683 -4.56912 20.6443 228 184 197
-5.40759 0.0690449 18.4102 202 146 159
-5.81287 -4.38879 20.4249 225 177 191
-5.81287 -4.38879 20.4249 225 177 191
-5.07673 -0.428116 18.1583 185 127 142
-5.91437 -4.78285 21.2566 96 60 72
-5.11227 -2.89553 18.6529 228 172 181
-5.06031 -2.7332 18.8076 222 165 180
-4.76618 -1.23198 18.1067 183 125 140
-4.74254 -0.286877 18.0552 59 17 19
-4.69752 -1.64397 18.2771 143 132 164
-4.53018 -0.282547 18.0476 102 49 59
-4.60253 -2.22508 18.4646 226 164 177
-4.46115 -0.829846 18.0917 230 172 184
-4.42328 -0.683471 18.0371 218 156 171
-4.43937 -2.30968 18.4295 226 168 180
-4.47461 -2.12179 18.596 144 165 212
-4.35675 -0.454807 18.1345 214 158 169
-4.25484 -0.311375 18.1359 210 157 167
-4.28908 -1.18525 18.3938 169 182 224
-4.05503 -1.94603 18.8299 108 157 200
-3.91422 -2.16321 18.3603 218 183 205
-3.81567 -0.76431 18.0807 200 142 156
-3.76949 -0.470678 18.0259 212 151 167
-3.83723 -1.90897 18.4674 161 204 246
-3.71548 -0.508994 18.4554 196 138 150
-4.00649 -4.88656 19.9934 68 8 0
-3.597 -0.607843 18.1912 145 88 103
-3.61642 -0.414421 18.3295 203 147 158
-3.57592 -1.08496 18.3081 232 171 179
-3.57772 -2.47077 18.6945 206 137 155
-3.69001 -4.22533 19.4537 38 18 17
-3.44057 -2.61993 18.3068 200 143 152
-3.69562 -4.40765 19.8837 25 11 11
-3.38322 -0.842866 18.292 183 135 149
-3.4822 -3.89515 19.2759 155 118 135
-3.4822 -3.89515 19.2759 155 118 135
-3.86099 -4.90979 21.4999 31 21 22
-3.20406 -2.3374 18.0967 199 143 152
-3.28414 -0.464753 18.7592 153 109 124
-3.2651 -2.54604 18.6895 212 150 163
-3.21112 -1.01662 18.6203 149 99 111
-3.23332 -2.36322 18.8396 201 148 158
-3.17519 -0.83839 18.6201 115 62 80
-3.14934 -2.08314 18.8543 185 124 140
-3.08808 -1.16347 18.505 147 99 115
-3.07205 -1.40878 18.5245 153 102 117
-2.96574 -1.98963 18.7872 177 126 143
-2.89853 -2.467 18.8876 167 115 127
-2.89264 -2.36592 19.0825 172 126 139
-2.90192 -2.11999 19.4287 131 78 98
-2.80012 -2.62375 18.9876 195 142 158
-2.7636 -1.73633 19.4077 182 129 145
-2.92029 -4.26115 20.6021 113 105 129
-2.92029 -4.26115 20.6021 113 105 129
-2.60657 -2.55163 19.0632 159 112 130
-2.63929 -2.30268 19.5442 196 150 163
-2.13283 -1.29236 22.0729 31 11 12
-2.21473 -1.99562 23.8731 32 12 14
-1.5232 -1.59638 23.556 102 89 106
-1.41549 -0.645535 23.5191 105 86 106
-1.16162 0.818979 22.0687 51 30 29
-1.18282 -2.59377 24.3156 114 96 94
-1.18282 -2.59377 24.3156 114 96 94
-1.07945 -1.23121 23.7983 69 47 70
-1.09477 -0.211676 24.0497 6 14 50
-1.05688 -1.72986 23.9019 109 82 61
-0.990382 0.230735 23.7087 0 15 49
-0.990382 0.230735 23.7087 0 15 49
-0.610901 -1.57622 23.9346 22 32 57
-0.467488 -1.08978 23.9595 41 46 76
-0.333664 -1.92073 24.0007 38 51 85
1.30947 -0.722924 22.9381 80 29 44
1.58947 0.987518 23.063 93 88 110
2.71777 -7.48393 31.7542 36 36 36
2.02269 -0.422486 22.1489 12 16 25
2.7842 -6.91611 28.7123 6 6 6
3.21552 -7.41067 28.8211 6 6 6
3.55378 -6.55399 30.6206 5 5 5
3.70767 -7.01045 29.9304 13 13 13
3.70767 -7.01045 29.9304 13 13 13
3.28168 -4.03089 26.4225 24 24 24
4.20489 -6.86907 29.209 5 5 5
4.50324 -7.02344 28.61 4 4 4
4.81472 -7.44459 29.5348 5 5 5
7.29614 12.1186 44.6484 91 70 79
7.06922 12.1296 42.7806 86 79 95
7.93798 11.6354 42.5242 103 99 116
7.93798 11.6354 42.5242 103 99 116
7.75876 11.4243 40.4049 112 108 125
7.64799 11.9574 39.3745 130 109 128
7.6822 11.4515 38.9825 135 88 104
4.10356 -0.0199216 20.4008 66 29 11
3.9519 -2.11777 19.3031 88 35 19
4.1042 -1.87125 19.9295 82 29 15
7.96513 10.1582 36.9476 110 107 116
7.6839 -11.6296 33.5837 79 40 33
8.36931 8.29566 34.7088 35 26 29
8.57752 8.63742 35.1953 35 26 31
8.33882 8.45536 33.647 22 20 21
5.16386 -4.06124 20.3441 50 17 12
8.02482 -11.0604 31.5636 93 43 32
5.1469 -3.13947 19.4475 57 16 12
6.23813 -3.0972 23.3694 58 16 18
6.12399 -4.58079 22.33 0 0 0
8.66661 8.97544 31.5663 0 0 0
7.24354 2.02337 24.6947 0 0 0
7.55918 2.05726 25.5196 0 0 0
7.55918 2.05726 25.5196 0 0 0
8.26067 -1.25582 26.9025 0 0 0
9.40998 -3.36685 30.3386 0 0 0
9.10905 5.62469 29.3048 0 0 0
9.07801 5.14254 29.0903 0 0 0
7.89901 2.04738 25.2591 0 0 0
7.89901 2.04738 25.2591 0 0 0
7.83669 1.82766 24.8428 0 0 0
8.79612 4.48352 27.4938 0 0 0
8.93473 6.00128 27.8935 0 0 0
9.191 6.38266 28.7 0 0 0
9.13039 3.79943 28.1779 0 0 0
9.21884 -2.15282 28.0611 0 0 0
9.52291 3.64681 27.8805 0 0 0
9.19232 5.10709 26.8243 0 0 0
9.16587 4.52084 26.6241 0 0 0
9.21745 3.7399 26.6426 0 0 0
9.4018 4.40275 27.1453 0 0 0
9.20217 4.97121 26.4804 0 0 0
9.54525 4.39699 26.4593 0 0 0
9.26662 4.07734 25.4923 0 0 0
9.19282 -1.93841 24.9667 0 0 0
9.36179 2.74448 25.2601 0 0 0
9.36179 2.74448 25.2601 0 0 0
9.21671 2.99039 24.4628 0 0 0
9.21671 2.99039 24.4628 0 0 0
9.29688 2.70466 24.6605 0 0 0
9.33028 -7.67804 24.65 0 0 0
9.39297 -8.41909 24.7696 0 0 0
9.36607 -7.02022 24.3376 0 0 0
9.2573 3.37705 23.9494 0 0 0
9.16514 -7.55107 23.6875 0 0 0
9.61813 3.13856 24.8498 0 0 0
8.90501 -7.10828 22.8022 0 0 0
9.43673 -6.60148 23.7525 0 0 0
9.239 -7.08572 23.113 0 0 0
9.51605 -2.43179 23.5718 0 0 0
9.13137 -6.69566 22.3846 0 0 0
9.31964 -7.11001 22.7938 0 0 0
9.30874 -6.34794 22.7407 0 0 0
9.205 -5.88258 22.3826 0 0 0
9.37078 4.15775 22.7068 0 0 0
9.21285 2.40103 22.2179 0 0 0
9.14977 1.6079 21.8584 0 0 0
9.40868 -6.36525 22.2902 0 0 0
9.50618 -0.202352 22.3655 0 0 0
9.4928 -5.56604 22.3218 0 0 0
9.51253 -1.09739 22.3372 0 0 0
9.62412 -1.07496 22.3223 0 0 0
9.55802 -0.571795 22.0512 0 0 0
9.24145 -5.98671 21.0759 0 0 0
8.95399 1.01225 20.3489 0 0 0
9.41313 1.80555 21.3304 0 0 0
9.46653 1.345 21.4158 0 0 0
10.0356 -1.75408 22.5941 0 0 0
9.5699 -5.36919 21.5149 0 0 0
9.53856 2.53854 21.3746 0 0 0
9.65334 -1.05373 21.523 0 0 0
9.65334 -1.05373 21.523 0 0 0
9.77478 -1.53065 21.7706 0 0 0
12.4335 -6.52071 27.2138 0 0 0
9.5117 -5.31484 20.8309 0 0 0
9.52992 2.12838 20.7408 0 0 0
9.67758 -1.1881 21.0258 0 0 0
9.67758 -1.1881 21.0258 0 0 0
9.62874 2.43661 20.897 0 0 0
9.56086 -4.63889 20.6153 0 0 0
9.46949 -4.97659 20.3099 0 0 0
9.86438 -0.742119 21.0688 0 0 0
9.66278 2.38603 20.5284 0 0 0
9.66278 2.38603 20.5284 0 0 0
9.6436 -0.281608 20.2792 0 0 0
9.6436 -0.281608 20.2792 0 0 0
9.63 -5.04806 20.1633 0 0 0
9.57811 2.36539 20.0556 0 0 0
9.57811 2.36539 20.0556 0 0 0
9.56359 -4.64378 19.9162 0 0 0
9.68899 -0.0996913 20.0955 0 0 0
9.57779 -4.09363 19.8358 0 0 0
9.65792 -0.558135 19.9925 0 0 0
9.78169 0.135149 20.0613 0 0 0
9.76738 -0.167397 19.6533 0 0 0
15.267 -10.1837 30.6348 0 0 0
