ply
format ascii 1.0 
element vertex 798
property float32 x 
property float32 y 
property float32 z
property uchar red  
property uchar green
property uchar blue
element face 0
property list uchar int vertex_indices
end_header
-4.13978 -3.86193 23.626 243 191 203
-3.9305 -5.13162 24.8378 182 113 132
-3.23764 -1.81221 22.9925 208 148 158
-3.36432 -6.28503 24.3245 50 20 18
-3.26781 -5.71486 23.7395 228 184 197
-3.22152 -1.61619 23.3558 202 146 159
-3.09192 -5.5743 23.6384 225 177 191
-3.09192 -5.5743 23.6384 225 177 191
-2.91496 -2.08351 22.8975 185 127 142
-3.03466 -5.84001 23.9849 96 60 72
-2.85935 -4.40446 23.0666 228 172 181
-2.78326 -4.22662 23.0645 222 165 180
-2.6532 -2.8391 22.7824 183 125 140
-2.65225 -1.9468 22.861 59 17 19
-2.56155 -3.21962 22.8086 143 132 164
-2.4736 -1.94177 22.8545 102 49 59
-2.44957 -3.75519 22.8563 226 164 177
-2.4027 -2.45977 22.8148 230 172 184
-2.38089 -2.32103 22.8042 218 156 171
-2.31965 -3.83458 22.8328 226 168 180
-2.32622 -3.65822 22.9429 144 165 212
-2.31308 -2.1078 22.8885 214 158 169
-2.24466 -1.96043 22.967 210 157 167
-2.21097 -2.79571 22.942 169 182 224
-1.95929 -3.52462 23.209 108 157 200
-1.8965 -3.70254 22.8207 218 183 205
-1.86083 -2.39634 22.8128 200 142 156
-1.83181 -2.11805 22.8197 212 151 167
-1.8319 -3.48846 23.0224 161 204 246
-1.71734 -2.14613 22.9115 196 138 150
-1.74323 -6.02887 23.3609 68 8 0
-1.66331 -2.25065 22.8898 145 88 103
-1.66584 -2.07572 23.0139 203 147 158
-1.62639 -2.69603 22.8784 232 171 179
-1.59057 -4.02762 23.1954 206 137 155
-1.56104 -5.49542 23.1451 38 18 17
-1.50557 -4.12034 22.7225 200 143 152
-1.51494 -5.62313 23.3485 25 11 11
-1.47236 -2.47575 22.9377 183 135 149
-1.43747 -5.27327 23.2971 155 118 135
-1.45685 -5.31148 23.4782 155 118 135
-1.45945 -5.92038 24.0725 31 21 22
-1.33556 -3.86642 22.6421 199 143 152
-1.33032 -2.12595 23.1812 153 109 124
-1.31682 -4.04112 22.944 212 150 163
-1.2883 -2.64031 23.0884 149 99 111
-1.29634 -3.91151 23.2792 201 148 158
-1.25919 -2.47485 23.1063 115 62 80
-1.22189 -3.66119 23.3538 185 124 140
-1.20021 -2.78057 23.0423 147 99 115
-1.18164 -3.00137 22.9863 153 102 117
-1.06336 -3.53278 23.0643 177 126 143
-0.995388 -3.96166 23.0523 167 115 127
-0.970957 -3.86546 23.1683 172 126 139
-0.945526 -3.64147 23.398 131 78 98
-0.904714 -4.10027 23.0893 195 142 158
-0.836255 -3.29495 23.4141 182 129 145
-0.839191 -5.44744 23.7263 113 105 129
-0.839191 -5.44744 23.7263 113 105 129
-0.740004 -4.0313 23.1304 159 112 130
-0.740085 -3.83044 23.6112 196 150 163
-0.128513 -2.95722 25.1228 31 11 12
-0.0614546 -3.47413 25.4702 32 12 14
0.41578 -3.15827 25.39 102 89 106
0.494674 -2.39392 25.4984 105 86 106
0.612795 -1.12371 25.0096 51 30 29
0.692264 -3.93026 25.5551 114 96 94
0.692264 -3.93026 25.5551 114 96 94
0.766231 -2.93135 26.0134 69 47 70
0.753343 -2.05542 25.7669 6 14 50
0.766706 -3.2625 25.5164 109 82 61
0.815232 -1.68629 25.663 0 15 49
0.815232 -1.68629 25.663 0 15 49
1.08703 -3.13942 25.5444 22 32 57
1.19376 -2.7548 25.627 41 46 76
1.28439 -3.41071 25.5272 38 51 85
2.49868 -2.49799 25.7136 80 29 44
2.70193 -1.03722 25.5547 93 88 110
3.22369 -6.93864 27.5862 36 36 36
3.01312 -2.18248 24.9778 12 16 25
3.31981 -6.81314 26.6793 6 6 6
3.57761 -7.13623 26.6607 6 6 6
3.89861 -6.7377 28.4866 5 5 5
3.859 -6.78278 27.0911 13 13 13
3.859 -6.78278 27.0911 13 13 13
3.74545 -4.94894 26.2568 24 24 24
4.19034 -6.74974 26.8842 5 5 5
4.39783 -6.90677 26.6801 4 4 4
4.5398 -7.10378 26.9237 5 5 5
5.50199 4.29315 32.4527 91 70 79
5.49 4.54838 32.1509 86 79 95
5.97526 4.32984 32.328 103 99 116
5.9411 4.30118 32.1041 103 99 116
5.97978 4.46714 31.701 112 108 125
6.02534 4.97347 31.7686 130 109 128
6.08792 4.7358 31.8108 135 88 104
4.6421 -1.75048 23.9562 66 29 11
4.58699 -3.64344 23.3858 88 35 19
4.68842 -3.42207 23.782 82 29 15
6.31552 4.17446 30.9088 110 107 116
5.89001 -9.28676 27.6998 79 40 33
6.76341 3.28791 30.5833 35 26 29
6.78774 3.42984 30.4302 35 26 31
6.8203 3.53657 30.2695 22 20 21
5.43308 -5.30953 23.7097 50 17 12
6.24448 -9.20118 27.193 93 43 32
5.52607 -4.55831 23.3777 57 16 12
6.01017 -4.37275 25.245 58 16 18
5.97465 -5.61249 24.5979 0 0 0
7.21024 4.20933 29.591 0 0 0
6.77985 -0.287766 26.4943 0 0 0
6.91914 -0.319299 26.8352 0 0 0
6.91914 -0.319299 26.8352 0 0 0
7.13201 -2.91375 26.9068 0 0 0
7.42325 -4.36312 27.7843 0 0 0
7.65307 2.0675 28.5764 0 0 0
7.61356 1.72926 28.385 0 0 0
7.19449 -0.309363 26.7579 0 0 0
7.19449 -0.309363 26.7579 0 0 0
7.1903 -0.457152 26.5628 0 0 0
7.62489 1.40744 27.844 0 0 0
7.72224 2.53436 28.1678 0 0 0
7.70614 2.69625 28.1346 0 0 0
7.74495 0.815435 28.0251 0 0 0
7.70932 -3.61808 27.5217 0 0 0
8.04732 0.72823 27.9143 0 0 0
7.8857 1.94809 27.2687 0 0 0
7.91729 1.52307 27.3112 0 0 0
7.94401 0.912062 27.3018 0 0 0
7.96837 1.36757 27.3205 0 0 0
7.95706 1.89546 27.1923 0 0 0
8.29504 1.45746 27.5476 0 0 0
8.1217 1.30091 26.7782 0 0 0
7.99868 -3.44317 26.1458 0 0 0
8.27277 0.252172 26.8899 0 0 0
8.27277 0.252172 26.8899 0 0 0
8.29938 0.524131 26.6217 0 0 0
8.29938 0.524131 26.6217 0 0 0
8.31555 0.271104 26.6605 0 0 0
8.30966 -8.25563 26.5761 0 0 0
7.89788 -8.33041 25.2187 0 0 0
7.99721 -7.35142 25.2318 0 0 0
8.33172 0.890908 26.1671 0 0 0
7.92189 -7.82237 24.8872 0 0 0
8.54511 0.60989 26.8172 0 0 0
7.87669 -7.58816 24.5604 0 0 0
8.14759 -7.09788 25.048 0 0 0
8.07647 -7.53718 24.7076 0 0 0
8.42207 -3.8582 25.5497 0 0 0
8.47165 -7.69897 25.567 0 0 0
8.18224 -7.59572 24.5723 0 0 0
8.21405 -7.00523 24.643 0 0 0
8.43103 -6.88696 25.2594 0 0 0
8.76182 1.7178 26.0942 0 0 0
8.64547 0.230628 25.6527 0 0 0
8.6214 -0.435088 25.3855 0 0 0
8.66714 -7.34853 25.3069 0 0 0
8.71081 -2.02342 25.3284 0 0 0
8.68538 -6.62919 25.2821 0 0 0
8.68587 -2.77521 25.2164 0 0 0
8.73765 -2.7393 25.054 0 0 0
8.80059 -2.32763 25.1711 0 0 0
8.44225 -6.8909 23.9304 0 0 0
8.70157 -0.866869 24.6176 0 0 0
8.80453 -0.198213 24.767 0 0 0
8.76025 -0.596992 24.631 0 0 0
9.00877 -3.32487 25.2549 0 0 0
8.65625 -6.34852 24.2447 0 0 0
9.06561 0.43354 25.312 0 0 0
8.94246 -2.73325 24.8682 0 0 0
8.91824 -2.72185 24.7608 0 0 0
8.93251 -3.11701 24.7739 0 0 0
9.65483 -6.72262 26.4275 0 0 0
8.7309 -6.36573 23.9253 0 0 0
8.91909 0.146127 24.261 0 0 0
8.97819 -2.81158 24.4305 0 0 0
9.04824 -2.84714 24.6249 0 0 0
8.89609 0.408233 24.1207 0 0 0
8.84367 -5.81845 23.9199 0 0 0
8.80812 -6.12887 23.7186 0 0 0
8.98113 -2.36889 24.0824 0 0 0
8.99855 0.381382 23.978 0 0 0
8.98626 0.394873 23.9733 0 0 0
9.07635 -1.97948 24.0204 0 0 0
9.21511 -2.03306 24.4008 0 0 0
8.95949 -6.20469 23.6425 0 0 0
9.04853 0.41986 23.8561 0 0 0
9.10619 0.422881 24.0195 0 0 0
8.97388 -5.87916 23.5729 0 0 0
9.30017 -1.86344 24.3412 0 0 0
9.03081 -5.40949 23.6113 0 0 0
9.14612 -2.22409 23.89 0 0 0
9.25043 -1.60492 23.9583 0 0 0
9.32102 -1.86674 23.7536 0 0 0
10.6799 -8.8223 27.1644 0 0 0
-14.4266 -1.03177 49.6758 78 68 79
-14.4375 -1.50626 50.0908 83 72 88
-14.4375 -1.50626 50.0908 83 72 88
-13.4525 3.01248 46.8818 75 64 78
-14.8606 6.69952 52.0636 93 77 90
-14.3219 -2.24382 50.2433 81 74 90
-13.5595 0.412 47.6552 17 19 32
-13.79 -1.19067 49.2572 74 68 82
-13.1183 0.362515 47.2465 19 19 31
-13.1183 0.362515 47.2465 19 19 31
-13.1729 1.19341 47.436 50 40 49
-13.0172 1.15425 46.8519 50 40 49
-13.348 -1.1543 48.9191 78 66 76
-13.348 -1.1543 48.9191 78 66 76
-12.3105 2.83943 46.1995 67 57 66
-13.4153 -6.48806 51.8702 91 78 96
-13.4153 -6.48806 51.8702 91 78 96
-13.3776 -7.00356 51.8587 94 78 89
-12.0632 1.66673 46.8806 66 56 65
-12.993 -4.55037 50.8339 94 81 91
-11.8483 1.06521 46.7821 57 40 48
-12.0859 -0.405934 48.3116 54 54 56
-12.6303 -3.41718 50.6649 90 79 96
-11.8179 0.0365761 48.3279 19 19 31
-11.8616 -0.777262 48.7907 107 102 122
-12.2361 -3.59412 50.7447 93 81 101
-11.7597 0.185728 49.7454 14 15 20
-12.1747 -6.69192 52.6593 97 80 96
-12.1137 -7.15331 53.0064 92 79 96
-11.6376 -4.11876 52.9871 93 79 92
-11.5818 -4.69156 53.4809 95 82 100
-9.8072 6.42544 45.7412 191 134 143
-11.0206 -1.37924 52.142 55 47 58
-11.2844 -4.43719 53.3814 93 77 88
-11.0928 -4.72848 53.6465 93 79 94
-8.07876 8.13983 41.6487 202 166 82
-7.97131 6.33635 44.6026 75 20 13
-7.97131 6.33635 44.6026 75 20 13
-7.95803 6.53296 44.5364 85 29 12
-7.86959 7.23377 44.4463 125 68 49
-2.48261 -3.37493 22.9606 154 195 239
-2.23358 -2.59899 22.8589 230 165 173
-2.24179 -3.4014 23.2131 122 125 158
-2.1819 -3.22147 23.0863 18 20 35
-2.1819 -3.22147 23.0863 18 20 35
-2.08725 -3.61836 23.169 170 220 255
-1.6508 -3.50291 23.0612 219 156 175
-1.63542 -3.8958 23.0658 221 154 161
-1.42351 -4.12004 23.3782 220 159 174
-1.369 -5.35868 23.5749 40 25 30
-1.16904 -3.48338 23.2967 177 119 133
-0.941938 -3.65642 23.4065 131 78 98
-0.703116 -3.98623 23.4297 157 114 131
-1.1108 3.99842 40.1988 150 18 32
0.215414 -4.1843 26.1498 150 18 32
0.478239 -3.51161 25.5567 75 17 42
1.51814 -11.5562 50.0184 108 92 103
1.51814 -11.5562 50.0184 91 72 68
5.43046 4.67147 33.2399 91 72 68
5.70738 4.99687 32.4829 75 53 55
5.94259 5.05653 32.2356 100 66 80
5.93091 5.45613 32.1543 116 107 124
6.11938 4.60091 31.5346 120 112 135
6.18448 5.73075 31.4357 131 117 130
6.25782 5.86841 31.4286 132 128 145
6.27648 4.68764 31.232 136 131 154
6.28233 5.97016 31.2443 127 83 100
6.50615 5.43654 30.6671 140 135 155
6.4804 5.41381 30.5342 118 69 90
6.776 3.30898 30.0465 118 69 90
6.81213 -9.42492 29.9324 39 28 32
6.85966 -9.46131 30.0862 111 58 44
7.38739 -4.25066 28.4171 111 58 44
7.23786 -1.40448 26.1749 0 0 0
7.72397 2.15989 27.9625 0 0 0
7.84965 0.95947 27.6711 0 0 0
8.09109 -9.07512 27.2159 0 0 0
8.19725 2.60736 26.41 0 0 0
8.31045 0.876233 26.1248 0 0 0
8.44196 -4.2326 26.0169 0 0 0
8.64282 -7.41715 25.4196 0 0 0
8.87156 -1.8744 25.0326 0 0 0
8.93665 -6.52017 24.9067 0 0 0
8.87511 -2.59848 24.7175 0 0 0
8.93285 -0.939143 24.6017 0 0 0
8.92458 0.325105 24.2602 0 0 0
9.06767 -2.14965 24.2107 0 0 0
9.24554 -1.85174 23.8642 0 0 0
9.37654 -1.49627 23.0237 0 0 0
-16.4789 7.15747 45.2729 0 0 0
-15.0067 1.64821 50.116 46 43 62
-14.5818 -3.20722 51.8776 26 17 20
-13.7286 2.84794 47.3656 31 16 19
-13.4913 -0.381721 49.1309 31 25 35
-13.4571 0.188161 48.801 29 17 19
-13.3547 2.42317 47.8066 25 16 17
-13.4437 -4.9062 51.5114 26 17 22
-13.0046 2.74463 47.4903 28 18 17
-13.0046 2.74463 47.4903 30 19 25
-13.1287 -3.64827 50.8508 30 19 25
-12.2384 -0.267239 48.927 28 18 17
-12.3779 -3.13034 51.0075 75 4 0
-11.8524 -4.56256 53.5592 78 19 13
-11.669 -1.98745 52.4297 58 9 5
-11.0452 1.44824 49.5356 25 14 12
-4.31593 -4.78132 25.6176 9 9 9
-8.23556 8.05417 45.7183 125 169 214
-8.23556 8.05417 45.7183 170 24 37
-3.02463 -6.01911 25.2661 170 24 37
-5.80361 12.6003 42.2844 240 186 202
-2.54084 -1.9453 23.4469 200 140 152
-2.46325 -2.89401 23.4616 83 49 63
-2.50909 -1.82252 23.4938 205 143 158
-2.20237 -2.59923 23.4422 112 72 83
-2.00817 -2.88256 23.4945 146 99 119
-1.94465 -3.27835 23.5454 125 78 98
-1.93537 -2.99874 23.4648 147 93 116
-2.47633 -4.61702 33.216 181 131 143
-1.65905 -5.52577 23.8355 226 158 171
-1.61924 -3.90213 23.5876 224 156 167
-3.65236 10.6871 41.3117 127 176 219
-1.38954 -4.57184 23.5702 176 23 43
-1.42657 -2.92959 23.652 228 212 238
-1.32689 -4.80094 23.7514 198 134 151
-1.33504 -4.10334 23.5361 202 134 147
-1.3221 -3.65781 23.6854 59 58 100
-1.32388 -2.53248 23.4752 179 226 255
-0.871341 -3.22889 24.0203 149 101 113
-2.17803 -3.54174 53.3218 211 155 168
-2.06263 -3.33862 53.2906 28 24 49
-0.34369 -3.25964 25.6269 143 116 135
0.204315 -4.12291 26.6083 142 104 125
0.340377 -4.21482 26.4545 103 80 100
1.13677 -4.87418 26.6316 9 10 12
1.11799 7.3173 35.6584 5 5 5
1.34178 8.12893 34.5263 13 13 13
1.54659 9.17248 34.3077 28 22 26
2.07554 6.87832 34.1727 30 26 27
3.05594 -4.84052 26.7705 9 9 9
3.29482 -5.17218 26.5825 60 19 15
3.29482 -5.17218 26.5825 51 17 15
3.33581 -3.81896 25.7767 51 17 15
3.79905 -5.19094 26.7113 40 16 14
4.81983 8.56326 33.8937 47 18 10
5.57838 5.15761 32.3034 125 124 142
5.57838 5.15761 32.3034 114 87 96
6.55825 11.4603 37.2405 114 87 96
5.81959 5.55161 31.6696 143 112 130
5.81959 5.55161 31.6696 106 81 87
5.84625 5.37244 31.6562 106 81 87
5.94678 5.59845 31.2743 97 74 82
5.94678 5.59845 31.2743 112 89 97
5.98969 5.04062 31.4204 112 89 97
4.68752 -3.61966 23.4032 114 84 96
6.04041 4.86974 31.2467 18 17 23
6.12887 3.89011 31.1712 119 91 105
4.9321 -4.07959 23.2467 107 85 97
6.24863 7.1811 30.5224 119 115 142
6.36143 5.03951 30.4158 86 69 75
6.35523 7.47682 30.0089 113 91 103
6.70044 -9.52245 29.8182 90 70 63
6.88765 5.62435 29.3001 87 29 9
6.89804 3.86267 29.2375 2 2 2
6.74215 -9.82019 29.6947 117 96 113
6.78087 -9.43697 29.7467 83 26 15
6.94745 3.91817 29.0063 92 26 12
6.81252 -9.77326 29.4233 117 95 108
6.81252 -9.77326 29.4233 82 23 9
7.30892 1.25923 28.5536 82 23 9
7.37381 1.65031 28.3172 0 0 0
7.38633 -9.67177 29.4223 0 0 0
7.46035 1.83178 28.0019 0 0 0
7.46734 1.33351 28.0587 0 0 0
7.44534 1.39041 27.8889 0 0 0
7.47974 -4.25381 28.3244 0 0 0
7.56237 1.29265 27.7526 0 0 0
7.62518 1.11166 27.4543 0 0 0
7.62518 1.11166 27.4543 0 0 0
7.73928 1.63007 27.2242 0 0 0
7.92549 1.10193 26.522 0 0 0
8.08585 -8.53663 26.446 0 0 0
8.25583 -8.15938 26.1863 0 0 0
8.36519 1.48207 24.9772 0 0 0
8.32954 -8.35639 26.0502 0 0 0
8.3596 -8.23873 25.9567 0 0 0
8.47772 -3.98393 25.6193 0 0 0
8.37917 -8.39588 25.6917 0 0 0
8.41613 -7.39489 25.5689 0 0 0
8.5145 -1.87864 25.0711 0 0 0
8.45275 -7.92107 25.6031 0 0 0
8.56414 -2.60647 24.7831 0 0 0
8.5461 -7.34408 25.3015 0 0 0
8.56152 -7.59358 25.1888 0 0 0
8.69372 0.276731 24.2483 0 0 0
8.69372 0.276731 24.2483 0 0 0
8.68961 -7.01902 24.8494 0 0 0
8.75409 0.278814 23.9333 0 0 0
8.71391 -6.79654 24.8357 0 0 0
8.74351 -6.44314 24.6983 0 0 0
8.79784 -6.76201 24.6245 0 0 0
8.90528 -2.79463 24.2373 0 0 0
8.86345 -6.76336 24.4587 0 0 0
8.96985 -2.52498 23.9291 0 0 0
8.91623 -6.30773 24.2393 0 0 0
8.95034 -6.28244 24.1996 0 0 0
9.03339 -2.204 23.5617 0 0 0
9.00417 -6.01391 23.8789 0 0 0
9.00417 -6.01391 23.8789 0 0 0
9.08277 -1.73188 23.4179 0 0 0
9.05907 -6.1695 23.8386 0 0 0
9.06869 -5.79578 23.6357 0 0 0
9.0875 -5.8823 23.6802 0 0 0
9.13145 -5.54483 23.6036 0 0 0
9.17819 -5.82095 23.4622 0 0 0
9.23216 -5.66075 23.2132 0 0 0
9.23011 -5.49445 23.1904 0 0 0
9.51865 -3.05204 22.3642 0 0 0
9.52552 -3.0383 22.3681 0 0 0
-7.79703 4.49257 49.1563 0 0 0
-3.18317 -4.47767 23.8558 170 101 120
-3.08541 -4.2082 23.6967 216 150 162
-2.98289 -2.52382 23.027 209 148 163
-6.09955 3.61623 49.1439 198 150 162
-6.03195 4.05709 49.1894 65 0 1
-5.82933 3.22958 49.1637 210 37 56
-5.67494 2.84368 49.1576 205 33 55
-5.57818 4.15968 49.1244 209 31 53
-5.59108 3.49031 49.2341 199 31 48
-5.59108 3.49031 49.2341 208 32 53
-5.57925 3.42951 49.152 208 32 53
-5.49713 3.07763 49.1764 209 31 53
-2.56159 -2.2409 22.9034 206 33 53
-5.37234 3.71983 49.1469 219 170 176
-4.87778 2.98335 49.1697 190 25 42
-4.77889 5.69581 49.2843 216 43 86
-4.64232 2.95369 49.159 212 38 65
-2.00116 -3.97117 23.2606 224 199 218
-3.30658 2.70472 49.0527 214 143 159
-3.46112 0.178662 56.3774 218 38 63
-1.37887 -4.20996 23.1602 147 14 15
-2.83619 2.33815 49.1773 226 166 174
-2.46788 2.96003 49.2041 104 1 0
-2.23084 2.4811 49.2314 76 0 4
-1.80574 -2.00814 60.5813 165 15 27
-0.78353 -0.000285267 56.5257 25 4 3
-0.772331 0.385197 56.1662 177 26 43
5.77112 5.49836 32.702 144 14 22
5.8376 5.70177 32.5187 33 20 29
5.88902 5.20228 32.4096 112 111 127
5.88902 5.20228 32.4096 120 98 111
5.96525 4.88359 32.4608 120 98 111
5.96525 4.88359 32.4608 123 92 100
5.9518 5.74601 32.2626 123 92 100
5.97121 5.06733 32.3089 114 115 135
6.01787 5.65772 32.0966 116 107 124
6.18061 3.82855 32.0816 56 56 80
6.18304 5.60564 31.8107 11 11 11
6.19294 6.22763 31.5044 49 34 53
6.28155 5.26247 31.5327 100 95 118
6.48357 4.27437 31.1157 146 123 139
6.48357 4.27437 31.1157 62 56 66
6.55032 5.01968 30.8381 62 56 66
6.65964 5.45404 30.5229 118 60 75
6.87969 3.78109 30.1139 114 68 81
6.905 3.9665 29.9525 19 17 18
7.07292 4.12565 29.4602 26 24 27
7.4047 1.39921 28.9593 12 17 23
7.48919 1.48516 28.8015 0 0 0
7.68987 2.0218 28.0898 0 0 0
7.70507 2.52247 27.7752 0 0 0
7.78622 1.20167 27.7901 0 0 0
7.81641 1.82809 27.5021 0 0 0
7.98169 1.09077 27.0665 0 0 0
7.99575 1.36556 27.0583 0 0 0
8.39585 -8.8287 26.2215 0 0 0
8.35678 0.38268 25.8514 0 0 0
8.70078 -3.35159 25.3298 0 0 0
8.73698 -1.55753 25.0738 0 0 0
8.77173 -6.72044 24.9975 0 0 0
8.99415 -2.07769 23.6745 0 0 0
11.7691 -10.9566 30.8974 0 0 0
11.9517 -10.5963 30.4091 0 0 0
11.9925 -10.3444 30.3713 0 0 0
-7.17333 -4.23468 14.5511 0 0 0
11.0566 -3.98974 30.0578 234 184 196
9.11121 0.264452 24.2572 0 0 0
9.42945 -2.57012 25.4517 0 0 0
9.54949 -2.87077 25.7742 0 0 0
9.31109 -2.41284 25.1095 0 0 0
9.49887 -3.14762 25.8097 0 0 0
8.82793 -2.00689 23.9196 0 0 0
8.74727 -2.61017 24.1301 0 0 0
8.70542 -2.31308 23.673 0 0 0
9.88127 -5.99435 27.441 0 0 0
8.51821 -2.18058 23.1676 0 0 0
8.74857 -2.26684 23.3768 0 0 0
10.3926 -7.90395 28.679 0 0 0
8.38091 -1.97815 22.4806 0 0 0
10.151 -7.71948 28.0942 0 0 0
9.11605 -5.26022 25.3459 0 0 0
8.82109 -5.22057 24.9598 0 0 0
9.9151 -7.568 27.6055 0 0 0
9.44415 -6.82234 26.3923 0 0 0
9.44415 -6.82234 26.3923 0 0 0
9.82996 -7.56998 27.3057 0 0 0
9.82996 -7.56998 27.3057 0 0 0
9.46719 -6.949 26.4614 0 0 0
9.5064 -7.14838 26.5225 0 0 0
9.5064 -7.14838 26.5225 0 0 0
9.70296 -7.54527 26.9457 0 0 0
9.35294 -6.938 26.0686 0 0 0
8.99366 -6.56562 25.2717 0 0 0
8.92433 -6.42897 25.1066 0 0 0
8.18589 -4.49442 22.968 0 0 0
8.18589 -4.49442 22.968 0 0 0
8.67287 -6.451 24.4621 0 0 0
8.86681 -6.92262 24.9432 0 0 0
7.8912 -4.11801 22.0691 0 0 0
8.16457 -5.87572 23.1997 0 0 0
8.16457 -5.87572 23.1997 0 0 0
8.29388 -6.21112 23.5268 0 0 0
8.37712 -6.48999 23.7273 0 0 0
7.46167 -5.62838 22.1777 0 0 0
7.57951 -3.81537 21.2282 0 0 0
7.66238 -5.44254 21.9841 0 0 0
7.99312 -6.61533 22.9211 0 0 0
-12.4252 -3.89392 7.67111 0 0 0
-12.6237 -4.10939 7.19388 22 12 13
-10.9898 -2.12375 12.9571 219 169 181
-10.2363 -1.7528 12.5243 221 172 178
-9.06309 -1.00728 13.1513 220 148 159
-12.4763 -4.14449 7.41647 193 30 47
-11.169 -2.53624 13.4086 208 145 162
-11.1887 -2.55486 13.2656 231 175 186
-11.3138 -2.66272 13.5733 231 175 186
-10.9019 -2.41453 13.0035 144 107 124
2.55023 9.38703 38.7952 176 137 155
-12.154 -3.68009 10.0006 95 77 99
-10.6851 -2.30235 12.8895 229 159 170
-11.1031 -2.65408 13.3586 229 159 170
-11.431 -2.90421 13.1614 229 159 170
-11.8102 -3.62591 11.0619 238 178 190
-11.0449 -3.12529 13.099 217 163 176
-11.198 -3.3186 12.88 201 157 174
-10.3651 -2.9828 13.0232 53 33 35
-9.44852 -2.35359 12.2169 218 164 177
-9.71065 -2.72665 12.1567 237 176 191
-6.44545 -2.69172 22.5158 69 55 46
-6.66421 -2.45554 17.0681 197 161 175
-7.53823 -2.95249 16.5195 123 99 115
-5.91196 -2.16968 17.5771 222 170 183
-7.05814 -3.03422 16.8832 170 24 34
-6.90369 -3.07147 17.1032 218 178 189
-6.88382 -3.07013 16.956 17 10 17
-15.8919 -7.68382 1.17515 206 159 175
-15.8919 -7.68382 1.17515 229 172 187
-6.87657 -3.16188 17.1471 179 168 202
-6.88661 -3.24569 17.1734 30 30 66
-7.12971 -3.33459 16.4458 188 31 48
-6.20107 -3.05393 18.2804 70 59 73
-15.7084 -7.60342 1.25541 99 70 66
-8.90664 -4.31692 10.7442 102 76 63
-8.90664 -4.31692 10.7442 108 105 124
-8.39581 -4.07451 12.2069 100 75 70
-15.6533 -7.59949 1.34191 92 67 63
-15.6533 -7.59949 1.34191 61 55 69
-15.4514 -7.51222 1.47371 87 61 62
-15.5466 -7.56313 1.43418 92 66 67
-15.5466 -7.56313 1.43418 77 61 72
5.18509 1.59636 33.8257 77 61 72
-5.69701 -3.28991 18.2155 83 59 55
-5.66734 -3.20778 17.6624 89 63 62
-15.0194 -7.34805 1.8066 87 63 63
-6.40086 -4.13385 19.0624 87 63 63
-6.27996 -4.10124 18.8757 146 138 125
-3.25749 -2.92119 23.4967 31 27 28
-4.3298 -3.14083 20.5034 31 27 28
-3.01717 -2.95861 24.0734 81 59 48
-3.01717 -2.95861 24.0734 79 69 77
6.42601 1.27832 31.6248 79 69 77
-5.72073 -3.66106 15.5289 174 151 45
-14.3915 -7.16042 2.31419 154 141 132
-5.98097 -3.75747 14.6074 81 70 78
-6.07539 -4.30642 18.8806 81 70 78
-13.206 -6.67955 3.07107 62 61 69
-3.17896 -2.80312 18.6799 189 166 54
-4.9947 -3.57265 15.7336 75 55 54
-2.26112 -2.67486 18.7722 75 51 47
-2.60727 -2.95576 18.46 71 50 45
-2.09655 -2.82024 18.5579 151 139 123
-0.198669 -2.01136 20.4128 71 62 81
-2.28365 -3.05313 18.2572 71 62 81
-2.28365 -3.05313 18.2572 44 38 42
-2.17437 -3.07663 18.5417 42 36 40
-10.6648 -5.9076 4.6471 34 23 29
-1.40592 -3.52905 22.9765 64 44 43
-4.24098 -4.35293 18.6625 35 32 39
-10.4987 -5.89745 4.76942 35 32 39
-10.4987 -5.89745 4.76942 164 151 132
0.0942314 -3.09493 24.1305 38 29 30
0.13186 -4.85893 32.504 38 29 30
-0.359471 -4.86808 31.0764 80 72 87
-0.186386 -4.95486 31.516 36 28 26
-1.92424 -3.59619 18.7772 31 28 35
-4.26574 -4.79127 18.4869 160 152 131
0.981211 -3.4892 25.5766 3 3 5
12.9098 1.09179 27.5618 57 49 62
-6.02982 -4.86941 10.324 7 7 9
25.9455 4.13645 49.6995 104 106 129
8.41991 -2.38244 23.4155 104 106 129
5.07946 -3.30654 20.2911 10 10 10
5.07946 -3.30654 20.2911 3 3 3
0.859217 -5.78584 22.3838 11 11 11
8.28119 -2.69641 23.4379 30 28 33
-2.59287 -6.41937 18.2514 4 4 4
-2.21676 -6.33449 18.1396 4 4 4
3.30575 -4.25987 19.7923 2 2 2
-4.46979 -7.2071 19.3785 164 152 130
-4.46979 -7.2071 19.3785 14 14 14
4.24008 -4.26714 20.7669 11 11 11
15.8028 -1.12711 26.8532 158 147 127
15.9392 -1.10391 26.9742 158 147 127
2.25733 -5.37995 20.5329 12 12 12
-1.15428 -7.28027 21.8993 24 22 25
8.04782 -4.87666 21.9853 24 22 27
41.0972 -1.16505 52.0313 24 22 25
54.8736 0.691089 63.2015 16 15 20
54.8736 0.691089 63.2015 8 8 8
7.10071 -5.26521 21.5202 4 4 4
50.457 -0.247781 59.893 38 34 48
54.5799 0.343313 62.982 44 43 51
6.82953 -5.38087 21.2826 3 3 3
6.82953 -5.38087 21.2826 0 0 0
48.9463 -0.959049 59.0172 0 0 0
40.8416 -2.91832 53.262 0 0 0
-11.0729 -2.12875 13.1261 0 0 0
-11.5706 -2.75946 11.9984 0 0 0
-11.009 -2.2142 13.0345 0 0 0
-11.3804 -2.6634 13.7692 0 0 0
-10.6446 -2.09463 12.8239 0 0 0
-9.50169 -1.00481 16.2008 0 0 0
-10.6029 -2.09673 12.3755 0 0 0
-11.2403 -2.88105 13.7838 0 0 0
-11.3809 -3.01193 13.1706 0 0 0
-11.0585 -2.70998 13.289 0 0 0
-11.0585 -2.70998 13.289 0 0 0
-10.7555 -2.65957 12.8372 0 0 0
-10.8805 -3.10598 13.2288 0 0 0
-10.7541 -3.12713 13.1135 0 0 0
-7.00978 -0.215412 19.2665 0 0 0
-10.2182 -2.83716 12.8808 0 0 0
-10.2533 -2.91567 13.027 0 0 0
-10.2963 -3.01816 12.8692 0 0 0
-10.1871 -2.96314 13.059 0 0 0
-10.2993 -3.02289 12.3366 0 0 0
-2.32517 3.50734 23.7932 0 0 0
-9.45675 -2.25888 12.1206 0 0 0
-9.7145 -2.5587 12.006 0 0 0
-9.81937 -2.77293 12.0417 121 47 36
-9.90206 -2.94249 12.2034 118 106 126
-9.65479 -2.71764 12.1843 113 103 127
-10.0497 -3.18419 13.4148 113 103 127
-10.0595 -3.18208 13.3054 115 103 125
-10.0155 -3.29484 12.7931 113 104 125
-9.8273 -3.29559 13.1979 116 108 129
-6.28583 -1.6272 17.1807 160 210 243
14.3532 9.89743 57.7801 192 209 253
-7.40979 -2.68664 17.4335 114 107 125
-7.32718 -2.66634 17.0758 134 182 218
-6.48393 -2.01115 16.9901 222 168 181
-6.05321 -1.74732 17.3002 194 190 225
-5.79684 -1.58493 17.4758 238 186 199
-7.27094 -2.88825 16.7308 224 160 176
-7.27094 -2.88825 16.7308 128 109 129
-6.62534 -2.45061 17.1536 232 176 187
-90.4217 -54.4523 -73.7075 244 181 192
-6.90371 -3.27642 17.3658 244 181 192
-6.96333 -3.72259 16.8134 234 174 182
-58.9409 -33.3068 -35.9564 233 181 194
-58.9409 -33.3068 -35.9564 242 176 188
-6.30203 -3.8368 18.7898 236 174 189
-6.25776 -3.82588 18.862 239 183 196
-58.1523 -32.3936 -34.4547 220 162 177
-6.42929 -3.91492 17.2781 219 163 176
-4.6545 -2.74126 17.691 219 163 176
-66.0615 -34.0386 -48.6624 244 188 199
-5.93795 -4.24438 19.6112 235 177 189
-3.69055 -2.03167 16.694 235 177 189
-3.69055 -2.03167 16.694 229 181 197
-64.633 -33.6416 -43.7418 243 199 212
-5.528 -4.88738 23.1589 245 193 206
-66.8984 -34.2309 -45.3574 239 192 208
-87.2836 -43.0702 -69.7377 237 180 195
-84.8216 -41.0792 -66.3162 232 178 194
-67.0481 -33.587 -42.8979 74 2 3
-69.687 -34.4075 -47.1298 230 164 174
-77.7425 -37.3122 -58.1152 228 170 184
-74.2385 -35.8083 -52.8181 116 89 94
-70.4703 -34.0752 -45.5 106 99 115
-92.2533 -40.6205 -73.2191 106 99 115
-94.2373 -41.0425 -76.0663 123 95 74
-3.07607 -3.43877 18.2025 102 97 119
-3.15128 -3.40778 17.6162 79 68 82
-3.17306 -3.37137 17.4074 106 78 90
-70.2122 -32.9736 -41.5843 126 98 110
-94.7772 -41.1561 -74.2559 101 92 109
-94.7772 -41.1561 -74.2559 101 92 109
-89.5639 -39.0717 -65.2959 103 97 111
-76.9642 -34.6048 -48.077 121 94 67
-71.758 -32.739 -41.4082 101 93 108
-75.8029 -34.064 -44.9932 92 87 109
-3.23884 -3.93963 17.0768 114 105 122
-86.2595 -36.833 -57.6836 114 105 122
-72.2302 -32.1188 -40.801 97 89 102
-3.26835 -4.06917 16.8823 97 89 102
-2.95939 -4.0488 17.5335 145 136 137
-2.84309 -4.14778 17.8967 97 89 110
-76.281 -33.0817 -44.8218 107 89 101
-92.2152 -37.9647 -62.4751 58 51 59
-2.9011 -4.20539 17.2807 93 89 104
-99.412 -39.9979 -69.7185 104 76 72
-94.8412 -38.5286 -63.574 104 76 72
-94.8412 -38.5286 -63.574 85 68 76
-5.9805 -6.41266 17.3883 90 79 95
-2.68879 -4.49673 17.8195 62 50 60
-92.2121 -37.0941 -60.1574 63 57 69
-92.2121 -37.0941 -60.1574 41 38 45
-88.4472 -35.9948 -55.7356 87 83 100
-89.0539 -35.9071 -56.0647 69 57 69
-1.8971 -4.59695 19.156 50 40 49
-2.36902 -4.62591 18.1666 52 47 54
-83.0763 -33.3088 -48.6615 72 66 76
-79.9923 -31.7826 -45.1828 38 36 39
16.6495 1.89301 31.9972 61 54 62
-4.58845 -7.24067 19.9302 4 4 2
-3.99407 -7.44886 20.2563 81 73 86
-3.99407 -7.44886 20.2563 75 72 91
-96.3342 -34.0481 -57.0042 74 70 87
9.50197 -2.03264 25.712 77 70 86
10.6869 -1.45875 25.0308 29 27 32
10.297 -2.00864 25.9192 29 27 32
10.9611 -1.33901 24.9737 5 5 5
12.098 -1.32986 26.5533 6 6 6
12.098 -1.32986 26.5533 70 68 82
6.07827 -3.63571 23.6299 58 50 65
6.11448 -3.7165 23.8027 74 67 83
7.86965 -3.5222 24.8503 3 5 4
12.2394 -1.82108 24.0028 77 72 94
5.43311 -5.09216 19.6173 83 74 93
4.94359 -5.28067 19.2008 93 88 110
-11.8307 -2.53948 13.1937 71 67 84
-11.7413 -2.48756 12.9437 9 9 9
-11.7656 -2.82261 13.1119 63 56 72
-11.6074 -2.86334 13.0095 99 93 107
-11.6106 -2.94071 13.0803 71 69 82
-10.995 -2.47115 12.8962 74 71 92
-11.0501 -2.56072 12.9002 6 6 6
-11.0501 -2.56072 12.9002 9 9 9
-11.6037 -2.98177 13.2051 73 69 84
-11.3609 -3.15929 13.0693 80 75 95
-10.9569 -2.85747 13.0161 68 60 71
-11.4481 -3.26485 13.7127 68 60 71
-10.3358 -2.62502 12.9499 39 32 50
-11.0658 -3.20339 13.0525 71 67 81
-10.1074 -2.93251 13.0091 43 40 49
-6.67376 -1.87112 17.8243 63 57 71
-7.37478 -2.63506 17.5062 63 57 71
-7.27049 -2.85017 17.7851 75 65 76
-7.01042 -2.97224 18.7478 65 63 84
-6.9291 -3.1007 19.5926 53 51 73
-6.84623 -3.20729 20.8938 53 51 73
-6.89064 -2.95174 18.1359 0 0 0
-6.81573 -3.03194 17.0642 0 0 0
-6.82593 -3.23678 18.618 0 0 0
-7.04335 -3.59201 19.9279 0 0 0
-7.04335 -3.59201 19.9279 0 0 0
-6.6097 -3.11459 17.0973 0 0 0
-6.46749 -3.39091 18.3965 0 0 0
-6.18597 -3.82414 18.6059 0 0 0
-6.4186 -4.09365 19.2092 0 0 0
-5.98392 -3.85496 18.7398 0 0 0
-5.98392 -3.85496 18.7398 0 0 0
-5.71455 -4.32305 21.6877 0 0 0
-6.12518 -4.3943 20.4874 0 0 0
-5.84754 -4.04016 18.6719 0 0 0
-5.99939 -4.29734 19.1272 0 0 0
-5.16067 -4.4358 22.3464 0 0 0
-5.6234 -5.04845 22.7731 0 0 0
-5.22668 -4.12484 18.3928 0 0 0
-4.54437 -4.37833 18.427 0 0 0
-4.31238 -4.52224 18.7069 0 0 0
-1.75658 -3.24763 16.9692 0 0 0
-5.32357 -7.22466 18.2507 0 0 0
10.4008 -1.37871 24.9081 0 0 0
9.49844 -1.95404 24.0989 0 0 0
9.27767 -2.13528 23.8337 0 0 0
7.2361 -3.08317 23.2731 0 0 0
7.33957 -3.07418 23.1293 0 0 0
6.09112 -3.77187 22.4094 0 0 0
3.4498 -5.69977 18.6418 0 0 0
4.49256 -5.35194 18.6352 0 0 0
4.49256 -5.35194 18.6352 0 0 0
3.98721 -5.61356 18.4786 0 0 0
