ply
format ascii 1.0 
element vertex 1448
property float32 x 
property float32 y 
property float32 z
property uchar red  
property uchar green
property uchar blue
element face 0
property list uchar int vertex_indices
end_header
-1.57822 0.924578 4.33561 59 37 46
-1.57437 0.28547 4.37235 117 64 76
-1.57029 -0.459555 4.42305 124 91 104
-1.57169 -0.156372 4.39622 125 97 114
-1.57045 0.716206 4.3531 52 23 22
-1.56692 0.915571 4.34696 67 40 48
-1.56063 0.925245 4.33287 66 37 46
-1.5573 -0.473947 4.41328 108 77 87
-1.5573 -0.473947 4.41328 108 77 87
-1.5533 -0.257242 4.40832 122 89 102
-1.55259 -0.291946 4.40445 122 91 107
-1.53115 0.189625 4.39224 65 38 45
-1.52859 -1.12417 4.44705 100 85 104
-1.52859 -1.12417 4.44705 100 85 104
-1.52512 -0.929618 4.44052 99 78 101
-1.51215 -0.458954 4.42894 120 94 107
-1.50861 0.0889859 4.39985 95 63 75
-1.49755 -1.23618 4.45258 118 101 127
-1.49116 0.368371 4.3956 50 27 35
-1.48857 -0.783637 4.44626 104 85 104
-1.47147 -1.12032 4.45305 78 62 76
-1.46363 -0.369859 4.41847 119 88 104
-1.46363 -0.369859 4.41847 119 88 104
-1.45806 -1.13283 4.45986 99 82 104
-1.44884 -0.79013 4.4467 112 89 107
-1.44194 0.377383 4.40765 42 21 22
-1.44185 -1.19635 4.4628 112 98 117
-1.42235 -0.943462 4.4613 55 53 67
-1.41061 -0.787122 4.45101 82 65 80
-1.40865 -0.177284 4.43492 125 71 84
-1.39574 -0.348693 4.44289 116 112 133
-1.39574 -0.348693 4.44289 116 112 133
-1.39594 -0.0564809 4.42563 92 47 52
-1.39339 -0.358769 4.44123 125 107 123
-1.38885 -1.09103 4.47706 105 80 105
-1.38794 -1.23618 4.47464 114 99 125
-1.38692 -0.954209 4.46489 115 97 109
-1.3808 -0.626561 4.45152 85 78 98
-1.37923 -0.363592 4.44387 111 104 123
-1.37665 -0.942674 4.4646 114 91 112
-1.37348 -0.743033 4.45776 105 86 105
-1.36302 -0.764673 4.46522 135 110 129
-1.36302 -0.764673 4.46522 135 110 129
-1.36184 -0.651468 4.46083 102 78 92
-1.35804 -0.703151 4.45945 106 89 107
-1.35804 -0.703151 4.45945 106 89 107
-1.35211 -0.768968 4.46079 100 80 100
-1.33874 -0.420236 4.4549 117 98 123
-1.32994 -0.783685 4.4698 81 63 76
-1.32142 -1.06377 4.47618 101 86 109
-1.31823 -1.09946 4.482 105 87 112
-1.30036 -0.44187 4.4596 100 70 86
-1.2979 -0.470589 4.46242 87 64 74
-1.25006 -1.21095 4.50689 81 66 87
-1.24497 -0.511596 4.47324 93 72 93
-1.22428 -1.12043 4.50802 114 91 104
-1.21383 -0.517542 4.47054 87 66 83
-1.2112 -1.03359 4.49707 100 84 100
-1.20907 -0.92862 4.49823 102 85 101
-1.20907 -0.92862 4.49823 102 85 101
-1.20682 -0.616488 4.49608 121 103 117
-1.19114 -1.21124 4.51337 62 58 75
-1.18748 -1.2802 4.51131 88 78 97
-1.16718 -1.28074 4.51974 103 84 104
-1.14298 -0.622994 4.50331 99 80 95
-1.27216 0.927563 3.9186 136 84 100
-1.14052 -1.28425 4.52882 109 94 113
-1.14025 -1.2848 4.52939 112 95 114
-1.11895 -0.61097 4.50164 85 68 83
-1.1126 -1.07103 4.52546 103 87 100
-1.19786 0.183072 4.13456 92 49 57
-1.10934 -0.926588 4.52158 90 76 99
-1.24841 0.907673 3.90896 66 36 45
-1.09321 -0.649859 4.5116 75 61 79
-1.22178 0.474342 3.95136 70 34 42
-1.21192 0.90084 3.93541 133 81 94
-1.19169 0.30891 4.00882 106 62 75
-1.18057 0.899104 3.95722 87 58 73
-1.16955 0.293919 4.01096 113 61 69
-1.01049 -1.325 4.55581 97 85 112
-1.14678 0.794477 3.98135 190 185 191
-1.14027 0.554613 3.96677 64 27 35
-1.12397 0.293283 4.02633 116 61 73
-0.957629 -1.37944 4.56267 111 97 121
-0.984782 -0.0527038 4.35324 44 17 22
-0.892383 -1.21161 4.57087 107 80 96
-0.985192 0.247076 4.14506 116 60 71
-0.904001 0.0911201 4.36594 106 56 65
-0.981232 0.325994 4.05001 63 30 37
-0.882746 -0.120143 4.36986 139 96 117
-0.998044 0.48915 3.97436 91 58 75
-0.809272 -1.25457 4.58937 75 61 83
-0.964898 0.310832 4.05211 97 55 64
-0.967686 0.90187 4.00182 132 79 97
-0.748091 -1.32661 4.60983 96 88 112
-0.810794 -0.119415 4.39359 82 37 42
-0.810794 -0.119415 4.39359 82 37 42
-0.794791 -0.11387 4.39047 138 93 111
-0.744713 -0.328121 4.40366 73 41 49
-0.840738 0.305207 4.08002 112 56 65
-0.727339 -0.141197 4.40362 144 91 105
-0.722697 -0.160856 4.39422 110 62 72
-0.714887 -0.191368 4.39328 100 53 63
-0.696363 -0.217226 4.40985 152 98 112
-0.690611 -0.295209 4.42352 96 56 65
-0.692541 0.0909314 4.40962 134 78 92
-0.687381 -0.430186 4.41992 66 49 55
-0.687381 -0.430186 4.41992 66 49 55
-0.678203 0.0137995 4.41803 137 86 99
-0.678203 0.0137995 4.41803 137 86 99
-0.677402 0.0673138 4.4129 138 85 105
-0.788587 0.403185 4.09321 100 52 62
-0.683214 -0.157834 4.35963 152 99 117
-0.775975 0.361607 4.09007 132 70 83
-0.656122 -0.35002 4.42332 101 60 68
-0.797688 0.490549 4.00913 138 80 94
-0.759023 0.310855 4.09723 109 61 70
-0.797263 0.551204 3.97111 134 79 98
-0.6171 -0.648688 4.42545 81 70 85
-0.539457 -1.24745 4.33914 79 69 93
-0.473751 -0.227533 4.46538 123 76 89
-0.47887 -1.17056 4.38559 79 73 101
-0.544479 0.394239 4.14204 150 103 122
-0.503966 0.49149 4.0808 108 67 81
-0.380106 0.000672278 4.35886 116 77 86
-0.372388 -0.0655597 4.36156 92 64 68
-0.365534 0.113449 4.35784 121 83 91
-0.409991 0.431159 4.16761 77 41 46
-0.310176 0.0436854 4.37808 58 41 47
-0.306599 -0.349801 4.38844 47 32 29
-0.262346 -0.664406 4.37664 57 45 59
-0.233665 -0.128309 4.39193 27 22 19
-0.238055 -0.66424 4.38175 54 43 57
-0.216634 0.00798571 4.38914 66 40 43
-0.216634 0.00798571 4.38914 66 40 43
-0.261194 -1.15372 4.29166 66 58 81
-0.204471 0.209549 4.3145 31 26 22
-0.167318 0.0149936 4.38973 34 29 25
-0.175869 0.402852 4.21777 34 25 28
-0.0621575 -0.387905 4.42424 59 30 32
-0.202642 0.489221 4.14191 35 23 22
-0.0518351 -0.0680692 4.37702 78 60 70
-0.154075 0.494857 4.14872 77 39 40
0.00523026 -0.856443 4.45878 89 66 72
-0.00825338 0.122081 4.40595 74 41 45
0.0150713 -0.595946 4.44441 71 51 55
-0.0413389 -0.00415262 4.32165 59 49 47
0.0388428 -0.836732 4.46554 80 63 72
0.0388428 -0.836732 4.46554 80 63 72
0.0388428 -0.836732 4.46554 80 63 72
-0.0164084 -0.0858442 4.32097 88 46 52
0.154855 -1.59973 4.63592 102 84 94
-0.0103251 -0.0368805 4.29141 84 55 55
0.00739189 -0.0913129 4.29298 51 41 45
-0.101668 -1.19299 4.09587 95 83 98
0.0166264 -0.0882201 4.28634 62 48 47
0.122842 -0.866077 4.47339 74 57 67
0.130589 -0.81049 4.48236 63 63 74
0.141257 -0.82916 4.47974 67 56 64
0.155982 -0.794334 4.48931 71 68 82
0.18299 -0.904484 4.50309 72 63 82
0.18299 -0.904484 4.50309 72 63 82
0.0583312 -1.46036 4.29062 92 77 98
0.0668747 0.348096 4.2713 44 27 28
-0.471207 0.723016 3.32778 97 57 65
0.0710997 0.476549 4.19258 60 40 37
2.73819 -0.399912 8.5429 104 62 74
0.292261 -0.473558 4.49624 42 31 42
0.176725 0.348195 4.29067 43 29 28
-0.422579 0.809054 3.29264 69 44 53
0.30786 -0.431776 4.50438 54 28 37
2.759 -0.420715 8.51111 105 64 78
2.759 -0.420715 8.51111 105 64 78
0.309901 -0.475924 4.48825 74 49 58
0.153299 0.494696 4.21106 83 50 57
2.79119 -0.727418 8.49839 83 44 49
0.201331 -1.51263 4.28686 75 71 94
2.81738 -0.631177 8.46813 83 48 53
0.300569 0.302641 4.317 27 23 19
0.320554 0.437767 4.31767 55 34 33
0.320554 0.437767 4.31767 55 34 33
0.494843 0.194735 4.4746 40 31 36
-22.7099 -0.945889 -30.4545 72 48 57
0.48538 0.497455 4.28118 37 36 42
-9.51911 0.556177 -10.0718 46 60 54
-9.51911 0.556177 -10.0718 46 60 54
0.806461 -0.298825 4.72019 58 67 56
0.806461 -0.298825 4.72019 58 67 56
-0.273853 0.902674 3.13704 71 44 49
0.838941 0.0511496 4.71863 48 55 58
0.901573 -0.267834 4.71263 66 86 64
1.13473 -1.3935 4.99547 47 65 51
1.16208 -1.35833 4.99136 71 91 68
-0.181127 0.89808 3.13875 73 74 95
0.770988 0.407444 4.40709 64 75 69
-0.0718388 0.810042 3.22138 71 73 94
1.3002 -1.49805 5.02708 42 50 53
-0.0420415 0.870235 3.2054 77 84 103
1.36589 -1.86242 5.05004 49 66 60
0.912034 0.305933 4.43285 82 97 87
1.37168 -1.57613 5.04099 49 61 61
1.10398 0.143957 4.65852 74 82 84
0.00356129 0.72444 3.23869 73 77 88
1.42012 -1.50384 5.05196 58 73 70
1.09426 0.185905 4.61217 75 85 86
1.12835 -0.267874 4.66014 80 96 84
1.46534 -1.66119 5.06529 0 0 0
1.09244 0.226633 4.56727 0 0 0
1.48398 -1.84502 5.06982 0 0 0
0.0398629 0.868524 3.21758 0 0 0
1.50542 -1.51151 5.06186 0 0 0
1.54926 -1.84402 5.09083 0 0 0
1.52689 -1.06395 5.05095 0 0 0
1.52689 -1.06395 5.05095 0 0 0
1.5386 -0.926754 5.05222 0 0 0
1.56188 -1.67467 5.08782 0 0 0
1.56035 -0.908807 5.04809 0 0 0
1.6277 -1.10786 5.07921 0 0 0
1.63663 -1.27845 5.07151 0 0 0
1.6459 -1.35898 5.08248 0 0 0
1.67055 -1.3033 5.08698 0 0 0
1.6951 -1.8581 5.11477 0 0 0
1.6915 -1.49195 5.09914 0 0 0
1.6915 -1.49195 5.09914 0 0 0
1.71023 -1.11556 5.09628 0 0 0
1.71329 -1.21957 5.10093 0 0 0
1.71767 -1.13536 5.0993 0 0 0
1.72236 -0.91974 5.08342 0 0 0
1.75572 -2.05007 5.13569 0 0 0
1.73978 -1.49001 5.10578 0 0 0
1.7357 -0.761159 5.082 0 0 0
1.78392 -1.41419 5.11847 0 0 0
1.78923 -1.41559 5.12313 0 0 0
1.76035 -1.12325 5.08339 0 0 0
1.83511 -1.62457 5.12884 0 0 0
1.83611 -1.41127 5.1253 0 0 0
1.84978 -1.96993 5.1453 0 0 0
1.84978 -1.96993 5.1453 0 0 0
1.82631 -1.08951 5.10611 0 0 0
1.82087 -0.269456 5.08213 0 0 0
1.84547 -0.600146 5.10004 0 0 0
1.8473 -0.749472 5.10194 0 0 0
1.84202 -0.0798493 5.07967 0 0 0
1.86031 0.208917 5.06124 0 0 0
1.87467 -0.061281 5.08028 0 0 0
1.92508 -1.49166 5.14508 0 0 0
1.94996 -0.98626 5.13488 0 0 0
1.93707 -0.429154 5.10761 0 0 0
1.92109 -0.0568328 5.0836 0 0 0
1.92169 -0.089108 5.08209 0 0 0
1.97461 -0.728929 5.14002 0 0 0
1.98794 -1.67424 5.16463 0 0 0
2.02517 -1.8363 5.17967 0 0 0
2.00338 -0.595714 5.1225 0 0 0
2.01715 -0.407996 5.13251 0 0 0
2.0592 -1.50993 5.18353 0 0 0
2.09373 -2.14685 5.20623 0 0 0
2.09373 -2.14685 5.20623 0 0 0
2.08906 -1.47738 5.16827 0 0 0
2.09578 -1.44961 5.17461 0 0 0
2.11875 -2.16129 5.20785 0 0 0
0.280142 1.01875 3.1491 0 0 0
2.08572 -0.00810372 5.12776 0 0 0
2.13831 -2.01833 5.21067 0 0 0
2.11689 -1.29016 5.17644 0 0 0
2.1476 -2.14368 5.21669 0 0 0
2.1476 -2.14368 5.21669 0 0 0
2.1096 -0.943283 5.15708 0 0 0
2.15031 -2.10684 5.21459 0 0 0
2.10143 -0.219667 5.13308 0 0 0
2.07409 0.221158 5.09623 0 0 0
2.07409 0.221158 5.09623 0 0 0
2.15517 -2.00771 5.21204 0 0 0
2.1375 -0.749704 5.15802 0 0 0
2.16527 -1.28672 5.18525 0 0 0
2.16527 -1.28672 5.18525 0 0 0
2.12699 -0.0405232 5.12297 0 0 0
2.1841 -1.48799 5.19172 0 0 0
2.14129 0.212529 5.11889 0 0 0
2.14609 0.0419727 5.11703 0 0 0
2.22043 0.055167 5.14296 0 0 0
0.715291 0.919793 3.33428 0 0 0
2.06194 -0.529232 4.65682 0 0 0
1.46152 -1.44374 3.97423 0 0 0
1.45961 -0.449749 3.95578 0 0 0
-0.259194 -0.568195 2.35856 0 0 0
1.48819 0.183432 3.94122 0 0 0
1.63442 -0.998129 4.00704 0 0 0
1.65607 -0.825601 4.02174 0 0 0
1.76095 -0.828666 4.04447 0 0 0
8.49439 -4.69439 10.0798 0 0 0
8.51327 -4.65953 10.0929 0 0 0
8.52718 -4.29875 10.0848 0 0 0
8.52718 -4.29875 10.0848 0 0 0
1.79333 -0.852336 4.0448 0 0 0
8.53437 -4.67765 10.0885 0 0 0
8.55164 -4.44979 10.1005 0 0 0
8.48594 -1.18734 9.98005 0 0 0
8.54623 -4.22675 10.0697 0 0 0
8.5627 -4.16718 10.0693 0 0 0
8.52354 -2.03748 10.0045 0 0 0
8.52354 -2.03748 10.0045 0 0 0
8.57371 -4.67122 10.0774 0 0 0
8.68407 -3.3414 10.1432 0 0 0
8.60025 -4.06102 10.0673 0 0 0
8.6087 -4.00601 10.0724 0 0 0
8.5743 -2.03654 10.0007 0 0 0
8.54893 -1.34606 9.96978 0 0 0
8.57825 -2.03755 10.0038 0 0 0
-225.152 20.6662 -182.184 0 0 0
8.61238 -1.47485 9.97114 0 0 0
8.67908 -0.98796 10.0183 0 0 0
8.68152 0.388121 9.98142 0 0 0
8.75788 -4.04056 10.0676 0 0 0
8.65831 0.713008 9.9115 0 0 0
8.79054 -4.09366 10.0732 0 0 0
8.65839 1.03419 9.89075 0 0 0
8.71796 0.529177 9.93127 0 0 0
8.71842 0.529431 9.93162 0 0 0
8.83407 -4.08136 10.0647 0 0 0
8.83184 -2.28431 10.0179 0 0 0
8.78764 -1.2926 9.95973 0 0 0
8.78956 -1.43609 9.96261 0 0 0
8.71911 1.06457 9.8639 0 0 0
8.809 0.602176 9.93318 0 0 0
8.91734 -3.53066 10.0411 0 0 0
8.84307 -0.542834 9.9387 0 0 0
8.82761 0.649303 9.90422 0 0 0
8.86349 -0.867398 9.95175 0 0 0
8.84225 0.135416 9.92099 0 0 0
8.84185 -0.0378999 9.92059 0 0 0
8.85452 -1.03215 9.94281 0 0 0
8.81929 0.366016 9.8909 0 0 0
8.87951 -1.41241 9.94506 0 0 0
8.85182 -0.575816 9.90283 0 0 0
8.83282 -0.325204 9.87979 0 0 0
8.99406 -4.06905 10.0609 0 0 0
8.85662 -0.0744849 9.89207 0 0 0
8.86761 0.173526 9.89315 0 0 0
8.89047 -1.07551 9.92435 0 0 0
8.8866 -0.824841 9.91112 0 0 0
9.01599 0.6763 9.95239 0 0 0
9.00288 -0.858857 9.9473 0 0 0
8.99847 0.646169 9.8995 0 0 0
9.12375 -1.77062 9.98779 0 0 0
9.03189 -0.53928 9.89304 0 0 0
9.05473 0.669083 9.88996 0 0 0
9.12861 -1.90738 9.96893 0 0 0
9.18145 -1.46817 9.98586 0 0 0
9.19309 -1.88577 9.98017 0 0 0
9.23008 -1.77471 9.98476 0 0 0
9.26003 -1.9353 9.99593 0 0 0
9.29597 -1.84057 10.0098 0 0 0
9.29029 -1.99798 9.99957 0 0 0
9.30652 -1.8903 9.99303 0 0 0
9.29006 -1.81682 9.96991 0 0 0
9.3153 -1.86529 9.98955 0 0 0
9.3153 -1.86529 9.98955 0 0 0
9.31612 -1.96877 9.98945 0 0 0
9.30047 -0.792522 9.96258 0 0 0
9.27949 -1.78851 9.9502 0 0 0
9.29602 -1.25558 9.9527 0 0 0
9.29602 -1.25558 9.9527 0 0 0
9.31464 -1.85151 9.95718 0 0 0
9.34442 -1.92533 9.9768 0 0 0
9.34793 -1.29542 9.95577 0 0 0
9.34793 -1.29542 9.95577 0 0 0
9.36672 -1.98075 9.96876 0 0 0
9.37823 -1.89703 9.96333 0 0 0
9.32271 0.419077 9.8768 0 0 0
9.3059 -1.97615 9.88949 0 0 0
9.37792 -1.87247 9.94168 0 0 0
9.31041 1.05778 9.84852 0 0 0
9.34321 -0.110546 9.88343 0 0 0
9.42185 -0.113021 9.94033 0 0 0
9.56269 -0.5407 9.92724 0 0 0
9.61277 -0.827861 9.90606 0 0 0
9.63585 0.137288 9.87218 0 0 0
9.8625 -3.53731 10.0242 0 0 0
9.85867 -2.04032 9.9838 0 0 0
9.8402 -1.90504 9.96488 0 0 0
9.86389 -0.073996 9.94086 0 0 0
9.88921 -1.25255 9.96389 0 0 0
9.88595 -1.11946 9.95828 0 0 0
9.88595 -1.11946 9.95828 0 0 0
9.89537 1.07307 9.93685 0 0 0
9.86734 0.711517 9.90412 0 0 0
9.99582 -4.30232 10.0592 0 0 0
9.9721 -3.17631 10.0092 0 0 0
9.88437 0.398996 9.89979 0 0 0
9.97978 -3.41225 10.0158 0 0 0
9.97229 -3.51514 10.0106 0 0 0
9.86885 1.0313 9.87773 0 0 0
9.95293 -2.07191 9.97153 0 0 0
9.96332 -2.47155 9.98225 0 0 0
9.90184 0.732067 9.87887 0 0 0
9.91637 -0.293897 9.88703 0 0 0
9.89991 0.702999 9.84526 0 0 0
10.0917 -1.89857 10.0019 0 0 0
10.1493 -0.540059 9.92839 0 0 0
10.1337 0.672092 9.90213 0 0 0
10.3115 -4.07534 10.0232 0 0 0
10.1806 0.665966 9.84704 0 0 0
10.3353 -3.47114 10.0076 0 0 0
10.2986 -1.08377 9.94071 0 0 0
10.3297 -0.831262 9.96004 0 0 0
10.3069 -1.41412 9.94857 0 0 0
10.4239 -1.34263 10.0309 0 0 0
10.4236 -4.90803 10.0592 0 0 0
10.345 -0.581224 9.94359 0 0 0
10.3627 -1.34805 9.96021 0 0 0
10.3884 -2.2566 9.98424 0 0 0
10.3205 -0.0743233 9.90432 0 0 0
10.3267 0.172344 9.90212 0 0 0
10.3849 -2.18867 9.97159 0 0 0
10.4806 -4.25938 10.0614 0 0 0
10.4319 -4.93286 10.0294 0 0 0
10.4154 -1.38702 9.97298 0 0 0
10.3438 -1.43186 9.91748 0 0 0
10.3302 -1.22032 9.90365 0 0 0
10.4136 -2.34536 9.97493 0 0 0
10.4173 -1.30592 9.96297 0 0 0
10.3962 -2.27858 9.95203 0 0 0
10.3718 0.0156951 9.89938 0 0 0
10.5091 -3.82159 10.0363 0 0 0
10.4887 -4.68958 10.0292 0 0 0
10.3682 0.248839 9.88037 0 0 0
10.4936 -4.12969 10.0184 0 0 0
10.373 0.648956 9.87208 0 0 0
10.4019 1.06616 9.87965 0 0 0
10.5106 -4.65562 10.0244 0 0 0
10.3679 -1.37271 9.87757 0 0 0
10.4441 -1.33025 9.92593 0 0 0
10.5148 -3.85508 9.98988 0 0 0
10.5548 -4.02394 10.0199 0 0 0
10.7222 -3.60899 10.1362 0 0 0
10.4106 0.558316 9.85404 0 0 0
10.5476 -1.01059 9.94452 0 0 0
10.5027 0.732741 9.88168 0 0 0
10.7001 -2.37565 10.0615 0 0 0
10.6814 -3.79401 10.0613 0 0 0
10.8597 -3.67084 10.1787 0 0 0
10.4942 -1.99879 9.87976 0 0 0
10.6154 -0.479226 9.95031 0 0 0
10.6092 -1.44006 9.95394 0 0 0
10.6754 -4.12227 10.0231 0 0 0
10.6156 -2.03841 9.95522 0 0 0
10.9176 -3.73685 10.1862 0 0 0
10.8356 -3.44278 10.12 0 0 0
10.6313 -1.47814 9.94773 0 0 0
10.6974 -4.24026 10.0205 0 0 0
10.902 -3.62629 10.1596 0 0 0
10.6761 -2.18144 9.97541 0 0 0
10.7191 -4.68178 10.034 0 0 0
10.7077 -4.27859 10.0205 0 0 0
10.6741 -2.03812 9.95823 0 0 0
10.7405 -4.24163 10.0313 0 0 0
10.7182 -4.80366 10.0199 0 0 0
10.8014 -0.0369862 10.0225 0 0 0
10.896 -3.77942 10.1238 0 0 0
10.7707 -4.38492 10.0382 0 0 0
10.7508 -4.23293 10.0177 0 0 0
10.4783 1.41043 9.75228 0 0 0
10.7566 -4.67769 10.0239 0 0 0
10.7451 -2.03993 9.97396 0 0 0
10.7451 -2.03993 9.97396 0 0 0
10.9045 -2.39602 10.0867 0 0 0
10.6856 0.661871 9.88855 0 0 0
10.9691 -5.08693 10.1582 0 0 0
10.9033 -2.39802 10.071 0 0 0
10.8001 -4.31603 10.013 0 0 0
10.7576 -1.40272 9.9444 0 0 0
10.6386 1.36531 9.82651 0 0 0
10.8383 -4.08524 10.0229 0 0 0
10.9384 -3.37039 10.0859 0 0 0
10.8453 -4.40479 10.0252 0 0 0
10.7724 -1.42863 9.93372 0 0 0
10.8443 -4.86935 10.0212 0 0 0
10.8945 0.230703 10.0003 0 0 0
10.8033 -1.32658 9.93902 0 0 0
10.9686 -3.82972 10.0831 0 0 0
10.8841 -4.03656 10.0226 0 0 0
10.9041 -4.48014 10.0367 0 0 0
10.8042 -1.46571 9.92904 0 0 0
10.9738 -0.00721373 10.0133 0 0 0
11.0263 -2.45193 10.0772 0 0 0
11.064 -2.86518 10.1048 0 0 0
11.064 -2.86518 10.1048 0 0 0
10.9225 -4.16688 10.0154 0 0 0
10.7802 1.01714 9.85423 0 0 0
10.9812 -0.0850554 10.0111 0 0 0
10.9776 -0.185114 10.0078 0 0 0
10.6528 1.32167 9.75284 0 0 0
11.0082 -0.793726 10.0309 0 0 0
11.0969 -3.60436 10.121 0 0 0
10.9873 -0.264211 10.0039 0 0 0
11.0295 -0.397135 10.0338 0 0 0
10.9929 0.0580121 9.99631 0 0 0
10.9603 -4.14296 10.017 0 0 0
10.9393 -1.15855 9.96821 0 0 0
10.9393 -1.15855 9.96821 0 0 0
11.0319 -0.110404 10.0194 0 0 0
11.0319 -0.110404 10.0194 0 0 0
11.027 -0.0597013 10.0146 0 0 0
11.027 -0.0597013 10.0146 0 0 0
11.0021 0.417287 9.99117 0 0 0
11.0021 0.417287 9.99117 0 0 0
11.0168 -0.138575 10.0064 0 0 0
10.9308 -1.25225 9.94409 0 0 0
11.1616 -2.39388 10.1136 0 0 0
10.8125 1.26596 9.82146 0 0 0
11.1877 -3.66139 10.1449 0 0 0
19.4219 -2.71804 15.6756 0 0 0
10.9552 -1.44745 9.94754 0 0 0
11.0065 -4.81283 10.0218 0 0 0
10.9721 -2.18459 9.96747 0 0 0
11.0116 -4.03149 10.0151 0 0 0
10.9966 -4.46642 10.0066 0 0 0
10.8901 1.01629 9.86512 0 0 0
11.0886 -0.00933869 10.0164 0 0 0
11.1609 -0.485479 10.0663 0 0 0
10.9608 -1.90442 9.93391 0 0 0
11.106 -0.216713 10.0182 0 0 0
11.0313 -4.36449 10.0105 0 0 0
11.2963 -0.895266 10.1584 0 0 0
10.966 -1.32463 9.9248 0 0 0
10.9975 -1.16984 9.94397 0 0 0
10.9927 -1.49701 9.93039 0 0 0
11.02 -1.29813 9.94408 0 0 0
11.02 -1.29813 9.94408 0 0 0
11.2233 -2.45611 10.0903 0 0 0
11.1825 -0.398535 10.0216 0 0 0
11.1825 -0.398535 10.0216 0 0 0
11.187 -0.160964 10.0189 0 0 0
11.1844 -0.046231 10.0153 0 0 0
10.831 1.23055 9.74852 0 0 0
11.1067 -4.12621 10.0038 0 0 0
11.119 -4.32143 10.0143 0 0 0
11.1188 -4.23021 10.0126 0 0 0
11.181 -4.47812 10.0552 0 0 0
10.9737 -1.27112 9.87149 0 0 0
11.1938 0.059441 10.0127 0 0 0
10.9868 1.06767 9.84991 0 0 0
11.0945 -2.06011 9.95521 0 0 0
11.1019 -1.16109 9.95039 0 0 0
11.2994 -3.40176 10.112 0 0 0
11.329 -5.07264 10.1451 0 0 0
11.1591 -4.06895 10.0128 0 0 0
11.1475 -4.2478 10.0035 0 0 0
11.1292 -2.03752 9.95618 0 0 0
11.172 -4.67731 10.0141 0 0 0
11.1209 -1.52797 9.93694 0 0 0
11.1925 -4.11155 10.0055 0 0 0
11.1925 -4.11155 10.0055 0 0 0
11.2761 -0.224707 10.0165 0 0 0
11.2747 0.00149758 10.008 0 0 0
11.2192 -4.00001 10.0096 0 0 0
11.269 0.23126 9.99671 0 0 0
11.1659 -1.35045 9.93538 0 0 0
11.2012 -4.04371 9.98722 0 0 0
11.1018 0.705525 9.86334 0 0 0
11.0211 1.13429 9.79654 0 0 0
11.2961 -3.86661 10.044 0 0 0
11.21 -4.23986 9.9819 0 0 0
11.2869 -0.992827 9.99955 0 0 0
11.2869 -0.992827 9.99955 0 0 0
11.2207 -2.06283 9.95893 0 0 0
11.2276 -2.03601 9.94992 0 0 0
11.1736 -1.47098 9.89809 0 0 0
-16.2221 1.63152 -9.34366 0 0 0
11.3579 -3.83736 10.0065 0 0 0
11.3913 -4.99054 10.027 0 0 0
11.1656 1.05189 9.78973 0 0 0
11.3672 -3.95795 9.98423 0 0 0
11.2979 0.942332 9.87963 0 0 0
11.3876 -4.10508 9.9919 0 0 0
11.389 -1.09597 9.95862 0 0 0
11.3302 -1.57086 9.91842 0 0 0
11.3609 -2.14548 9.94323 0 0 0
11.4201 -2.28033 9.96031 0 0 0
11.4852 -4.78894 10.0258 0 0 0
11.3482 1.00066 9.85986 0 0 0
11.3496 0.600146 9.85681 0 0 0
11.4735 -4.92286 9.99981 0 0 0
11.4942 -2.21086 9.96882 0 0 0
11.4748 -2.26449 9.94377 0 0 0
11.4216 0.646551 9.86744 0 0 0
11.4783 -1.29684 9.9261 0 0 0
11.431 -0.220551 9.87377 0 0 0
11.5022 -0.79958 9.92181 0 0 0
11.4568 -1.71827 9.88996 0 0 0
11.3726 0.959753 9.80051 0 0 0
11.4929 -1.67197 9.9079 0 0 0
11.5388 -2.31869 9.93855 0 0 0
11.5043 0.892255 9.87098 0 0 0
11.5183 -0.830348 9.89646 0 0 0
11.4619 0.41418 9.84214 0 0 0
11.5549 -2.28226 9.89973 0 0 0
9.52901 1.38797 8.47085 0 0 0
11.5522 0.894186 9.82253 0 0 0
11.6228 -1.5055 9.88702 0 0 0
11.6799 -0.271168 9.87796 0 0 0
11.7885 -3.41657 9.98488 0 0 0
11.7703 -3.34323 9.96906 0 0 0
11.6794 -0.585031 9.87668 0 0 0
11.7743 -3.50652 9.97219 0 0 0
11.6495 0.412412 9.8345 0 0 0
11.5992 -1.53989 9.8218 0 0 0
11.6939 -0.299694 9.86589 0 0 0
11.7981 -3.31411 9.96697 0 0 0
11.5022 0.901545 9.72025 0 0 0
11.801 -3.44759 9.96569 0 0 0
11.8153 -3.83242 9.974 0 0 0
11.6108 -1.46817 9.80782 0 0 0
11.8142 -3.33767 9.96033 0 0 0
11.7852 -2.39384 9.92242 0 0 0
11.8638 -3.75514 9.98918 0 0 0
11.8493 -3.461 9.97553 0 0 0
11.8132 -3.31209 9.9495 0 0 0
11.8443 -3.69035 9.97319 0 0 0
11.5784 -1.45358 9.76736 0 0 0
11.8663 -3.9615 9.9871 0 0 0
11.8241 -3.84048 9.95324 0 0 0
11.6016 -1.43382 9.77702 0 0 0
11.9003 -3.80961 10.0004 0 0 0
11.8427 -3.53845 9.95876 0 0 0
11.6798 -0.0815145 9.80499 0 0 0
11.6912 -0.331321 9.81138 0 0 0
11.6912 -0.331321 9.81138 0 0 0
11.609 -1.48811 9.76292 0 0 0
11.6919 0.162776 9.80015 0 0 0
11.5968 -2.20071 9.75392 0 0 0
11.5968 -2.20071 9.75392 0 0 0
11.8525 -3.99353 9.92291 0 0 0
11.9863 -4.49053 10.0018 0 0 0
12.0517 -2.43775 10.0152 0 0 0
11.9928 -4.52035 9.99034 0 0 0
11.9973 -3.65744 9.97544 0 0 0
12.0241 -4.07134 9.97442 0 0 0
12.0994 -4.46009 10.0012 0 0 0
12.1005 -4.43745 9.98058 0 0 0
12.0761 -4.06989 9.95915 0 0 0
12.0901 -4.65061 9.96161 0 0 0
12.0721 -4.48276 9.93918 0 0 0
12.1233 -4.47859 9.95555 0 0 0
12.1632 -4.86095 9.96722 0 0 0
-2.21472 -0.589641 4.28217 122 95 114
-2.20967 -0.246393 4.26492 116 88 99
-2.19807 0.211406 4.25443 45 25 27
-2.18597 0.174945 4.25122 38 18 24
-2.18904 -0.61026 4.28555 121 99 122
-2.18904 -0.61026 4.28555 121 99 122
-2.18143 0.0871254 4.26173 104 90 110
-2.16757 -0.588742 4.28513 110 82 98
-2.15931 -0.0409156 4.27562 121 93 115
-2.15825 0.53925 4.24124 44 25 31
-2.1617 -0.44616 4.28838 124 102 122
-2.16085 -0.453929 4.28367 112 88 109
-2.15677 -0.599316 4.29191 114 90 112
-2.15351 -0.232027 4.2809 124 100 121
-2.15764 -0.781893 4.29505 112 94 120
-2.15764 -0.781893 4.29505 112 94 120
-2.12988 0.640957 4.24485 68 46 59
-2.12518 0.590433 4.25251 43 28 35
-2.12815 -0.804805 4.29881 118 97 120
-2.12815 -0.804805 4.29881 118 97 120
-2.12487 -0.775834 4.30225 114 93 121
-2.12282 -0.699591 4.29832 98 80 103
-2.11332 -0.535819 4.2908 114 87 106
-2.10363 -0.194668 4.28397 109 82 101
-2.1057 -0.708135 4.30076 126 112 134
-2.0952 0.776301 4.25111 120 74 93
-2.09161 0.654841 4.25581 57 30 39
-2.09406 -0.909796 4.30916 106 88 112
-2.07677 -0.814169 4.311 101 82 106
-2.07242 -0.456462 4.30227 122 99 117
-2.07405 -0.654205 4.3035 107 97 123
-2.07405 -0.654205 4.3035 107 97 123
-2.05919 -0.561101 4.30783 111 84 100
-2.058 -0.394707 4.30226 120 97 121
-2.05152 0.0794306 4.29195 102 76 90
-2.05004 0.189369 4.285 96 44 48
-2.05004 0.189369 4.285 96 44 48
-2.04651 0.787251 4.25839 38 26 36
-2.04978 -0.287897 4.29908 64 50 73
-2.0408 0.110035 4.28334 127 80 94
-2.0382 0.385634 4.27628 82 42 51
-2.04024 0.102833 4.27705 110 63 79
-2.03645 0.45596 4.27186 95 69 84
-2.03714 0.243492 4.27518 138 84 99
-2.02943 -0.545058 4.31377 95 73 90
-2.02722 -0.336284 4.30313 130 105 118
-2.01621 0.636716 4.26869 133 86 104
-2.00036 -0.600187 4.3232 82 66 86
-1.99375 -0.579825 4.32149 85 68 92
-1.98593 0.393269 4.29015 76 40 45
-1.99212 -0.918938 4.32555 113 103 130
-1.9846 -0.449883 4.32111 108 80 90
-1.98164 -0.0231133 4.30194 120 96 112
-1.98288 -0.580295 4.32368 115 99 126
-1.97709 0.394347 4.2909 76 39 43
-1.97619 0.388622 4.28554 77 38 45
-1.97504 0.157971 4.2953 110 63 76
-1.97287 -0.570044 4.3247 106 88 116
-1.966 -0.384081 4.32227 119 92 106
-1.96203 -0.0478627 4.31262 117 95 118
-1.96488 -0.820877 4.3347 82 64 83
-1.96277 -0.594888 4.33041 103 87 113
-1.96113 -0.802492 4.34011 106 86 112
-1.94201 0.788207 4.28736 74 41 51
-1.94689 -0.820637 4.33665 103 76 95
-1.93902 -0.930159 4.34167 95 81 106
-1.93902 -0.930159 4.34167 95 81 106
-1.93074 0.0701025 4.32108 69 31 32
-1.93461 -0.917968 4.3413 117 101 122
-1.92493 0.386076 4.30583 68 29 34
-1.91895 -0.05446 4.32454 109 82 97
-1.92247 -0.60498 4.33506 104 87 112
-1.91838 0.623101 4.28346 51 31 38
-1.91862 -0.798497 4.34004 107 95 119
-1.91267 -0.315083 4.32889 109 89 113
-1.9116 0.256103 4.30082 89 68 75
-1.90774 -0.244914 4.33246 116 92 114
-1.89654 0.0335881 4.32391 60 29 31
-1.88902 -0.235486 4.33587 106 96 121
-1.88954 -0.542905 4.33845 116 83 102
-1.88464 0.352516 4.30653 49 22 28
-1.88641 -0.520072 4.33744 113 84 104
-1.87887 -0.193373 4.33191 98 85 104
-1.87887 -0.193373 4.33191 98 85 104
-1.87429 0.365274 4.31186 59 29 31
-1.87019 -0.0486443 4.33931 118 94 115
-1.86023 -0.370742 4.34972 93 76 91
-1.86099 0.374019 4.31232 67 31 35
-1.85582 -0.247098 4.34398 101 83 110
-1.83716 -0.278922 4.34164 109 87 108
-1.82113 0.605383 4.31187 89 55 72
-1.81989 0.192938 4.32784 80 38 42
-1.80756 0.394209 4.33191 74 34 40
-1.80362 -0.106019 4.34423 114 90 106
-1.802 -0.786351 4.37722 129 105 134
-1.802 -0.786351 4.37722 129 105 134
-1.79651 0.213892 4.34319 86 42 49
-1.79801 -0.0874339 4.34926 108 79 96
-1.7938 -0.0548441 4.3461 105 79 95
-1.78451 -0.0600542 4.3471 103 75 94
-1.78504 -0.808452 4.37415 115 92 118
-1.77477 0.196227 4.34752 87 41 47
-1.77459 0.49464 4.32485 82 41 47
-1.77354 -0.816998 4.37434 116 92 120
-1.76566 -0.811963 4.37299 126 105 132
-1.75761 -0.427947 4.36463 121 96 117
-1.75227 0.182946 4.3465 85 42 49
-1.74904 -0.449127 4.36635 102 76 89
-1.73575 -1.03122 4.39102 85 70 95
-1.72963 0.209927 4.35422 88 44 51
-1.73004 -0.255967 4.36428 117 86 101
-1.73092 -0.968116 4.38849 61 49 73
-1.72645 -0.722671 4.38131 106 81 103
-1.72578 -1.03647 4.39084 117 101 128
-1.71557 0.200342 4.35757 87 42 47
-1.71471 -0.702355 4.38941 119 97 124
-1.71094 0.12934 4.35136 84 37 45
-1.70719 0.0688524 4.35946 71 44 50
-1.70444 0.635985 4.34251 135 86 103
-1.69146 -0.660273 4.38821 64 49 62
-1.68973 -0.642677 4.38758 62 49 66
-1.68973 -0.642677 4.38758 62 49 66
-1.68896 -0.984791 4.39603 120 102 129
-1.67965 -0.925373 4.40168 120 102 128
-1.67864 -0.247364 4.3791 119 93 117
-1.67663 -0.45702 4.39226 127 100 114
-1.67149 0.483476 4.35382 71 32 37
-1.67284 -0.113778 4.36948 111 80 93
-1.66691 -0.780935 4.40208 124 98 124
-1.66932 -0.824099 4.39608 107 90 109
-1.66615 -0.0526296 4.36903 116 86 97
-1.64852 -0.930793 4.4121 107 93 117
-1.64736 -0.931203 4.41388 114 99 122
-1.63816 0.0654277 4.37804 112 64 78
-1.63697 0.488528 4.36624 95 50 57
-1.63891 -0.428183 4.38797 127 108 127
-1.61011 -0.727374 4.4044 121 103 121
-1.60501 -0.0591383 4.38358 107 83 99
-1.60087 -0.894986 4.41869 104 90 113
-1.59192 -0.236943 4.40088 107 97 126
-1.5959 -1.02644 4.41483 100 88 108
-1.57938 -0.243388 4.39131 104 91 113
-1.56895 -0.305666 4.40419 127 104 114
-1.56895 -0.305666 4.40419 127 104 114
-1.5686 -0.360264 4.40037 115 90 96
-1.5636 -0.258783 4.40895 86 77 95
-1.56217 -0.624153 4.42125 111 84 99
-1.56173 -0.930355 4.42903 122 104 126
-1.56309 -0.352467 4.40056 121 96 108
-1.55613 -0.784679 4.42374 124 99 121
-1.55114 0.181184 4.39533 87 49 64
-1.55237 -0.543392 4.41374 114 87 102
-1.55011 -0.936703 4.43196 119 100 117
-1.55102 -0.543724 4.41572 114 87 102
-1.55065 -0.488073 4.41484 126 101 115
-1.55076 -1.0072 4.42505 107 94 120
-1.54625 -0.618402 4.41195 106 81 100
-1.5425 -0.304801 4.40493 121 94 109
-1.53468 -0.257693 4.40965 108 95 114
-1.52938 -0.789768 4.43139 94 77 95
-1.53587 0.858478 4.35861 73 37 53
-1.53587 0.858478 4.35861 73 37 53
-1.53038 -0.5628 4.41299 107 85 99
-1.51885 0.219315 4.39843 72 29 37
-1.50658 -0.62636 4.42786 99 82 98
-1.5098 0.0877033 4.39681 104 54 60
-1.48995 -0.462489 4.42061 110 85 104
-1.48798 -0.0878562 4.41222 143 100 117
-1.48344 -0.175716 4.42167 115 76 93
-1.47338 -0.544822 4.42329 92 77 100
-1.45737 0.282673 4.40033 116 65 78
-1.44875 -0.790242 4.44694 120 97 117
-1.44281 -1.14214 4.46148 110 93 112
-1.44281 -1.14214 4.46148 110 93 112
-1.44519 -1.00893 4.44895 83 62 78
-1.44692 -0.503149 4.42766 110 88 106
-1.44337 0.846894 4.38498 68 38 40
-1.39365 -0.453241 4.44407 97 72 88
-1.38687 -0.783085 4.45558 105 88 107
-1.38209 -1.10341 4.47354 97 77 102
-1.38399 -1.01568 4.46421 100 86 105
-1.38449 0.217434 4.42204 104 57 64
-1.3729 -0.758537 4.46005 114 92 115
-1.35801 -0.728703 4.45961 116 97 119
-1.35887 -0.941175 4.46329 118 101 120
-1.35099 -0.459691 4.45387 103 86 106
-1.34981 -0.708492 4.45509 117 95 114
-1.32611 -0.614535 4.45811 107 88 110
-1.31236 -0.415318 4.45561 94 74 95
-1.30489 -0.608679 4.46146 97 86 113
-1.29137 -0.993492 4.48407 111 94 113
-1.28271 -1.07224 4.49019 79 65 90
-1.28271 -1.07224 4.49019 79 65 90
-1.28753 -0.457992 4.46186 102 74 88
-1.2799 -0.599072 4.46591 87 65 86
-1.26002 -0.695299 4.47236 109 91 108
-1.26002 -0.695299 4.47236 109 91 108
-1.25633 -0.521247 4.47305 88 73 92
-1.2441 -1.11838 4.50491 105 95 120
-1.22482 -1.1032 4.50905 96 82 105
-1.21926 -1.1816 4.51065 109 96 122
-1.21362 -1.08981 4.50581 107 89 106
-1.21319 -0.59799 4.48318 87 66 83
-1.21153 -1.03325 4.49634 120 97 118
-1.21153 -1.03325 4.49634 120 97 118
-1.20409 -1.10408 4.50506 109 92 112
-1.20453 -1.15393 4.5047 106 90 112
-1.19439 -0.843125 4.49916 83 66 89
-1.19439 -0.843125 4.49916 83 66 89
-1.18871 -0.617287 4.49483 85 71 91
-1.18949 -1.16809 4.50673 112 97 120
-1.17323 -0.902463 4.50576 111 93 106
-1.15075 -0.928797 4.51396 106 88 104
-1.13599 -1.21811 4.52658 118 104 128
-1.11984 -1.08655 4.52369 104 88 105
-1.11797 -0.767833 4.51225 79 66 78
-1.09016 -0.745236 4.52088 116 98 115
-1.09016 -0.745236 4.52088 116 98 115
-1.08592 -0.760846 4.51685 106 85 102
-1.08335 -1.09548 4.52689 110 100 130
-1.06451 -1.30579 4.54534 115 97 123
-1.06451 -1.30579 4.54534 115 97 123
-1.22613 0.264303 4.08913 98 49 53
-0.991835 -0.926036 4.55053 121 102 120
-1.12751 0.096057 4.20494 131 75 88
-0.954034 -0.768345 4.54538 54 49 56
-0.950385 -1.2853 4.56057 77 74 93
-1.24247 0.898075 3.95541 111 77 99
-0.905799 -1.31921 4.57378 89 74 96
-1.19548 0.750737 3.97203 60 41 35
-1.1594 0.386577 4.00946 81 36 39
-1.1594 0.386577 4.00946 81 36 39
-0.797183 -0.977872 4.48957 108 93 114
-0.726042 -1.39435 4.61229 100 83 101
-1.06098 0.888834 3.99344 145 85 100
-1.03655 0.413046 4.03931 87 37 40
-1.02985 0.809476 4.01666 152 109 128
-1.01792 0.83716 4.01683 162 112 133
-0.774874 -0.312786 4.40371 72 50 58
-1.02554 0.512773 3.97632 141 87 101
-0.94766 0.90125 4.00408 155 98 115
-0.706391 -0.172787 4.37914 95 53 63
-0.675182 -0.395798 4.42958 95 84 103
-0.89224 0.337743 4.06706 133 75 87
-0.713539 -0.772752 4.32308 88 73 94
-0.67523 -0.146528 4.35561 73 41 44
-0.516209 0.0292379 4.43844 71 59 59
-0.516209 0.0292379 4.43844 71 59 59
-0.514573 0.0286996 4.43998 71 57 57
-0.752518 0.619216 3.96417 142 93 114
-0.434877 0.186202 4.39905 106 77 95
-0.470803 0.256363 4.33745 135 90 110
-0.367386 -0.437572 4.3729 62 48 60
-0.41013 0.16704 4.29878 112 76 87
-0.443135 0.235093 4.24824 129 82 92
-0.464906 -0.132869 4.23767 48 31 33
-0.315842 0.0021016 4.37142 94 66 73
-0.942309 -0.435538 3.53599 61 45 56
-0.504118 0.48889 4.08061 67 35 38
0.170056 0.517446 4.9572 51 25 26
-0.345466 -1.24885 4.28849 98 87 113
-0.258012 0.0921395 4.38192 94 55 60
-0.321986 -1.07925 4.30671 105 88 108
-0.297275 -1.07239 4.30529 108 94 116
-0.202527 0.112893 4.39138 40 28 28
-0.733782 0.468521 3.69978 53 28 28
-0.173679 -0.00288941 4.39489 52 32 31
-0.210558 0.196256 4.33347 41 24 22
-0.193564 0.180613 4.33322 21 20 18
-0.193564 0.180613 4.33322 21 20 18
-0.158331 0.0804242 4.36801 37 21 22
-0.107179 -0.381504 4.41646 48 26 27
-0.0252129 -0.149817 4.4846 53 28 29
-0.106731 0.0221672 4.37607 60 40 39
-0.106731 0.0221672 4.37607 60 40 39
-0.1059 -0.0321829 4.37508 59 35 38
-0.1059 -0.0321829 4.37508 59 35 38
-0.105797 -0.00085818 4.36041 73 45 47
-0.0565497 -0.380147 4.42204 55 28 28
-0.0602204 -0.340713 4.41569 59 29 31
-0.0649125 -0.0456965 4.4014 76 47 52
-0.0985681 -0.0337744 4.36006 80 49 57
-0.184011 0.34564 4.21743 46 28 26
-0.0480392 -0.0824553 4.36959 70 37 39
-0.00811477 0.121968 4.40611 67 49 63
-0.0590762 -0.0247686 4.32295 103 63 74
-0.203289 0.487238 4.14113 26 20 22
-0.0234608 -0.109045 4.33793 71 37 41
0.0687161 -0.56593 4.44751 68 46 49
0.079564 -0.566492 4.45587 69 47 49
0.0736125 -0.610678 4.44893 81 59 65
-0.0298649 -0.0548391 4.31243 73 37 41
0.0854471 -0.65502 4.44791 85 63 70
-0.00142701 0.0137321 4.33911 88 70 82
0.00791657 -0.12364 4.32016 67 35 39
-0.0465465 0.299244 4.24732 35 29 31
-0.00940751 -0.0657467 4.29278 72 37 41
-0.0427122 0.43578 4.24221 57 31 32
-0.0427122 0.43578 4.24221 57 31 32
0.179109 -0.769257 4.49184 97 75 82
0.0298641 -0.133369 4.30735 66 38 37
0.0148423 -0.0878169 4.28431 71 39 41
0.196228 -0.923574 4.49398 87 71 87
0.013856 -0.0798619 4.27784 71 40 41
0.196232 -0.78272 4.49098 85 66 75
0.0205245 -0.0516459 4.27689 101 59 66
-0.669473 0.889648 3.44753 95 56 61
2.02241 -0.737191 6.43639 54 29 32
0.284779 -0.41959 4.50029 54 28 27
1.96211 -0.208072 6.32493 63 31 32
0.0318669 0.508274 4.18218 57 32 37
0.27741 -1.17657 4.44022 106 93 113
0.360135 -0.398497 4.51606 58 29 31
0.360135 -0.398497 4.51606 58 29 31
0.28387 -1.18398 4.42221 95 80 99
2.03933 -0.196595 6.30517 61 34 33
0.193931 0.315688 4.29644 71 39 44
2.16565 -0.241312 6.39376 67 35 38
0.502197 0.185077 4.50184 95 69 72
0.424971 0.348595 4.34104 42 32 34
0.82306 -0.321444 4.71872 72 39 41
0.858612 0.0789173 4.72096 132 88 107
0.865272 -0.00632652 4.70172 136 91 113
1.03836 0.0831 4.75652 63 49 48
-0.456669 0.742337 3.31251 63 35 37
-0.456669 0.742337 3.31251 63 35 37
1.08045 -0.388966 4.64891 37 48 32
1.08272 0.19333 4.61484 49 53 56
1.11987 0.154532 4.64649 56 56 62
1.08693 0.212532 4.59857 48 63 54
1.1026 0.174317 4.60204 51 67 54
1.19742 0.0202812 4.68753 53 68 53
1.66533 -1.49093 5.0924 62 59 68
1.66533 -1.49093 5.0924 62 59 68
1.69138 -1.41669 5.09828 86 77 88
1.7064 -0.937482 5.08758 47 62 55
1.73276 -1.23433 5.09923 63 62 69
1.72938 -0.594758 5.07977 64 75 56
1.72938 -0.594758 5.07977 64 75 56
1.81631 -2.25477 5.15309 109 100 111
1.77179 -1.50079 5.10668 78 65 75
1.8423 -1.67704 5.13989 84 71 84
1.8661 -1.65401 5.13918 82 68 75
1.89068 -2.1305 5.16213 82 75 79
1.9147 -2.1205 5.17223 51 51 51
1.94537 -2.15237 5.17734 52 55 58
1.93958 -2.13166 5.16994 62 62 63
1.92085 -1.676 5.15003 54 64 61
1.91393 -1.03974 5.13144 0 0 0
1.9823 -2.14407 5.18109 0 0 0
2.02966 -1.65196 5.16669 0 0 0
2.04589 -1.49003 5.16643 0 0 0
2.05929 -1.09623 5.1552 0 0 0
2.12867 -0.229427 5.1344 0 0 0
2.13114 -0.0420979 5.12638 0 0 0
2.19766 -0.0438766 5.13732 0 0 0
1.84143 -2.07447 4.76557 0 0 0
1.90983 -0.379088 4.75588 0 0 0
1.93458 -1.90465 4.76231 0 0 0
2.17216 0.286193 4.8889 0 0 0
-0.00710117 -0.126581 3.21583 0 0 0
0.037427 0.868331 3.21579 0 0 0
10.6346 -4.69721 10.0288 0 0 0
10.6097 -4.00006 10.0022 0 0 0
10.8979 -3.59646 10.1798 0 0 0
10.6683 -4.24033 10.0274 0 0 0
10.6872 -4.46093 10.0359 0 0 0
10.6853 -4.17133 10.0222 0 0 0
7.25875 0.524762 7.72125 0 0 0
10.7314 -4.44768 10.0242 0 0 0
10.6431 -1.12928 9.94103 0 0 0
10.909 -3.32294 10.1 0 0 0
10.7523 -4.55111 9.99419 0 0 0
10.7309 -1.31323 9.9516 0 0 0
11.227 -5.44491 10.2671 0 0 0
10.7448 -1.34374 9.94637 0 0 0
10.8755 -4.42388 10.0102 0 0 0
10.8226 -1.29698 9.93373 0 0 0
10.9367 -4.42211 10.0106 0 0 0
11.8204 -5.78591 10.552 0 0 0
10.8552 -1.1676 9.93938 0 0 0
11.1671 -5.07244 10.156 0 0 0
10.945 -4.08038 10.0058 0 0 0
11.2106 -5.31959 10.1821 0 0 0
10.9977 -0.551585 10.0183 0 0 0
11.0168 -0.975602 10.0302 0 0 0
10.9679 -4.29857 10.0111 0 0 0
10.9155 -1.87382 9.96351 0 0 0
10.8943 -1.45769 9.94628 0 0 0
10.8945 -1.45713 9.94638 0 0 0
10.8893 -1.92555 9.94162 0 0 0
11.0252 -4.81316 10.0273 0 0 0
10.922 -1.25845 9.93854 0 0 0
10.9434 -1.49552 9.95005 0 0 0
10.9434 -1.49552 9.95005 0 0 0
11.036 -4.32345 10.0153 0 0 0
11.1334 -0.974875 10.0536 0 0 0
11.0559 -4.11087 10.0159 0 0 0
11.0306 -4.39136 9.99928 0 0 0
11.299 -5.12289 10.1738 0 0 0
11.1235 -0.184135 10.026 0 0 0
11.1111 -4.22794 10.0077 0 0 0
11.1134 -4.12758 10.0082 0 0 0
11.2492 -2.38547 10.0819 0 0 0
11.2712 -3.37276 10.0835 0 0 0
11.0946 -2.06035 9.9553 0 0 0
11.0874 -1.41485 9.94368 0 0 0
11.0039 0.706911 9.87125 0 0 0
11.2759 -0.752189 10.0341 0 0 0
11.2141 -4.07056 10.0048 0 0 0
11.2141 -4.07056 10.0048 0 0 0
11.2369 -4.10716 9.99984 0 0 0
11.0967 0.737186 9.8811 0 0 0
11.072 0.704476 9.84455 0 0 0
11.2995 -4.01684 10.006 0 0 0
11.347 -3.89661 10.0252 0 0 0
11.347 -3.89661 10.0252 0 0 0
11.3495 -4.66265 10.0118 0 0 0
11.3303 -4.0642 9.99719 0 0 0
11.3606 -4.6659 10.018 0 0 0
11.2503 -1.50006 9.91909 0 0 0
11.2503 -1.50006 9.91909 0 0 0
11.401 -5.23288 10.0079 0 0 0
11.4191 -4.21752 9.99311 0 0 0
11.4007 -1.44094 9.9353 0 0 0
11.6278 -5.12532 10.0577 0 0 0
11.4577 -0.955446 9.91825 0 0 0
11.4974 -1.04814 9.93552 0 0 0
11.451 -0.297566 9.895 0 0 0
11.4385 0.00972931 9.877 0 0 0
11.5965 -2.44772 9.97072 0 0 0
11.5319 -1.0812 9.91079 0 0 0
11.4618 0.668229 9.84765 0 0 0
11.648 -3.40576 9.94635 0 0 0
11.699 -2.40231 9.96658 0 0 0
12.0151 -0.0513288 10.1165 0 0 0
11.7999 -3.84183 9.99199 0 0 0
11.5486 0.89415 9.82035 0 0 0
11.8076 -3.97756 9.98258 0 0 0
11.6312 -1.32254 9.8565 0 0 0
11.8102 -3.47778 9.95795 0 0 0
11.8395 -3.9537 9.97089 0 0 0
11.8403 -3.7935 9.96407 0 0 0
11.6738 -1.09105 9.84417 0 0 0
11.8404 -3.67932 9.95195 0 0 0
11.6615 -0.847003 9.83124 0 0 0
11.7175 0.200818 9.86098 0 0 0
11.6504 0.7058 9.81478 0 0 0
11.6571 0.662258 9.80747 0 0 0
12.0195 -6.05382 10.0432 0 0 0
11.7262 -0.58211 9.83637 0 0 0
11.8598 -3.99433 9.92727 0 0 0
11.6938 0.611981 9.80174 0 0 0
11.8441 -3.90647 9.89981 0 0 0
11.9685 -4.07357 9.97265 0 0 0
11.9658 -3.88661 9.96895 0 0 0
11.9658 -3.88661 9.96895 0 0 0
12.0168 -3.54793 9.97899 0 0 0
12.0168 -3.54793 9.97899 0 0 0
11.8128 -3.80909 9.8541 0 0 0
11.9274 -4.00331 9.92031 0 0 0
12.0482 -4.40495 9.98441 0 0 0
12.033 -4.59487 9.96864 0 0 0
12.0839 -3.6174 9.97082 0 0 0
12.0653 -3.49996 9.95318 0 0 0
12.0571 -4.49769 9.93813 0 0 0
12.083 -4.57209 9.9501 0 0 0
12.1131 -3.66137 9.93609 0 0 0
12.152 -3.82302 9.94514 0 0 0
12.152 -3.82302 9.94514 0 0 0
12.2276 -4.21875 9.98023 0 0 0
11.6133 -1.46306 9.59976 0 0 0
12.266 -4.26953 9.98726 0 0 0
12.266 -4.26953 9.98726 0 0 0
12.1764 -3.65227 9.92951 0 0 0
12.1694 -4.35242 9.92442 0 0 0
12.2571 -4.59171 9.97327 0 0 0
12.2571 -4.59171 9.97327 0 0 0
12.1893 -3.53073 9.92449 0 0 0
12.1942 -4.84989 9.92843 0 0 0
12.3138 -4.30087 9.99061 0 0 0
12.2333 -4.8274 9.94212 0 0 0
11.5431 -1.71046 9.51979 0 0 0
11.6268 -2.32816 9.5697 0 0 0
12.2566 -4.73946 9.93646 0 0 0
12.329 -4.23805 9.9764 0 0 0
11.6342 -1.49862 9.55974 0 0 0
12.3108 -4.34436 9.96523 0 0 0
12.3442 -4.29947 9.97691 0 0 0
12.0249 -3.91829 9.78835 0 0 0
11.6787 -1.44401 9.57658 0 0 0
11.6878 -2.24756 9.5843 0 0 0
12.2236 -3.60429 9.89964 0 0 0
11.8167 -2.21407 9.64839 0 0 0
12.3227 -5.11634 9.95183 0 0 0
12.3288 -4.1593 9.94919 0 0 0
11.74 -1.99905 9.59686 0 0 0
12.2964 -4.84613 9.92521 0 0 0
12.291 -4.90567 9.92035 0 0 0
11.5615 -1.73663 9.4813 0 0 0
12.3264 -4.66889 9.93235 0 0 0
12.3855 -4.20971 9.95831 0 0 0
12.4028 -4.13776 9.95693 0 0 0
11.7261 -2.26904 9.55401 0 0 0
12.3367 -4.82907 9.91061 0 0 0
12.4448 -4.29984 9.96452 0 0 0
12.3688 -4.77604 9.91704 0 0 0
12.5011 -4.3575 9.99167 0 0 0
12.3298 -3.60892 9.88861 0 0 0
12.5238 -4.08629 9.99889 0 0 0
11.8095 -1.33499 9.57611 0 0 0
12.3711 -4.81116 9.91128 0 0 0
12.5079 -4.40209 9.98298 0 0 0
12.47 -4.24091 9.95574 0 0 0
12.3284 -3.71399 9.86808 0 0 0
12.4895 -4.19353 9.96138 0 0 0
12.4032 -4.72449 9.91276 0 0 0
12.52 -4.37053 9.97898 0 0 0
12.496 -4.22775 9.94781 0 0 0
12.499 -4.88391 9.94534 0 0 0
11.6209 0.791816 9.41787 0 0 0
12.5948 -4.47445 9.98866 0 0 0
12.5711 -4.29799 9.97028 0 0 0
12.4203 -4.803 9.88209 0 0 0
12.5311 -4.13071 9.93874 0 0 0
12.4512 -4.69837 9.89449 0 0 0
12.5941 -4.37743 9.96879 0 0 0
12.467 -4.80322 9.89612 0 0 0
12.5781 -4.24317 9.9549 0 0 0
12.6152 -4.43565 9.97005 0 0 0
12.6496 -4.48059 9.98532 0 0 0
12.6183 -4.41256 9.95915 0 0 0
12.4873 -4.75889 9.88073 0 0 0
12.7639 -3.35577 10.0203 0 0 0
12.3223 -0.939141 9.74742 0 0 0
12.7113 -4.08418 9.97016 0 0 0
12.6531 -4.34186 9.9354 0 0 0
12.6906 -4.32049 9.9521 0 0 0
12.8673 -5.03243 10.0549 0 0 0
12.6833 -4.17448 9.94703 0 0 0
12.9336 -3.02216 10.0776 0 0 0
12.689 -4.76423 9.93725 0 0 0
12.8947 -2.59685 10.0411 0 0 0
12.72 -4.59308 9.94691 0 0 0
12.932 -3.28687 10.0611 0 0 0
12.7733 -4.26175 9.9693 0 0 0
12.8107 -3.82653 9.97861 0 0 0
12.9784 -5.93138 10.0785 0 0 0
11.7553 -1.98093 9.36866 0 0 0
12.799 -4.52401 9.96696 0 0 0
12.7914 -4.58511 9.9588 0 0 0
13.023 -5.11388 10.0913 0 0 0
12.786 -4.14217 9.95414 0 0 0
12.902 -3.44762 10.017 0 0 0
13.0278 -3.65295 10.0847 0 0 0
13.0278 -3.65295 10.0847 0 0 0
12.8315 -3.79207 9.97313 0 0 0
12.8347 -4.7933 9.973 0 0 0
12.5547 -3.92022 9.81062 0 0 0
11.9105 0.775552 9.43148 0 0 0
13.0018 -3.00125 10.0586 0 0 0
12.745 -4.7798 9.9133 0 0 0
12.8242 -4.68316 9.95569 0 0 0
13.0149 -3.25436 10.056 0 0 0
11.9154 0.853762 9.41961 0 0 0
12.8266 -4.58821 9.93764 0 0 0
-59.7481 22.397 -31.1408 0 0 0
12.8679 -3.87251 9.95297 0 0 0
13.1214 -6.0398 10.0951 0 0 0
12.9161 -4.21393 9.96974 0 0 0
13.1063 -3.21718 10.0739 0 0 0
12.9149 -3.81418 9.96302 0 0 0
13.2027 -5.1065 10.127 0 0 0
13.2027 -5.1065 10.127 0 0 0
12.8981 -4.75862 9.94045 0 0 0
13.065 -3.40342 10.0292 0 0 0
12.9382 -3.8912 9.95421 0 0 0
12.91 -3.79998 9.93116 0 0 0
13.2145 -3.58687 10.0921 0 0 0
13.2642 -3.66522 10.1153 0 0 0
13.0243 -3.88428 9.9774 0 0 0
13.0086 -4.35634 9.96881 0 0 0
12.9547 -4.90319 9.93265 0 0 0
12.9927 -4.25308 9.94785 0 0 0
13.2386 -5.23191 10.0883 0 0 0
13.0369 -4.43862 9.97105 0 0 0
12.9357 -4.764 9.9104 0 0 0
13.032 -3.84852 9.9607 0 0 0
13.1985 -3.17336 10.0514 0 0 0
12.9072 -4.79693 9.88939 0 0 0
12.9072 -4.79693 9.88939 0 0 0
13.0709 -4.45586 9.96467 0 0 0
13.0709 -4.45586 9.96467 0 0 0
-67.792 23.4748 -35.2204 0 0 0
13.3081 -3.56891 10.0895 0 0 0
13.2316 -3.78883 10.0405 0 0 0
13.2027 -4.72989 10.0232 0 0 0
13.2365 -3.24479 10.0342 0 0 0
13.2365 -3.24479 10.0342 0 0 0
13.0856 -4.40137 9.95341 0 0 0
13.0856 -4.40137 9.95341 0 0 0
13.0871 -4.26406 9.95276 0 0 0
13.0335 -4.76634 9.92092 0 0 0
13.4943 -6.45619 10.1796 0 0 0
11.8712 -1.92342 9.25909 0 0 0
11.8542 -1.97762 9.2496 0 0 0
13.3109 -3.07781 10.0599 0 0 0
13.3003 -2.86074 10.0504 0 0 0
13.0699 -4.30912 9.92666 0 0 0
12.9971 -4.95699 9.88557 0 0 0
13.3017 -2.69957 10.0454 0 0 0
13.1777 -4.15549 9.98041 0 0 0
13.3733 -3.64383 10.0832 0 0 0
13.0498 -4.78862 9.90596 0 0 0
13.0803 -3.83273 9.91997 0 0 0
13.0803 -3.83273 9.91997 0 0 0
13.359 -3.60252 10.0671 0 0 0
13.3616 -3.53666 10.0675 0 0 0
13.3327 -3.37883 10.0445 0 0 0
13.3691 -2.94885 10.0605 0 0 0
13.3691 -2.94885 10.0605 0 0 0
13.1996 -4.26855 9.97009 0 0 0
13.1072 -3.97852 9.91445 0 0 0
13.0084 -2.5067 9.85419 0 0 0
13.065 -4.84707 9.89167 0 0 0
13.4193 -2.87539 10.0845 0 0 0
13.1104 -3.92191 9.90634 0 0 0
13.2203 -4.55012 9.96289 0 0 0
13.1965 -4.50871 9.94525 0 0 0
13.2321 -3.80777 9.96142 0 0 0
13.1825 -4.46782 9.93323 0 0 0
13.1578 -4.43081 9.91594 0 0 0
13.0941 -4.94854 9.87676 0 0 0
13.3277 -3.69776 9.99985 0 0 0
13.387 -3.23349 10.0307 0 0 0
13.4432 -3.04162 10.0578 0 0 0
13.1238 -4.8815 9.88591 0 0 0
13.4951 -5.30022 10.09 0 0 0
13.451 -2.87243 10.0591 0 0 0
13.1023 -4.97747 9.87275 0 0 0
13.4133 -3.51006 10.0383 0 0 0
13.1345 -4.84001 9.88643 0 0 0
13.4514 -2.71114 10.0528 0 0 0
13.2728 -4.75613 9.95848 0 0 0
13.2786 -4.16389 9.95255 0 0 0
13.1311 -4.92483 9.86682 0 0 0
13.518 -3.48183 10.0742 0 0 0
13.2754 -3.86475 9.93905 0 0 0
13.2817 -4.49484 9.93845 0 0 0
13.3194 -3.83622 9.95637 0 0 0
13.3032 -4.62794 9.94873 0 0 0
13.2402 -4.30352 9.91301 0 0 0
13.4113 -3.86495 10.0019 0 0 0
13.4984 -3.33419 10.0415 0 0 0
13.2572 -4.46487 9.90866 0 0 0
13.55 -3.42109 10.0639 0 0 0
13.55 -3.42109 10.0639 0 0 0
13.55 -2.93415 10.0609 0 0 0
13.5534 -3.01395 10.063 0 0 0
13.2457 -4.85247 9.89212 0 0 0
13.5692 -2.85322 10.062 0 0 0
13.567 -2.68224 10.0551 0 0 0
13.3613 -3.87401 9.93891 0 0 0
13.3509 -4.65042 9.93434 0 0 0
13.5756 -3.20252 10.0493 0 0 0
13.6568 -3.18129 10.0917 0 0 0
12.5366 0.797263 9.46794 0 0 0
13.3459 -4.55984 9.91863 0 0 0
13.3564 -4.53873 9.92031 0 0 0
13.2643 -3.94339 9.86578 0 0 0
13.3187 -4.87467 9.8837 0 0 0
13.4639 -4.72672 9.95558 0 0 0
13.3791 -4.53452 9.90807 0 0 0
13.6281 -3.26418 10.0392 0 0 0
13.6115 -3.22455 10.025 0 0 0
13.6115 -3.22455 10.025 0 0 0
13.4162 -4.38487 9.91944 0 0 0
13.4607 -4.22058 9.93956 0 0 0
13.3901 -4.84679 9.89285 0 0 0
13.5939 -3.32935 9.99505 0 0 0
13.4503 -4.67593 9.91502 0 0 0
13.5758 -3.73241 9.97385 0 0 0
13.508 -4.82815 9.93022 0 0 0
13.5304 -4.18812 9.94022 0 0 0
13.5985 -3.59247 9.95119 0 0 0
13.742 -6.16374 10.0338 0 0 0
13.5805 -4.2947 9.94091 0 0 0
13.5709 -4.38961 9.93448 0 0 0
13.474 -4.85472 9.88308 0 0 0
13.5713 -4.71271 9.90243 0 0 0
13.6519 -4.81257 9.94566 0 0 0
13.6596 -4.46725 9.94622 0 0 0
13.7006 -4.50867 9.96066 0 0 0
13.7006 -4.50867 9.96066 0 0 0
13.7156 -4.19532 9.94788 0 0 0
13.6395 -4.2679 9.90685 0 0 0
11.3037 1.07456 8.64325 0 0 0
13.7449 -4.57211 9.96069 0 0 0
11.6292 -1.77943 8.81957 0 0 0
13.5517 -3.92695 9.83662 0 0 0
13.729 -4.42338 9.92361 0 0 0
13.8815 -5.06409 10.0071 0 0 0
13.6692 -4.34643 9.88904 0 0 0
11.9646 -2.30361 8.97225 0 0 0
11.6417 -1.78254 8.78386 0 0 0
13.8162 -4.81573 9.93128 0 0 0
13.8676 -4.63855 9.9482 0 0 0
14.0707 -6.05239 10.0412 0 0 0
13.8218 -3.70883 9.90034 0 0 0
13.8732 -4.88543 9.93023 0 0 0
13.8315 -4.68774 9.90564 0 0 0
13.8589 -4.12356 9.91737 0 0 0
13.6671 -3.97799 9.80705 0 0 0
13.7745 -4.39785 9.8615 0 0 0
14.1397 -6.31421 10.0464 0 0 0
11.5724 0.983238 8.67512 0 0 0
13.8656 -4.80935 9.89004 0 0 0
14.1638 -6.26523 10.0454 0 0 0
13.9598 -4.60796 9.92945 0 0 0
13.9328 -4.85769 9.91342 0 0 0
11.9204 -1.56687 8.84622 0 0 0
11.9518 -1.49433 8.85059 0 0 0
13.9247 -4.70542 9.88648 0 0 0
12 -1.45315 8.86459 0 0 0
13.9693 -4.4345 9.88296 0 0 0
13.7898 -3.89106 9.78722 0 0 0
14.1779 -3.90193 9.97502 0 0 0
14.1243 -4.53863 9.94506 0 0 0
13.8718 -4.22238 9.80931 0 0 0
14.0258 -3.62547 9.88477 0 0 0
14.0114 -3.68151 9.86946 0 0 0
14.3146 -5.38903 10.0281 0 0 0
14.3146 -5.38903 10.0281 0 0 0
14.2325 -4.65271 9.97996 0 0 0
11.9592 -1.49826 8.76422 0 0 0
14.3904 -6.52539 10.0315 0 0 0
13.7945 -3.96063 9.71515 0 0 0
11.9672 -1.47402 8.72962 0 0 0
14.4681 -6.29329 10.0277 0 0 0
14.4675 -6.05092 10.0259 0 0 0
13.9049 -3.93039 9.72855 0 0 0
14.5465 -6.02552 10.063 0 0 0
14.4975 -6.4725 10.0348 0 0 0
14.5197 -6.56272 10.0455 0 0 0
11.9579 -1.52407 8.70217 0 0 0
11.9579 -1.52407 8.70217 0 0 0
14.5374 -5.96949 10.0387 0 0 0
14.5637 -6.25106 10.0415 0 0 0
14.4249 -3.3417 9.94125 0 0 0
11.9417 -1.50275 8.64975 0 0 0
14.5008 -3.59728 9.95288 0 0 0
11.9289 -1.43774 8.63348 0 0 0
14.3024 -3.90978 9.85049 0 0 0
14.4413 -3.53772 9.91665 0 0 0
12.0396 -2.21208 8.682 0 0 0
14.4953 -3.88747 9.92442 0 0 0
14.4953 -3.88747 9.92442 0 0 0
11.9396 -1.83728 8.61298 0 0 0
14.8157 -5.64552 10.0672 0 0 0
11.9718 -2.11752 8.61007 0 0 0
14.4711 -4.12298 9.87851 0 0 0
12.0173 -1.54133 8.61815 0 0 0
11.8613 -1.87084 8.51795 0 0 0
12.2215 -2.27471 8.68427 0 0 0
12.1618 -1.54864 8.6364 0 0 0
12.1618 -1.54864 8.6364 0 0 0
12.0906 -1.53147 8.59908 0 0 0
14.8609 -4.83074 9.99802 0 0 0
12.3414 -2.23668 8.71819 0 0 0
14.8848 -4.90588 9.98573 0 0 0
12.2697 -2.31161 8.66785 0 0 0
12.2697 -2.31161 8.66785 0 0 0
12.1769 -1.57862 8.60757 0 0 0
12.3579 -2.06969 8.66977 0 0 0
12.3484 -2.27935 8.66184 0 0 0
15.0058 -4.03503 9.95379 0 0 0
12.3995 -2.01447 8.65262 0 0 0
5.97316 -2.78837 5.44648 0 0 0
15.4797 -6.45746 10.1875 0 0 0
15.2086 -6.6902 10.038 0 0 0
15.0622 -4.09451 9.95401 0 0 0
15.2068 -6.72203 10.0268 0 0 0
10.7616 -1.7194 7.81707 0 0 0
15.256 -3.2785 10.0425 0 0 0
15.3044 -5.98631 10.07 0 0 0
15.144 -4.03146 9.96339 0 0 0
15.1831 -4.01426 9.96329 0 0 0
15.3648 -3.78922 10.0405 0 0 0
10.9578 -1.85928 7.86152 0 0 0
10.9578 -1.85928 7.86152 0 0 0
12.4728 -1.93795 8.60325 0 0 0
15.5452 -5.91371 10.1176 0 0 0
12.5289 -1.9125 8.6292 0 0 0
15.2033 -4.31466 9.94602 0 0 0
15.3061 -4.38109 9.99347 0 0 0
15.2786 -4.47474 9.97388 0 0 0
15.4415 -3.57273 10.0445 0 0 0
15.2757 -4.03019 9.95831 0 0 0
15.5723 -3.78685 10.0932 0 0 0
15.3395 -4.42504 9.97315 0 0 0
15.3395 -4.42504 9.97315 0 0 0
15.4494 -3.12499 10.0217 0 0 0
