ply
format ascii 1.0 
element vertex 1379
property float32 x 
property float32 y 
property float32 z
property uchar red  
property uchar green
property uchar blue
element face 0
property list uchar int vertex_indices
end_header
0.789416 -1.54081 5.05195 65 73 84
0.793909 -1.09548 5.03005 57 65 78
0.808624 -1.84613 5.0703 64 70 85
0.813477 -0.995017 5.0162 55 62 71
0.812566 -1.21764 5.04008 70 75 100
0.8132 -1.96904 5.07885 72 82 92
0.813966 -1.92951 5.0761 61 67 85
0.826164 -1.66441 5.06513 64 71 84
0.826164 -1.66441 5.06513 64 71 84
0.952611 0.958732 4.45057 105 80 96
0.956234 0.43336 4.49278 132 86 103
0.837936 -1.47466 5.05543 73 81 92
0.840453 -1.36287 5.04499 72 82 92
0.848387 -1.2627 5.03293 79 85 109
0.849412 -0.52545 4.99413 106 71 83
0.849901 -0.525171 4.99259 106 71 83
0.854368 -0.868609 5.01612 67 74 87
0.854292 -0.8686 5.01637 67 74 87
0.851862 -1.84846 5.08014 58 67 77
0.858197 -1.65973 5.06397 63 69 87
0.893631 -1.23684 5.03267 79 85 107
0.894262 -1.01529 5.02617 81 84 115
0.899546 -0.917868 5.02517 81 85 113
0.901627 -1.25258 5.0385 80 85 101
0.899139 -1.83705 5.08649 61 68 87
0.90306 -1.8514 5.07242 62 67 87
0.908333 -1.66411 5.06816 67 77 89
0.924165 -1.47888 5.05021 67 76 84
0.934803 -1.66459 5.0644 69 74 93
1.05346 1.02708 4.43448 85 90 110
0.944228 -1.84059 5.08018 66 73 92
0.961148 -0.693243 5.00792 80 87 102
0.961148 -0.693243 5.00792 80 87 102
0.966835 -1.65543 5.06708 74 81 102
1.07441 0.743722 4.46245 82 86 113
1.07441 0.743722 4.46245 82 86 113
0.977328 -1.8959 5.07905 77 86 100
0.982279 -1.48021 5.06207 76 82 101
0.982279 -1.48021 5.06207 76 82 101
0.984388 -1.89298 5.07946 73 79 96
1.046 0.149104 4.68956 85 86 114
0.987381 -1.91964 5.08183 71 76 96
0.987381 -1.91964 5.08183 71 76 96
1.09525 0.427365 4.48815 80 85 105
1.11539 1.13694 4.36316 76 74 96
1.10772 1.14686 4.39932 74 75 96
0.999162 -0.85777 5.02088 85 90 110
1.10926 0.398685 4.50005 91 92 112
1.01735 -1.84051 5.07712 74 81 99
1.02514 -1.20663 5.04147 79 89 109
1.03684 -1.92913 5.07913 73 87 95
1.05341 -1.8405 5.07657 74 85 102
1.15403 0.69596 4.46834 87 93 108
1.06416 -1.79986 5.07058 71 78 97
1.06899 -0.86518 5.02417 72 74 97
1.17102 1.02531 4.43881 83 87 114
1.0877 -1.82843 5.08426 72 81 100
1.09905 -1.84129 5.0854 72 85 102
1.11484 -1.83085 5.07893 77 84 103
1.12428 -0.888624 5.02707 83 91 111
1.12742 -0.527591 5.0005 83 94 112
1.14229 0.240271 4.95376 0 0 0
1.15349 -0.697615 5.02199 0 0 0
1.15802 -1.81521 5.08544 0 0 0
1.16161 -1.71629 5.07345 0 0 0
1.17267 -0.682746 5.01723 0 0 0
1.18015 -0.886412 5.02904 0 0 0
1.19584 -0.366791 4.99628 0 0 0
1.20172 -0.867418 5.0301 0 0 0
1.21809 0.484684 4.94404 0 0 0
1.2322 0.482961 4.95453 0 0 0
1.25823 -1.8568 5.08388 0 0 0
1.2485 0.278341 4.95503 0 0 0
1.25184 -0.379728 4.99754 0 0 0
1.2574 -1.47744 5.06858 0 0 0
1.25397 -0.323235 4.99034 0 0 0
1.26252 -1.84404 5.08619 0 0 0
1.25518 -0.341783 5.00302 0 0 0
1.25941 0.468494 4.94811 0 0 0
1.28299 -1.06412 5.04545 0 0 0
1.27838 0.148622 4.97223 0 0 0
1.28054 0.924335 4.93072 0 0 0
1.2978 -0.191143 4.98911 0 0 0
1.30108 -0.339798 4.99545 0 0 0
1.30803 -1.12376 5.04716 0 0 0
1.30337 -0.534024 5.01677 0 0 0
1.31178 -1.2146 5.051 0 0 0
1.30191 0.373687 4.9541 0 0 0
1.3062 0.362513 4.95371 0 0 0
1.30616 0.88928 4.92225 0 0 0
1.3302 -1.84922 5.08232 0 0 0
1.32902 -1.5877 5.06988 0 0 0
1.32217 -0.522076 5.01707 0 0 0
1.34457 -1.37752 5.05783 0 0 0
1.32974 0.76274 4.93 0 0 0
1.33781 -0.37981 5.00228 0 0 0
1.33653 0.514175 4.94484 0 0 0
1.3399 0.363847 4.96128 0 0 0
1.34209 0.317556 4.9508 0 0 0
1.36146 -1.85051 5.08584 0 0 0
1.36025 -1.58471 5.06549 0 0 0
1.3485 -0.15416 4.99556 0 0 0
1.34341 0.772639 4.93803 0 0 0
1.36226 -0.729466 5.03102 0 0 0
1.35122 0.793347 4.93688 0 0 0
1.35122 0.793347 4.93688 0 0 0
1.36723 -0.756796 5.02584 0 0 0
1.37004 -1.06823 5.04366 0 0 0
1.37919 -1.37283 5.06234 0 0 0
1.36124 0.79387 4.93939 0 0 0
1.36642 0.608855 4.94727 0 0 0
1.392 -1.29784 5.06045 0 0 0
1.39656 -1.22115 5.05125 0 0 0
1.38155 0.619172 4.94785 0 0 0
1.40199 -1.54233 5.06798 0 0 0
1.40518 -1.84572 5.08964 0 0 0
1.40015 -1.28877 5.05904 0 0 0
1.42983 -1.21956 5.05383 0 0 0
1.42137 0.330698 4.95664 0 0 0
1.41358 0.966946 4.93758 0 0 0
1.43395 -0.433193 5.00698 0 0 0
1.42033 0.950828 4.9315 0 0 0
1.43411 -0.249314 4.99144 0 0 0
1.43655 -0.466774 5.00705 0 0 0
1.43699 -0.545429 5.02673 0 0 0
1.44971 -1.51778 5.06426 0 0 0
1.44179 0.0135466 4.98521 0 0 0
1.46211 -1.65792 5.08769 0 0 0
1.44687 0.271684 4.96205 0 0 0
1.45422 -0.273222 4.99663 0 0 0
1.45996 -0.520407 5.01929 0 0 0
1.47988 -1.76519 5.08199 0 0 0
1.45782 0.612752 4.94763 0 0 0
1.45904 0.612071 4.94137 0 0 0
1.47065 -0.163582 4.99869 0 0 0
1.48979 -1.82178 5.08444 0 0 0
1.46589 0.446799 4.96229 0 0 0
1.48024 -0.868229 5.03231 0 0 0
1.48584 -1.29295 5.05835 0 0 0
1.46711 0.950591 4.93463 0 0 0
1.46711 0.950591 4.93463 0 0 0
1.48726 -0.353288 5.00142 0 0 0
1.47756 0.874711 4.92647 0 0 0
1.48948 0.174615 4.96412 0 0 0
1.51661 -1.25615 5.06145 0 0 0
1.51505 -0.879064 5.03861 0 0 0
1.5227 -1.41196 5.07261 0 0 0
1.5227 -1.41196 5.07261 0 0 0
1.52212 -1.21133 5.06654 0 0 0
1.52212 -0.69844 5.03035 0 0 0
1.50661 0.911393 4.92669 0 0 0
1.51846 0.0326206 4.98767 0 0 0
1.54127 -0.629193 5.02294 0 0 0
1.54764 -1.07487 5.05506 0 0 0
1.55125 -1.26246 5.06609 0 0 0
1.5351 0.761764 4.95349 0 0 0
1.54886 -0.194926 4.99472 0 0 0
1.567 -0.172609 5.00433 0 0 0
1.55459 0.951538 4.93073 0 0 0
1.5589 0.643993 4.94762 0 0 0
1.58342 -1.08426 5.05255 0 0 0
1.5897 -0.895701 5.04121 0 0 0
1.5897 -0.895701 5.04121 0 0 0
1.60097 -1.6673 5.09019 0 0 0
1.58159 0.718589 4.9403 0 0 0
1.60756 -1.2992 5.05736 0 0 0
1.59168 0.0169822 4.98893 0 0 0
1.61202 -0.8957 5.04425 0 0 0
1.61647 -1.07905 5.06402 0 0 0
1.61842 -0.87895 5.04442 0 0 0
1.63078 -0.89595 5.04215 0 0 0
1.63134 -0.71469 5.03742 0 0 0
1.61453 0.764069 4.94297 0 0 0
1.61273 0.932364 4.93292 0 0 0
1.62966 0.638862 4.94686 0 0 0
1.657 -1.22812 5.05513 0 0 0
1.63967 0.224631 4.96764 0 0 0
1.64277 0.3259 4.94665 0 0 0
1.65311 -0.515284 5.02315 0 0 0
1.66611 -1.39655 5.06607 0 0 0
1.65083 -0.152487 4.99926 0 0 0
1.65083 -0.152487 4.99926 0 0 0
1.66002 -0.717824 5.02337 0 0 0
1.63932 0.971405 4.92265 0 0 0
1.64198 0.92922 4.91905 0 0 0
1.66254 0.274751 4.96715 0 0 0
1.66303 0.477743 4.96608 0 0 0
1.67281 -0.137478 4.99767 0 0 0
1.67664 -0.148361 5.0026 0 0 0
1.66652 0.779246 4.93933 0 0 0
1.67675 0.918958 4.92384 0 0 0
1.71301 -1.47997 5.07745 0 0 0
1.72955 -1.74837 5.08879 0 0 0
1.72955 -1.74837 5.08879 0 0 0
1.69462 0.710667 4.94265 0 0 0
1.69384 0.953983 4.93375 0 0 0
1.71219 -0.173934 5.00411 0 0 0
1.69639 0.937999 4.9328 0 0 0
1.74381 -1.08024 5.04959 0 0 0
1.74856 -1.37576 5.06836 0 0 0
1.73698 -0.470752 5.0192 0 0 0
1.75605 -1.52915 5.07648 0 0 0
1.76132 -1.47783 5.07786 0 0 0
1.76052 -1.27074 5.06743 0 0 0
1.76631 -1.37103 5.07239 0 0 0
1.74598 0.0288066 4.99621 0 0 0
1.74949 -0.165894 5.0008 0 0 0
1.76125 -0.887608 5.0417 0 0 0
1.75069 0.0394583 4.99382 0 0 0
1.78217 -1.49277 5.07242 0 0 0
1.77096 0.0472756 4.9954 0 0 0
1.80029 -1.45114 5.07342 0 0 0
1.78694 0.0332098 4.99956 0 0 0
1.77438 0.959806 4.93647 0 0 0
1.77859 1.0886 4.84186 0 0 0
1.77859 1.0886 4.84186 0 0 0
1.82107 -1.67821 5.1218 0 0 0
1.82264 -1.66715 5.08949 0 0 0
1.79761 -0.123057 4.99748 0 0 0
1.78777 1.0129 4.92541 0 0 0
1.79328 1.08939 4.84421 0 0 0
1.83345 -1.05997 5.0551 0 0 0
1.8146 0.48979 4.96853 0 0 0
1.82438 0.0179457 4.99365 0 0 0
1.82444 0.018132 4.99316 0 0 0
1.81263 0.814765 4.93697 0 0 0
1.81072 0.959501 4.94652 0 0 0
1.83604 0.293519 4.97529 0 0 0
1.84307 0.15349 4.97497 0 0 0
1.86666 -0.918812 5.05827 0 0 0
1.85874 -0.15511 5.00979 0 0 0
1.866 0.755354 4.94633 0 0 0
1.88056 0.370038 4.96645 0 0 0
1.88278 0.630773 4.95771 0 0 0
1.93036 -1.48059 5.08164 0 0 0
1.91633 -0.678371 5.03349 0 0 0
1.92117 -0.93685 5.04514 0 0 0
1.92109 -0.937082 5.04595 0 0 0
1.93023 -0.883296 5.04663 0 0 0
1.94462 -0.919702 5.04963 0 0 0
1.94462 -0.919702 5.04963 0 0 0
1.93444 0.31415 4.98253 0 0 0
1.95427 -0.686207 5.03685 0 0 0
1.97019 -0.937653 5.04711 0 0 0
1.93666 0.750646 4.95666 0 0 0
1.97317 -1.06587 5.0556 0 0 0
1.98188 -1.48255 5.08472 0 0 0
1.98188 -1.48255 5.08472 0 0 0
1.97245 -0.930832 5.04958 0 0 0
1.96851 -0.707017 5.04075 0 0 0
1.97874 -1.07798 5.05668 0 0 0
1.95651 0.0318212 4.98973 0 0 0
1.98475 -1.08508 5.05429 0 0 0
1.99971 -1.67938 5.09674 0 0 0
1.97854 -0.173599 5.00244 0 0 0
2.00053 -0.188538 5.00405 0 0 0
2.00755 0.0331367 4.99513 0 0 0
2.03989 -0.91991 5.04854 0 0 0
2.04022 -0.932814 5.05138 0 0 0
2.02117 0.0549049 4.98719 0 0 0
2.02946 -0.197162 5.00689 0 0 0
2.02946 -0.197162 5.00689 0 0 0
2.0328 0.0458335 4.99679 0 0 0
2.035 0.043624 4.99717 0 0 0
2.04537 -0.213384 5.01377 0 0 0
2.07686 -1.3101 5.06758 0 0 0
2.11711 -0.911157 5.04463 0 0 0
2.08494 0.608493 4.95843 0 0 0
2.11525 -0.174931 5.00685 0 0 0
2.13856 0.612322 4.96448 0 0 0
2.13904 0.61183 4.96064 0 0 0
2.18091 -1.10888 5.05835 0 0 0
2.18078 -1.10919 5.05956 0 0 0
2.14281 0.74121 4.94782 0 0 0
2.15699 0.618429 4.96047 0 0 0
2.15112 0.95302 4.94106 0 0 0
2.16354 0.940934 4.94202 0 0 0
2.20498 -0.34228 5.01264 0 0 0
2.205 -0.342398 5.01245 0 0 0
2.21788 -0.569779 5.02618 0 0 0
2.20833 0.00425984 4.99578 0 0 0
2.17576 1.20282 4.83689 0 0 0
2.19033 0.927256 4.9432 0 0 0
2.18641 1.09071 4.84576 0 0 0
2.19888 0.914087 4.94399 0 0 0
2.25686 -0.0192678 5.00016 0 0 0
2.27333 0.141263 4.99455 0 0 0
2.27333 0.141201 4.99473 0 0 0
2.27157 1.19358 4.83791 0 0 0
2.3086 1.20551 4.83942 0 0 0
2.32932 1.10954 4.84501 0 0 0
2.35554 1.10074 4.84559 0 0 0
2.38476 1.22204 4.83981 0 0 0
2.46176 0.297857 5.43369 0 0 0
2.51403 0.849888 5.36436 0 0 0
2.51398 0.849081 5.361 0 0 0
-4.0381 -2.51221 4.55418 168 183 238
-1.53457 1.11179 3.15543 131 107 121
-3.37324 1.14592 4.24998 123 94 106
-3.90264 -2.36093 4.65262 166 182 233
-3.88421 -2.37794 4.65874 166 182 234
-3.90153 -2.33289 4.68416 165 181 230
-3.90153 -2.33289 4.68416 165 181 230
-3.91452 -2.67051 4.70281 168 185 237
-3.76193 0.633392 4.73966 146 89 108
-3.18508 0.824903 4.69709 60 31 37
-3.17515 0.924452 4.69103 66 37 41
5.39164e+07 2.5637e+07 -3.16849e+07 112 87 105
-3.1583 0.436796 4.74307 71 36 38
-3.16118 0.510298 4.74399 65 35 38
-3.16861 0.511663 4.74882 65 35 38
-3.18603 -0.0359915 4.774 88 57 67
-3.1741 0.29268 4.76265 69 38 43
-3.2263 -1.67036 4.85508 132 114 133
-3.21096 -1.63185 4.8635 128 105 131
-2.07085 -1.77972 4.08521 165 181 232
-3.10383 0.461129 4.75771 79 40 45
-3.23148 -2.8081 4.93568 166 182 234
-2.76645 1.19758 4.57589 106 75 90
-2.77014 1.19549 4.6109 104 73 89
-2.82657 0.550202 4.78831 108 58 67
-2.83932 0.536194 4.8278 97 56 66
-2.80311 0.579882 4.79989 89 40 50
-2.80076 0.533812 4.7994 99 57 68
-2.81471 0.191837 4.82953 120 69 86
-2.82444 -0.33375 4.85516 119 92 106
-2.79949 -0.742219 4.87243 117 90 105
-2.8222 -0.534582 4.88646 122 102 122
-2.81102 -0.87786 4.89013 112 87 104
-2.80798 -1.67754 4.93894 174 188 237
-2.82894 -2.05132 4.9679 155 179 221
-2.84761 -2.92515 5.00974 164 180 232
-2.69779 0.0918301 4.82522 124 71 83
-2.73738 -0.140903 4.86159 117 69 85
-2.82122 -2.7244 5.00031 163 180 232
-2.79592 -2.15783 4.96969 165 181 233
-2.73124 -1.35547 4.91462 117 93 109
-2.72066 -1.35103 4.92733 119 91 106
-2.69362 -1.35999 4.91033 121 94 114
-2.54734 -0.341727 4.86595 87 63 71
-2.60167 -2.30563 4.98199 165 182 234
-2.5245 -0.487778 4.87443 115 85 99
-2.55381 -1.98822 4.95604 50 84 128
-2.4749 -0.119037 4.84042 78 51 68
-2.50725 -0.8306 4.9019 125 98 117
-2.53144 -1.37504 4.94301 98 75 87
-2.45676 -0.813586 4.88727 117 89 104
-2.45793 -1.94539 4.95555 46 56 79
-2.39399 -0.502722 4.89035 135 80 93
-2.39199 -0.851931 4.90309 124 102 116
-0.603364 0.84284 3.40006 112 61 70
-2.44686 -2.77789 5.01402 163 179 231
-2.37962 -1.32373 4.9257 137 108 124
-2.30199 0.518329 4.81102 112 60 70
-2.39648 -2.33138 4.98703 166 183 235
-2.38629 -2.10567 4.98355 164 180 229
-2.29928 0.217626 4.83984 119 71 81
-2.35576 -1.62593 4.94682 169 185 235
-2.3622 -1.62782 4.95187 169 185 235
-2.35104 -1.3806 4.93517 134 100 117
-2.36483 -1.81345 4.96104 162 175 227
-2.28363 -0.32949 4.86164 54 24 24
-2.25356 0.532187 4.81334 111 69 82
-2.30062 -1.02032 4.92104 96 70 77
-2.30062 -1.02032 4.92104 96 70 77
5.42886 0.0716613 -1.48792 125 71 87
-2.23931 0.0801533 4.84111 96 46 55
-2.23275 -0.328602 4.86934 45 22 22
-2.23275 -0.328602 4.86934 45 22 22
-2.23275 -0.328602 4.86934 45 22 22
-2.21988 -0.125393 4.85758 141 88 102
-2.25662 -1.16221 4.9217 110 86 96
-2.22361 -0.824922 4.88781 119 95 112
-2.27982 -2.12914 4.98317 163 179 231
-2.27811 -2.29146 4.99068 167 184 236
-2.19732 0.261363 4.8472 99 68 85
-2.17164 0.364389 4.8233 119 68 76
-2.245 -1.47459 4.94521 129 105 128
-2.17107 0.426525 4.82572 103 72 88
-2.16733 -0.511815 4.88712 115 89 102
-2.16733 -0.511815 4.88712 115 89 102
-2.1892 -2.09846 4.99008 165 181 233
-2.1892 -2.09846 4.99008 165 181 233
-2.17376 -2.4788 5.01405 166 181 234
-2.0532 -0.25965 4.85554 82 41 47
-2.06225 -0.131642 4.86053 98 56 61
-2.10381 -0.825076 4.93317 134 109 130
-2.05894 -0.818667 4.89686 132 107 129
-2.06905 -0.844144 4.91369 130 98 120
-2.04557 -0.0411521 4.87284 73 37 41
-2.02324 -0.689658 4.90745 104 82 94
-2.02324 -0.689658 4.90745 104 82 94
-2.04051 -1.56442 4.95937 167 181 232
-0.328895 0.825851 3.40947 76 39 39
-0.334938 0.766677 3.41734 101 59 73
-2.0103 -2.6378 5.02132 161 177 229
-1.98466 -1.97684 4.98883 159 175 225
-1.93105 -0.523723 4.89758 99 66 77
-1.93708 -0.524225 4.90264 99 66 77
-1.94541 -2.4423 5.01128 163 179 231
-1.38527 0.504482 4.41133 49 20 22
-1.91707 -1.96706 4.989 161 175 227
-1.91707 -1.96706 4.989 161 175 227
-1.91752 -1.44311 4.97787 118 96 109
-1.82994 -0.840408 4.92755 105 92 118
-1.82486 -0.699595 4.91929 114 91 107
-1.78538 -0.51707 4.90155 100 77 98
-1.82769 -2.61281 5.02965 160 176 228
-1.7904 -1.58874 4.96539 162 178 229
-1.75933 -0.526533 4.91366 104 79 95
-1.81102 -2.62255 5.0442 158 173 227
-1.78994 -1.82292 5.00372 48 60 84
-1.78994 -1.82292 5.00372 48 60 84
-1.70471 -0.527753 4.90097 95 73 85
-1.70513 -2.21211 5.00451 165 181 233
-1.71341 -2.3686 5.02097 162 178 230
-0.137492 0.769982 3.41882 117 66 75
-0.915355 0.633189 4.16271 64 30 31
0.0176096 1.12228 3.26678 152 109 123
-1.25037 0.366122 4.49612 94 72 59
-1.64518 -0.529664 4.91093 113 83 93
-1.1565 0.432482 4.41553 84 48 53
-1.62441 -1.02658 4.9422 115 93 110
-1.25201 0.303112 4.53581 110 85 64
-1.29321 0.229385 4.59625 43 20 20
-1.61837 -1.80376 4.98879 51 62 83
-1.64073 -2.49397 5.0416 160 176 228
-1.64073 -2.49397 5.0416 160 176 228
-1.62578 -2.10975 5.0131 162 178 230
-1.60279 -1.2335 4.95883 106 90 116
-0.0753064 0.81755 3.41896 116 66 76
-1.09143 0.415458 4.42206 54 28 31
-1.55229 -1.02238 4.9393 116 93 113
-1.57286 -1.96642 4.99926 159 175 224
-1.06202 0.524 4.41605 93 51 53
-1.57777 -2.49688 5.04089 162 176 229
-1.53537 -0.912071 4.94003 127 103 127
-1.53958 -1.44287 4.97222 125 106 125
-1.04044 0.481946 4.41979 77 41 48
-1.04044 0.481946 4.41979 77 41 48
-0.0248702 0.97897 3.40949 146 98 114
-1.00591 0.504599 4.42476 80 44 48
-0.907643 0.635011 4.33893 104 58 61
-1.39494 -2.49181 5.04317 161 178 229
-1.12404 -0.00945165 4.73811 86 54 69
-0.998604 -0.572179 4.7016 137 84 102
0.159467 0.782393 3.43338 130 78 87
0.692882 0.808694 2.89769 79 34 38
-1.12152 -2.33187 5.04664 157 173 225
-1.08018 -2.12731 5.02725 159 175 227
-1.08018 -2.12731 5.02725 159 175 227
-0.911563 -0.320959 4.76147 98 57 68
-1.08169 -2.47302 5.05456 154 172 220
-1.08629 -2.33316 5.05305 158 174 224
-0.702287 0.365653 4.51897 116 96 72
-0.557677 0.629651 4.35847 78 50 61
-1.04979 -2.33009 5.04506 158 174 223
-0.835413 -0.72547 4.76419 101 83 105
-1.01196 -2.31121 5.03984 156 173 223
-0.99131 -2.23253 5.04057 159 175 226
-1.0031 -2.23923 5.05352 159 175 226
-0.990404 -2.23215 5.03973 159 175 226
0.365522 1.00738 3.3734 71 44 49
-0.557724 -1.41816 4.54326 151 168 213
-0.93525 -2.11477 5.03889 158 174 225
-0.93525 -2.11477 5.03889 158 174 225
-0.456415 0.60626 4.37145 132 76 83
-0.910087 -2.33432 5.04879 154 173 223
-0.878609 -2.12957 5.03001 159 175 227
0.440609 1.00617 3.37497 68 39 48
0.435127 0.972977 3.41278 123 67 78
0.435127 0.972977 3.41278 123 67 78
-0.49715 -1.84066 4.64793 155 171 221
-0.783654 -2.24055 5.03951 151 170 220
-0.403186 0.546078 4.44732 129 76 86
-0.421544 -1.07265 4.57556 101 84 103
-0.768999 -2.23403 5.05952 158 174 225
-0.760878 -2.26672 5.05412 152 173 221
0.465959 0.975667 3.43942 114 59 65
-0.473952 -0.380507 4.64369 82 50 62
-0.436708 -0.864791 4.63131 108 95 121
-0.480767 0.198096 4.63238 73 54 55
-9.42117 -1.14737 15.3722 93 46 53
-0.39126 -0.537925 4.57431 103 58 71
-0.449868 -0.950012 4.67431 119 104 127
-0.454539 -0.385344 4.65674 93 60 74
-0.454539 -0.385344 4.65674 93 60 74
-0.339653 -1.52506 4.58347 141 160 202
-0.339479 -1.55085 4.59915 152 169 214
-9.49087 -0.913875 15.6007 94 66 81
-9.43984 -0.321114 15.5595 93 63 81
-0.406388 -0.604357 4.66093 82 54 67
-0.636919 -2.23908 5.06141 156 173 223
-0.621975 -2.27087 5.05604 156 174 224
-0.617739 -2.25349 5.05817 156 173 223
-0.596241 -2.33218 5.06844 152 172 222
-0.584528 -2.32431 5.05507 152 174 224
-0.349693 -0.500349 4.67511 125 73 85
-0.351317 -0.651753 4.68617 77 57 69
-0.565814 -2.24713 5.05179 156 174 223
-0.550649 -2.31568 5.05876 157 173 224
-0.550649 -2.31568 5.05876 157 173 224
-0.18646 0.40311 4.45941 98 63 77
-0.165743 0.0256939 4.46485 129 75 88
-0.292682 -0.73119 4.68801 95 71 86
0.540986 0.843654 3.54551 150 97 117
-0.265568 -0.746183 4.68628 81 63 77
-0.0973431 0.590587 4.39307 139 79 89
-0.182139 -1.27883 4.62427 154 171 217
-0.185429 -1.25873 4.62997 152 169 214
-0.212337 -0.318858 4.60819 133 83 98
-0.454529 -2.24178 5.05351 154 172 220
-0.171805 -0.97994 4.6586 119 106 132
-0.194041 -0.331808 4.65728 135 76 90
-0.0842967 0.0750114 4.50465 140 87 104
0.579452 0.770455 3.60191 137 78 86
-0.00788121 0.61908 4.38569 152 98 114
-0.171283 -0.773545 4.69193 97 85 110
-0.0763952 0.0392785 4.52467 141 87 105
-0.0850162 -0.0131654 4.5439 147 97 109
-0.0591037 0.100594 4.52464 129 71 83
-0.15875 -0.11341 4.67489 110 58 70
-0.0580706 0.0646881 4.53678 133 75 87
-0.288587 -2.23379 4.98889 153 171 219
-0.139625 -0.439361 4.70278 73 49 60
0.608335 0.913915 3.62113 137 90 111
-0.107754 -0.762464 4.69334 103 82 100
-0.0615 0.0474014 4.58181 134 88 109
0.0027365 -1.53188 4.60288 146 165 207
0.0464652 -1.43558 4.53871 40 70 108
0.0124729 -1.06584 4.56622 113 98 121
0.0124729 -1.06584 4.56622 113 98 121
-0.130411 -0.120645 4.69752 135 86 108
0.0721629 0.615553 4.37931 132 87 108
-0.0841612 -0.212072 4.65053 133 88 108
-0.133929 -0.114683 4.71516 133 88 107
-0.126453 -0.125471 4.7098 129 85 102
-0.105075 -0.317204 4.70608 133 86 107
-0.114752 -0.141888 4.71027 78 41 59
-0.0671321 -0.24308 4.68525 124 69 79
-0.0671321 -0.24308 4.68525 124 69 79
0.010884 0.0948156 4.57268 113 80 100
0.0323132 0.0850639 4.58159 128 79 96
-0.165554 -2.12562 5.00563 151 169 219
0.0382581 0.100881 4.57706 141 97 112
0.684796 1.02168 3.62456 94 72 85
0.660645 0.890197 3.6853 134 86 100
-0.000344375 -0.0218856 4.66996 107 78 100
0.179217 -1.42546 4.56696 113 143 181
0.0684211 0.156246 4.63436 131 79 95
0.0767071 -0.0850856 4.67868 138 90 113
0.210631 -1.28863 4.60874 143 160 203
0.234331 -0.926422 4.56697 118 112 137
-0.0327927 -2.13078 5.04855 147 168 213
0.140508 0.0989051 4.6571 116 91 105
0.170812 -0.229132 4.66698 112 65 77
0.239501 -0.959896 4.61946 102 91 123
0.268579 -1.08213 4.59451 116 102 128
0.0129178 -2.11529 5.05462 147 167 213
0.198277 -0.353101 4.67709 104 61 73
0.194387 -0.285087 4.68683 105 65 75
0.0379785 -2.0997 5.06384 149 167 213
0.200972 0.187402 4.65323 77 55 64
0.202624 0.0975917 4.65889 107 67 75
0.220794 0.104241 4.66118 96 84 123
0.352692 -1.45469 4.58196 139 156 199
0.352692 -1.45469 4.58196 139 156 199
0.7685 0.990378 3.77963 119 68 77
0.769147 0.990266 3.77877 119 68 77
0.751423 0.656638 3.83583 125 67 80
0.240876 0.0968596 4.66218 117 124 168
0.346255 0.545643 4.47542 126 73 93
0.360032 0.406614 4.49101 122 69 79
0.137742 -2.12775 5.06498 144 161 206
0.318631 0.269181 4.60895 129 73 84
0.413061 -1.44867 4.61225 137 156 194
0.412119 0.498957 4.47053 120 65 72
0.170431 -2.15681 5.06516 145 163 209
0.169418 -2.11323 5.06781 141 163 205
0.296795 -0.499494 4.76419 73 37 41
0.296795 -0.499494 4.76419 73 37 41
0.193971 -2.13296 5.06853 140 157 201
0.19881 -1.92736 5.05638 141 158 200
0.197565 -1.92828 5.05822 141 158 200
0.19881 -1.92736 5.05638 141 158 200
0.215052 -1.83154 5.0511 145 162 205
0.737709 0.869254 4.02546 106 62 72
0.333938 -0.597008 4.80897 80 45 52
0.335323 -0.555602 4.81698 95 58 71
0.334701 -0.14516 4.79387 76 40 42
0.733633 0.912051 4.06798 98 54 61
0.286222 -2.01811 5.06461 133 151 190
0.355921 -0.166627 4.8004 101 60 68
0.361396 -0.0237222 4.78247 87 49 56
0.574898 0.436792 4.48189 107 75 96
0.435252 -0.2236 4.80031 129 78 93
0.371176 -2.10338 5.07089 135 126 144
0.540753 -1.44721 4.76826 41 53 78
0.412199 -1.64517 5.03788 53 90 57
0.551761 -0.911667 4.73662 120 83 98
0.527579 -0.0576534 4.71417 104 76 99
0.425867 -1.71987 5.04891 36 78 48
0.513592 -0.402786 4.81418 126 79 97
0.516358 -0.263057 4.80391 94 71 92
0.524417 -0.285127 4.80068 95 70 96
0.478149 -1.97374 5.07831 66 90 62
0.572025 -0.361638 4.8193 123 73 92
0.585541 -0.122449 4.7872 129 84 105
0.585519 -0.122308 4.78723 129 84 105
0.605593 -0.0559844 4.78281 129 79 99
0.607902 -0.0834876 4.78807 91 51 65
0.61161 -0.24642 4.81922 107 74 100
0.626755 -0.244985 4.79561 107 75 100
0.791819 1.02749 4.41956 135 87 111
0.653621 -0.224837 4.80371 134 87 109
0.794939 0.36916 4.49568 149 101 123
0.825467 0.406598 4.48884 115 82 109
0.644905 -1.36193 5.0347 71 89 75
0.651408 -1.4784 5.04789 69 90 71
0.713608 0.170006 4.78902 112 79 106
0.855143 0.816041 4.45857 135 93 112
0.857787 0.54166 4.48241 144 109 132
0.857787 0.54166 4.48241 144 109 132
0.674391 -1.21014 5.02869 72 83 77
0.69019 -1.45651 5.04638 75 86 84
0.69019 -1.45651 5.04638 75 86 84
0.710106 -1.47066 5.05067 82 94 90
0.905804 0.402243 4.49492 152 105 125
0.736664 -1.4504 5.03105 76 90 90
0.756808 -1.99573 5.08007 77 88 85
0.772735 -1.84152 5.06806 84 95 97
0.780188 -1.49649 5.05008 77 86 88
0.960274 1.02742 4.42871 58 47 56
0.960274 1.02742 4.42871 58 47 56
0.809422 -1.825 5.05755 68 82 83
0.819585 -1.21635 5.03252 66 73 89
0.996669 0.743594 4.47046 138 99 118
0.94392 0.29115 4.62982 146 99 117
1.00539 0.562457 4.47849 138 102 117
0.874945 -1.86689 5.0746 75 81 95
0.898299 -1.03364 5.02163 72 77 97
0.898299 -1.03364 5.02163 72 77 97
0.921159 -1.39685 5.04992 74 80 99
0.918234 -1.1964 5.03508 80 86 112
1.049 -0.0857434 4.70634 126 80 100
1.15113 0.696811 4.47318 81 82 100
1.17276 0.401675 4.50306 89 85 108
1.04678 -0.696364 5.01881 83 88 108
1.065 -0.535092 5.0083 83 88 110
1.11771 -1.84342 5.08419 79 88 104
1.15744 -1.84478 5.08413 69 79 102
1.15606 -0.696621 5.01591 76 86 105
1.18792 -1.71541 5.08549 78 91 108
1.19786 0.505472 4.82209 87 96 111
1.20702 -0.875273 5.02711 81 93 109
1.23667 -1.84586 5.08904 73 89 103
1.22347 -1.27117 5.04689 81 92 114
1.2155 -1.27727 5.06722 81 92 114
1.22442 -1.27072 5.04526 81 92 114
1.17731 0.312129 4.9598 85 90 112
1.195 0.0259503 4.97619 85 92 108
1.21455 -0.174431 4.99337 0 0 0
1.21455 -0.174431 4.99337 0 0 0
1.27746 -1.85097 5.08868 0 0 0
1.29056 -1.85561 5.09324 0 0 0
1.2655 -0.89008 5.03194 0 0 0
1.28486 -1.39279 5.05994 0 0 0
1.2525 0.369375 4.95015 0 0 0
1.29424 -1.07826 5.06295 0 0 0
1.2756 -0.133606 4.98166 0 0 0
1.31204 -1.21453 5.0506 0 0 0
1.30838 -1.10949 5.05597 0 0 0
1.30274 -0.534456 5.01799 0 0 0
1.26307 0.953114 4.94171 0 0 0
1.30622 0.362671 4.95344 0 0 0
1.28512 0.914347 4.92788 0 0 0
1.31501 1.09393 4.83276 0 0 0
1.38014 -1.65455 5.07892 0 0 0
1.33351 -0.358911 5.01321 0 0 0
1.35081 -0.713675 5.04362 0 0 0
1.34076 0.317849 4.95349 0 0 0
1.33563 0.514362 4.94667 0 0 0
1.35066 0.288558 4.96856 0 0 0
1.36102 0.365423 4.96043 0 0 0
1.4099 -1.09898 5.05174 0 0 0
1.34564 0.912492 4.92691 0 0 0
1.39177 -0.365842 5.00477 0 0 0
1.4439 -1.70131 5.0845 0 0 0
1.36668 0.608901 4.94672 0 0 0
1.43549 -1.09839 5.04552 0 0 0
1.39664 0.160522 4.97606 0 0 0
1.47395 -1.66671 5.08772 0 0 0
1.45973 -1.22192 5.06165 0 0 0
1.42677 0.307661 4.95991 0 0 0
1.50729 -1.5336 5.07027 0 0 0
1.46511 -0.313685 5.00197 0 0 0
1.51964 -1.67232 5.08752 0 0 0
1.45459 0.855066 4.92248 0 0 0
1.51694 -0.579791 5.01988 0 0 0
1.47955 0.461531 4.96708 0 0 0
1.46378 0.976506 4.93029 0 0 0
1.47206 0.753051 4.94552 0 0 0
1.49144 0.298196 4.98246 0 0 0
1.55421 -0.877874 5.04286 0 0 0
1.55421 -0.877874 5.04286 0 0 0
1.5398 -0.366234 5.01286 0 0 0
1.50458 0.627689 4.95481 0 0 0
1.57754 -1.20239 5.05654 0 0 0
1.59067 -1.47727 5.07162 0 0 0
1.61277 -1.52782 5.07209 0 0 0
1.56 -0.179674 4.99861 0 0 0
1.51955 0.943099 4.94197 0 0 0
1.61807 -1.28442 5.06781 0 0 0
1.55816 0.448779 4.9597 0 0 0
1.61782 -1.08819 5.06001 0 0 0
1.57247 0.144692 4.98347 0 0 0
1.65738 -1.28273 5.06743 0 0 0
1.66603 -1.25472 5.05682 0 0 0
1.67478 -1.31376 5.06083 0 0 0
1.60353 0.898993 4.93525 0 0 0
1.63966 -0.00476283 4.98674 0 0 0
1.6612 -0.523001 5.02568 0 0 0
1.69046 -1.07861 5.04542 0 0 0
1.67645 -0.706395 5.02456 0 0 0
1.70016 -1.27719 5.06199 0 0 0
1.71295 -1.47999 5.07756 0 0 0
1.71996 -1.45903 5.07034 0 0 0
1.72537 -1.46812 5.07416 0 0 0
1.68415 -0.362114 5.01518 0 0 0
1.69452 -0.5214 5.02343 0 0 0
1.68515 0.0159436 4.99089 0 0 0
1.67564 0.334405 4.96599 0 0 0
1.75782 -1.35963 5.07009 0 0 0
1.75645 -1.27959 5.06255 0 0 0
1.68737 0.358361 4.99017 0 0 0
1.78628 -1.70696 5.084 0 0 0
1.7762 -1.28641 5.07623 0 0 0
1.78155 -1.2806 5.07667 0 0 0
1.70683 0.760713 4.94574 0 0 0
1.72119 0.479713 4.96936 0 0 0
1.80558 -1.47743 5.08446 0 0 0
1.80558 -1.47743 5.08446 0 0 0
1.78506 -0.703162 5.03896 0 0 0
1.80702 -1.08008 5.04787 0 0 0
1.7857 0.51587 4.9583 0 0 0
1.84572 -0.887642 5.04664 0 0 0
1.77438 0.977568 4.93558 0 0 0
1.81107 0.263046 4.97003 0 0 0
1.86733 -1.07594 5.05584 0 0 0
1.78505 0.941166 4.92891 0 0 0
1.87922 -1.27728 5.07184 0 0 0
1.8887 -0.89706 5.04398 0 0 0
1.83323 1.09901 4.83933 0 0 0
1.88994 0.302101 4.98493 0 0 0
1.88994 0.302101 4.98493 0 0 0
1.94568 -0.365437 5.02332 0 0 0
1.98818 -0.928591 5.05068 0 0 0
2.01228 -1.46486 5.08263 0 0 0
2.02235 -1.68209 5.09831 0 0 0
1.93422 0.29901 4.98014 0 0 0
2.01907 -1.52185 5.08121 0 0 0
2.02758 -1.46749 5.08931 0 0 0
1.93709 0.613192 4.95999 0 0 0
1.9844 -0.36219 5.02063 0 0 0
2.03972 -1.47101 5.09117 0 0 0
2.04132 -1.42663 5.08144 0 0 0
1.97872 0.142794 4.98857 0 0 0
2.04016 -1.08418 5.05372 0 0 0
2.00037 -0.188644 5.00477 0 0 0
2.0187 -0.559638 5.03092 0 0 0
2.00891 -0.331958 5.02102 0 0 0
2.0405 -0.932587 5.05052 0 0 0
2.01632 -0.184699 5.00784 0 0 0
2.0198 -0.213862 5.00956 0 0 0
2.10343 -1.67685 5.09827 0 0 0
2.04674 -0.365215 5.02566 0 0 0
2.01679 0.349829 4.9745 0 0 0
2.03207 0.0701411 4.9947 0 0 0
2.10388 -1.28663 5.07277 0 0 0
2.03593 0.141696 4.99822 0 0 0
2.04855 0.0208892 5.00071 0 0 0
2.05006 0.0817378 4.99497 0 0 0
2.05006 0.0817378 4.99497 0 0 0
2.05288 0.118435 4.98003 0 0 0
2.03036 0.592606 4.95965 0 0 0
2.01618 0.920087 4.93693 0 0 0
2.0349 0.75132 4.95552 0 0 0
2.07441 -0.00425684 4.99586 0 0 0
2.09127 0.959078 4.94684 0 0 0
2.09127 0.959078 4.94684 0 0 0
2.18428 -0.574128 5.02808 0 0 0
2.10927 0.974713 4.93974 0 0 0
2.16278 -0.0246522 4.99668 0 0 0
2.23118 -0.178418 5.01082 0 0 0
2.27341 -0.42689 5.02537 0 0 0
2.23627 1.11428 4.83069 0 0 0
2.23993 0.748339 4.94833 0 0 0
2.28323 -0.0272094 4.99975 0 0 0
2.25768 0.596157 4.96483 0 0 0
2.29755 0.142498 4.99356 0 0 0
2.29755 0.142498 4.99356 0 0 0
2.29998 0.623475 4.95922 0 0 0
2.30042 0.770671 4.95267 0 0 0
2.29507 1.20464 4.85178 0 0 0
2.32379 1.15268 4.8405 0 0 0
2.32379 1.15268 4.8405 0 0 0
2.32067 1.22988 4.83539 0 0 0
2.41851 -1.3898 5.53925 0 0 0
2.36649 1.21351 4.84424 0 0 0
2.37353 1.10052 4.84615 0 0 0
2.53618 0.21296 5.51863 0 0 0
2.58085 0.208839 5.53724 0 0 0
2.58085 0.208839 5.53724 0 0 0
2.59077 0.220351 5.54495 0 0 0
2.57302 0.2628 7.53806 0 0 0
-4.11215 -2.53712 4.16277 116 128 174
-4.11215 -2.53712 4.16277 116 128 174
-4.11157 -2.55312 4.18975 116 125 165
-3.13671 1.05786 3.85684 114 101 127
-3.96507 -2.4342 4.19489 167 184 236
-3.6897 1.14911 4.13343 110 93 118
-3.57854 1.13735 4.08976 108 89 114
-3.35717 -2.16572 4.06716 169 185 237
-3.91473 -2.43375 4.66654 165 182 234
-3.91235 -2.36312 4.71769 165 181 232
-3.25158 0.110321 4.72937 99 57 66
-3.20167 0.312773 4.76328 53 33 42
-3.24698 -0.764146 4.84798 126 101 118
-3.20988 -0.785244 4.82692 123 98 119
-3.19809 -0.770095 4.83811 122 93 112
-3.20978 -1.46266 4.87453 108 88 108
-0.684501 0.622773 3.39239 68 40 45
3.17566e+07 1.10012e+07 -1.81963e+07 163 179 231
-0.676416 0.635356 3.40877 82 55 62
-3.23435 -2.80171 4.95312 163 179 231
-3.2433 -3.42006 4.9989 161 177 229
-0.593658 0.882609 3.40908 103 71 82
-2.81337 0.655775 4.79863 112 64 76
-2.80667 0.0289741 4.83059 124 77 93
-2.81837 -0.447276 4.87391 58 32 35
-2.81378 -0.820441 4.88702 129 98 113
-2.81415 -1.17192 4.90939 107 91 104
-2.8341 -1.94551 4.95673 137 152 195
-2.7875 -1.36619 4.93125 115 96 117
-2.80146 -1.87492 4.95181 165 179 228
-2.81172 -1.8354 4.9871 165 181 232
-2.52517 0.526924 4.81325 42 20 22
-2.83493 -3.02187 5.02965 161 177 229
-2.84675 -2.88557 5.03847 162 178 230
-2.82345 -3.12245 5.04099 161 177 229
-2.58396 -1.97597 4.96863 51 65 92
-2.48413 -1.6314 4.95431 111 94 126
-0.0180783 1.11478 3.28458 86 64 76
-2.37911 -2.3263 5.00395 165 181 233
-2.2807 -1.36727 4.93266 133 106 125
-2.1577 -0.495109 4.88782 77 36 42
-2.30353 -2.32048 5.00095 164 180 232
-2.10237 -0.515384 4.90075 59 27 28
-2.12513 -2.33485 5.01332 161 179 231
-2.09901 -2.92807 5.05876 158 174 225
-1.16311 0.555496 4.41967 109 61 73
-1.13243 0.394318 4.42717 111 58 68
-1.90592 -2.92817 5.06992 158 174 225
-0.94366 0.664969 4.32843 86 48 61
-1.042 0.415082 4.42561 127 71 82
-1.73654 -1.81587 4.9905 54 56 88
-1.73654 -1.81587 4.9905 54 56 88
0.333525 1.00757 3.37113 123 91 105
-0.975881 0.439474 4.4273 95 52 62
-1.49114 -2.62867 5.05381 160 173 225
-1.49114 -2.62867 5.05381 160 173 225
-1.48443 -2.7825 5.06351 154 172 220
-0.762734 0.413828 4.44478 107 58 64
-1.04347 0.158941 4.74359 78 41 48
-1.35402 -2.49011 5.05164 154 171 221
-0.667568 0.411801 4.44052 120 68 78
-1.30395 -2.06822 5.02171 160 176 227
0.552316 1.01356 3.47958 115 64 73
103.231 -0.943029 -86.3325 125 100 83
-0.402692 0.611434 4.37482 129 81 93
-0.501635 -0.265434 4.66606 92 55 72
0.604398 0.914792 3.62478 105 58 66
-4.46152 -0.62234 8.35671 101 65 82
0.628944 0.98403 3.62041 95 52 59
-0.258208 0.499224 4.45763 121 65 74
-0.334741 -0.679978 4.69543 60 30 32
-0.128906 0.00604739 4.48639 123 111 101
-0.640801 -2.33645 5.06931 151 167 219
-0.206678 -0.303354 4.60427 81 36 41
-0.102663 0.0339861 4.50205 217 214 197
-0.181439 -0.255376 4.6033 108 58 67
-0.586238 -2.49165 5.07877 151 169 219
-0.0732597 -1.62737 4.58971 150 168 214
-0.121046 -0.198762 4.61772 121 68 79
0.74789 0.625681 3.74244 104 74 93
-0.139487 -0.795173 4.6947 83 64 84
0.760675 0.989245 3.75921 120 71 84
0.760675 0.989245 3.75921 120 71 84
0.0863492 0.405741 4.46638 116 64 76
-0.0028231 -1.26697 4.62645 153 173 216
-0.0708642 -0.23061 4.67014 123 72 84
0.791314 0.605748 3.78096 105 71 94
0.767614 0.991845 3.80543 122 69 83
0.790392 1.00631 3.82593 123 72 83
-0.190921 -2.31379 4.99817 151 166 212
-0.180856 -2.29256 4.99564 153 170 216
-0.180856 -2.29256 4.99564 153 170 216
0.0901441 -0.20054 4.67224 138 87 104
0.112512 -0.1994 4.67308 115 59 68
0.118381 0.105723 4.65813 105 55 67
-0.12234 -2.25266 4.99439 149 167 215
-0.102624 -2.35596 4.99304 150 168 214
-0.106004 -2.2526 4.99363 151 169 217
-0.101207 -2.32634 4.99327 151 169 215
0.236857 -0.961035 4.62236 144 147 210
-0.0461766 -2.24367 4.99304 145 166 213
-0.0274742 -2.29515 4.99392 148 166 212
0.214754 -0.40059 4.66885 111 58 66
0.219497 0.104363 4.66232 129 72 87
0.243057 0.104254 4.66402 140 102 120
0.366203 -1.47732 4.61086 138 155 198
0.471324 0.41977 4.48332 128 80 99
0.500281 0.428223 4.48501 122 81 92
0.115019 -2.25043 5.08229 149 167 213
0.116347 -2.38132 5.08769 142 163 208
0.138892 -2.30242 5.08801 146 162 211
0.428077 -1.15711 4.72167 106 95 124
0.170491 -2.13565 5.07137 145 165 213
0.436103 -1.20983 4.72912 91 93 125
0.67825 0.570513 4.38881 117 79 100
0.279342 -2.15656 5.07633 145 164 210
0.284359 -1.8417 5.05766 142 159 203
0.781986 1.04336 4.38721 148 103 115
0.593503 -0.0998129 4.78019 121 67 79
0.582944 0.0843287 4.79452 116 63 70
0.582944 0.0843287 4.79452 116 63 70
0.510751 -1.51656 5.02292 21 32 51
0.500263 -2.22278 5.09224 137 155 197
0.577932 -2.12036 5.08139 136 125 149
0.577932 -2.12036 5.08139 136 125 149
0.631648 -2.23387 5.09367 132 124 145
0.668558 -0.699594 5.00101 118 70 91
0.668558 -0.699594 5.00101 118 70 91
0.788662 0.170602 4.79515 135 87 107
0.667661 -2.11798 5.08732 56 68 64
0.715521 -1.36752 5.03929 70 79 96
0.719328 -2.1051 5.0845 73 82 79
1.10771 1.1436 4.39108 110 64 73
0.779715 -2.10997 5.09089 52 79 57
0.779715 -2.10997 5.09089 52 79 57
1.11088 0.39864 4.50179 133 89 109
1.11224 0.536933 4.49423 102 55 64
0.80666 -2.10886 5.09314 70 91 79
1.04777 0.17516 4.68286 134 88 110
0.902802 -1.27345 5.04454 59 54 59
1.24428 1.02305 4.44593 115 63 73
0.994717 -1.197 5.03439 111 65 78
1.07446 -1.38083 5.0509 61 66 86
1.19846 0.505857 4.82106 120 79 93
1.16081 -1.83039 5.08226 69 74 90
1.15032 -0.531643 5.01198 87 56 64
1.17362 -2.04377 5.09401 63 68 88
1.19741 -0.352804 4.9968 123 80 95
1.22504 0.384687 4.94656 112 79 88
1.24111 0.667471 4.92025 71 77 89
1.24111 0.667471 4.92025 71 77 89
1.24184 -0.363219 5.0096 127 84 100
1.24184 -0.363219 5.0096 127 84 100
1.31711 -1.63612 5.07511 78 90 106
1.31711 -1.63612 5.07511 78 90 106
1.33624 -1.12417 5.05187 75 83 109
1.33031 0.762883 4.92913 85 90 101
1.34178 0.363285 4.95742 76 82 102
1.35003 0.620582 4.94606 85 93 103
1.383 -1.85114 5.09276 74 81 107
1.36585 -0.157441 4.98691 89 90 116
1.37747 -1.21621 5.05254 75 82 102
1.38261 -1.09609 5.04282 76 87 107
1.38577 -0.540559 5.01246 88 92 111
1.40373 -1.84682 5.09381 75 87 109
1.40732 -0.263041 4.99277 84 88 102
1.41601 0.748127 4.93629 81 88 101
1.47111 -1.91989 5.09044 79 87 107
1.45109 0.133753 4.97142 83 88 110
1.47365 -1.66693 5.08833 79 92 111
1.47006 -0.286409 5.00175 81 87 105
1.48504 -1.27482 5.0619 73 87 110
1.50189 -1.2787 5.05948 77 87 112
1.48466 0.607564 4.92974 84 86 107
1.51696 -1.84735 5.09549 76 87 108
1.47758 0.764484 4.94439 0 0 0
1.49851 0.0083386 4.98703 0 0 0
1.50696 0.147006 4.97202 0 0 0
1.54418 -1.84615 5.10028 0 0 0
1.53309 -0.896568 5.03813 0 0 0
1.51941 1.01282 4.91594 0 0 0
1.5483 -0.708442 5.03474 0 0 0
1.54262 0.29393 4.98072 0 0 0
1.54262 0.29393 4.98072 0 0 0
1.56217 0.953474 4.92225 0 0 0
1.59686 0.419622 4.94468 0 0 0
1.59268 0.77707 4.93737 0 0 0
1.62863 -1.20057 5.05886 0 0 0
1.63831 -1.28374 5.06748 0 0 0
1.61547 -0.000639553 4.99159 0 0 0
1.64162 0.427368 4.94164 0 0 0
1.67408 -1.31422 5.06188 0 0 0
1.67437 -0.137713 4.99348 0 0 0
1.6782 -0.162147 4.99952 0 0 0
1.6782 -0.162147 4.99952 0 0 0
1.74105 0.265259 4.96846 0 0 0
1.74923 -0.166124 5.00135 0 0 0
1.74664 0.11326 4.98227 0 0 0
1.78253 -1.06604 5.05637 0 0 0
1.75503 0.755875 4.94019 0 0 0
1.75503 0.755875 4.94019 0 0 0
1.8135 -1.67473 5.08991 0 0 0
1.78561 0.940952 4.92769 0 0 0
1.80353 0.142961 4.97916 0 0 0
1.83391 -1.05933 5.05102 0 0 0
1.85621 -1.67497 5.08945 0 0 0
1.80815 0.297746 4.97876 0 0 0
1.82443 -0.373115 5.01968 0 0 0
1.82427 0.0177586 4.99386 0 0 0
1.86573 -0.918235 5.05644 0 0 0
1.87689 0.615373 4.95061 0 0 0
1.90653 0.144859 4.97584 0 0 0
1.94865 -1.48087 5.08335 0 0 0
1.94865 -1.48087 5.08335 0 0 0
1.97099 -1.67872 5.09581 0 0 0
1.97046 -0.922696 5.05078 0 0 0
1.92815 0.974995 4.9489 0 0 0
2.01097 -1.48304 5.08767 0 0 0
1.98471 -0.362294 5.0201 0 0 0
2.00352 -0.544819 5.03169 0 0 0
2.02022 -0.699923 5.03488 0 0 0
2.01654 -0.342227 5.02769 0 0 0
2.05311 -1.09078 5.0557 0 0 0
2.03062 0.304797 4.9748 0 0 0
2.08172 -1.48018 5.08489 0 0 0
2.02106 0.957445 4.94295 0 0 0
2.13703 -1.67395 5.09573 0 0 0
2.13703 -1.67395 5.09573 0 0 0
2.09123 -0.150964 5.00791 0 0 0
2.08553 0.468887 4.96452 0 0 0
2.15373 -1.67191 5.09332 0 0 0
2.1085 0.473531 4.96902 0 0 0
2.20534 -1.67549 5.09985 0 0 0
2.16836 -0.340525 5.01145 0 0 0
2.14284 0.743529 4.95091 0 0 0
2.23016 -1.27443 5.06851 0 0 0
2.17795 0.475436 4.96478 0 0 0
2.24911 -1.67575 5.09397 0 0 0
2.16333 0.942073 4.94275 0 0 0
2.21809 0.136578 4.98721 0 0 0
2.22015 1.16773 4.8395 0 0 0
2.24244 0.943166 4.93105 0 0 0
2.31162 -0.885287 5.05756 0 0 0
2.28289 1.23075 4.81931 0 0 0
2.26602 1.01978 4.90801 0 0 0
2.27862 0.621025 4.96117 0 0 0
2.3008 0.475557 4.96003 0 0 0
2.33991 1.19368 4.83933 0 0 0
2.33991 1.19368 4.83933 0 0 0
2.34536 1.07227 4.84939 0 0 0
2.38671 1.22198 4.83732 0 0 0
2.39026 -1.01658 5.45902 0 0 0
2.36983 0.187425 5.37391 0 0 0
2.73495 -1.79721 6.87684 0 0 0
2.7633 -1.81333 6.89978 0 0 0
-2.41035 -0.428277 4.87081 120 94 103
-2.36954 1.07285 4.77616 127 73 86
-2.39699 -0.600511 4.88034 122 94 109
-2.38809 -0.347393 4.86877 94 72 83
-2.38823 -0.435168 4.87435 127 113 131
-2.37325 0.138008 4.83923 83 63 81
-2.35287 0.323291 4.82854 71 53 67
-2.33525 0.57813 4.81463 89 62 76
-2.3212 0.951519 4.7972 123 68 87
-2.3328 -0.449591 4.87635 111 84 99
-2.31257 0.215394 4.84996 136 112 129
-2.29702 0.401235 4.81935 97 46 56
-2.31439 -0.510178 4.88101 114 85 102
-2.28329 0.38555 4.82671 96 42 47
-2.29515 -0.331232 4.87692 133 113 128
-2.27053 0.348577 4.82511 130 74 85
-2.27053 0.348577 4.82511 130 74 85
-2.28384 -0.19185 4.8686 110 82 94
-2.24327 0.96539 4.8017 52 32 34
-2.23451 0.533507 4.82001 63 33 35
-2.23451 0.533507 4.82001 63 33 35
-2.25702 -0.490655 4.88484 128 97 120
-2.25228 -0.292167 4.87834 125 103 126
-2.24988 -0.507438 4.88685 129 100 121
-2.21306 0.789748 4.80453 78 37 50
-2.24286 -0.460001 4.87839 133 110 128
-2.23911 -0.327146 4.87735 126 101 122
-2.2268 -0.126889 4.86814 94 70 84
-2.23515 -0.493176 4.88418 130 103 121
-2.21562 0.0811472 4.85938 111 84 100
-2.22066 -0.492588 4.88484 104 80 96
-2.22534 -1.01596 4.91507 128 109 130
-2.19301 0.316229 4.83004 106 59 70
-2.21503 -0.700008 4.89278 110 92 114
-2.21503 -0.700008 4.89278 110 92 114
-2.19413 -0.0367915 4.85345 123 87 101
-2.20239 -0.437016 4.88008 127 101 116
-2.21281 -0.269575 5.10553 95 78 94
-2.19718 -0.254234 4.87659 95 78 94
-2.16857 0.452608 4.82222 47 43 51
-2.17465 -0.103696 4.86048 123 87 101
-2.15099 0.787054 4.81146 139 89 106
-2.15544 0.433872 4.83354 66 49 58
-2.17988 -0.821999 4.90508 91 76 103
-2.14777 0.50041 4.82891 121 68 84
-2.14002 0.494778 4.82715 121 70 85
-2.12948 0.498659 4.82992 77 48 64
-2.11084 0.322603 4.60274 62 29 30
-2.1231 0.339625 4.847 62 29 30
-2.12667 0.0795614 4.86449 115 89 105
-2.1357 -0.393043 4.88174 119 96 105
-2.10262 0.953165 4.80874 130 77 90
-2.074 1.06634 4.79209 90 43 50
-2.1145 -1.0358 4.92077 114 96 119
-2.08666 0.0998995 4.8564 120 96 110
-2.07004 0.755458 4.81391 68 33 39
-2.0551 0.633786 4.8195 93 48 55
-2.0669 0.0905803 4.86232 96 82 98
-2.07859 -0.535832 4.89431 114 84 104
-2.08402 -0.269106 5.2199 118 97 114
-2.06344 0.0787097 4.8663 87 63 84
-2.07016 -0.247806 4.87893 118 97 114
-2.04866 0.644343 4.82494 91 46 53
-2.06588 -0.130935 4.87196 115 99 122
-2.0558 -0.0931995 4.86884 104 91 116
-2.0558 -0.0931995 4.86884 104 91 116
-2.07478 -1.03633 4.92488 101 83 109
-2.07343 -1.06301 4.92242 115 102 128
-2.067 -0.818196 4.91044 125 102 122
-2.06242 -0.701067 4.90243 118 97 121
-2.02383 0.34266 4.85034 53 31 36
-2.04732 -0.757815 4.90776 118 94 115
-2.02685 0.0787048 4.86087 113 82 98
-2.02685 0.0787048 4.86087 113 82 98
-2.01123 0.215568 4.85561 86 62 78
-2.00667 0.376825 4.83605 90 45 48
-2.00754 0.243866 4.84675 99 71 78
-1.98231 1.15764 4.71171 106 73 94
-1.98231 1.15764 4.71171 106 73 94
-2.00177 0.317859 4.84708 70 44 45
-2.00029 0.343677 4.84725 66 37 41
-2.00028 0.343712 4.84736 66 37 41
-2.02202 -0.689253 4.90475 60 46 59
-2.02202 -0.689253 4.90475 60 46 59
-2.00709 -0.0491487 4.8653 131 102 124
-1.99697 0.405538 4.84832 103 54 62
-2.00248 0.0785186 4.8617 116 83 100
-1.98794 0.32446 4.85495 70 43 47
-1.98794 0.32446 4.85495 70 43 47
-1.98318 0.199881 4.85355 98 74 87
-1.98592 0.0731013 4.86042 117 86 101
-1.98666 -0.0393323 4.86758 130 102 121
-1.98308 0.0126089 4.86545 108 76 90
-1.97093 0.279987 4.85073 83 54 60
-1.97059 0.0810792 4.86549 113 80 91
-1.99231 -1.0146 4.92182 119 96 120
-1.97202 -0.128991 4.87634 120 93 109
-1.97912 -0.842794 4.91845 119 96 122
-1.97912 -0.842794 4.91845 119 96 122
-1.95487 0.00229683 4.85981 123 91 106
-1.94715 0.205534 4.85611 106 79 99
-1.93488 0.581211 4.834 119 62 69
-1.94863 -0.09488 4.8692 129 105 125
-1.9662 -0.942477 4.91523 118 94 121
-1.96632 -0.942582 4.91477 118 94 121
-1.93824 -0.309898 4.87999 131 100 115
-1.94968 -0.896027 4.91456 123 98 120
-1.92255 0.00884669 4.86491 108 94 112
-1.93335 -0.536403 4.89678 127 97 113
-1.90398 0.613097 4.83221 103 73 91
-1.92285 -0.707249 4.90687 136 111 141
-1.88644 0.610877 4.83491 107 62 75
-1.90295 -0.828983 4.92487 119 94 124
-1.89222 -0.317325 4.88238 133 101 117
-1.87387 0.416987 4.84722 66 27 30
-1.89393 -0.683458 4.9069 130 107 133
-1.85436 0.328053 4.85382 63 28 32
-1.83742 0.775137 4.83814 125 69 82
-1.8545 -0.146975 4.89426 127 98 112
-1.85476 -0.265534 4.8928 87 69 84
-1.85472 -0.265546 4.89314 87 69 84
-1.86133 -0.725681 4.91916 72 56 76
-1.86019 -0.922938 4.92052 129 115 140
-1.86034 -0.922551 4.91926 129 115 140
-1.82023 0.514209 4.83852 109 68 87
-1.80605 0.867337 4.81413 119 68 85
-1.82582 0.175369 4.37192 118 71 87
-1.81527 0.193528 4.86689 115 71 86
-1.82409 -0.713671 4.91776 131 109 127
-1.78108 1.11796 4.74681 78 39 44
-1.79113 0.308467 4.85119 94 52 59
-1.80785 -1.03401 4.9363 108 89 111
-1.77692 0.422822 4.84803 118 65 76
-1.79213 -0.51704 4.90326 121 100 119
-1.78606 -0.291238 4.88684 126 102 115
-1.78583 -0.291705 4.88873 126 102 115
-1.76688 0.304226 4.85266 89 56 72
-1.75683 0.511021 4.8538 128 74 87
-1.7808 -0.687935 4.91809 138 115 131
-1.77382 -1.14094 4.93731 127 114 137
-1.76259 -0.70014 4.91817 130 106 120
-1.75204 -0.850459 4.92736 76 75 103
-1.73747 -0.327101 4.89711 136 108 122
-1.71751 0.492258 4.84545 123 70 83
-1.73944 -1.03937 4.93936 120 100 118
-1.70852 0.397042 4.84749 117 66 75
-1.73747 -1.22484 4.94701 129 115 133
-1.73273 -1.07903 4.93819 104 87 113
-1.69694 0.649743 4.84112 71 30 34
-1.7182 -0.44172 4.89657 110 84 95
-1.7249 -1.15988 4.94701 114 97 127
-1.68589 -0.260043 4.88772 139 104 120
-1.67893 0.00836702 4.86612 128 73 78
-1.69094 -1.06383 4.94372 121 106 134
-1.67057 -1.17811 5.06769 113 94 116
-1.67636 -1.145 4.94545 117 98 121
-1.63114 0.531998 4.85217 118 65 75
-1.62935 -0.886522 4.93391 111 88 102
-1.61684 -0.361695 4.90235 111 84 96
-1.62639 -1.02523 4.94669 91 73 93
-1.60487 -0.228428 4.89112 72 65 74
-1.6069 -1.23544 4.96459 114 95 117
-1.5924 -0.847004 4.92867 109 99 129
-1.58674 -0.690328 4.92206 116 91 110
-1.57741 -0.368351 4.90036 80 63 77
-1.5622 0.191012 4.87752 138 81 96
-1.5585 -0.346409 4.90609 69 54 77
-1.56404 -1.03203 4.9465 115 93 116
-1.55643 -1.14272 4.95937 112 95 114
-1.53578 -0.356321 4.90122 117 93 112
-1.53139 -0.376286 4.90368 119 92 107
-1.53139 -0.376286 4.90368 119 92 107
-1.52209 -0.353934 4.90214 122 100 116
-1.51689 -0.362103 4.90064 118 101 116
-1.52234 -0.693574 4.92144 109 88 105
-1.5131 -1.00637 4.94306 109 91 110
-1.51468 1.03087 4.35474 198 190 171
-1.49058 -0.404692 4.91024 108 84 98
-1.48854 -0.420355 4.91207 103 81 92
-1.49374 -1.24747 4.95842 95 85 109
-1.46124 -1.02785 4.95488 110 92 113
-1.45967 -0.907818 4.93563 117 98 118
-1.45406 -0.696811 4.93335 118 105 125
-1.44401 -0.527395 4.91719 100 84 113
-1.46393 0.507894 4.40555 124 71 84
-1.43988 -1.02826 4.94773 125 103 120
-1.45367 0.40539 4.41038 132 77 94
-1.44544 0.453416 4.40988 145 91 107
-1.44298 0.525109 4.40413 114 70 83
-1.42003 0.532068 4.40411 120 66 79
-1.3874 -1.22994 4.96702 120 102 124
-1.41099 0.430797 4.41105 76 34 44
-1.3677 0.201632 4.60337 127 67 75
-1.30695 -0.849077 4.94146 119 96 117
-1.2984 -0.543245 4.9206 96 78 80
-1.34446 0.383655 4.41815 66 24 25
-1.27093 -0.885773 5.06826 131 113 131
-1.28825 -0.860805 4.94488 131 113 131
-1.32308 0.538265 4.41106 81 53 68
-1.25091 -0.843733 4.95079 118 107 129
-1.28035 0.699635 4.38061 134 79 85
-1.21166 -0.524351 4.92639 81 59 76
-1.18572 -1.1527 4.96195 114 90 113
-1.18483 -1.23936 4.97109 84 80 108
-1.19101 0.585403 4.3575 102 51 56
-1.18326 0.462671 4.42067 100 66 83
-1.13019 0.175649 4.72354 86 58 73
-1.17657 0.481215 4.41893 94 62 77
-1.10875 -1.16341 4.96439 103 96 120
-1.07761 -1.39875 4.97648 119 101 115
-1.13297 0.5233 4.41687 121 62 70
-1.05486 -1.24037 4.97462 120 97 116
-1.03115 -0.909772 4.85504 87 69 84
-1.02673 -0.00664467 4.74057 120 65 72
-0.95746 -1.42249 4.98626 110 101 124
-0.956942 -1.423 4.98793 110 101 124
-0.953089 -0.0798709 4.74072 102 64 68
-0.923975 0.102902 4.74303 80 54 55
-0.90378 0.12407 4.74211 138 96 113
-0.92197 -0.900689 4.67561 107 91 110
-0.937872 0.434691 4.42999 141 96 113
-0.9382 0.43451 4.42907 141 96 113
-0.829663 -0.544024 4.77362 90 78 88
-1.05651 0.565322 3.69921 141 91 110
-1.04819 0.56239 3.66495 115 62 78
-1.04227 0.565752 3.68768 121 68 83
-0.764059 -0.564994 4.77122 68 53 67
-0.764059 -0.564994 4.77122 68 53 67
-0.808368 0.510283 4.43403 158 111 128
-0.786794 -1.15936 4.67762 113 98 127
-0.779387 -1.13066 4.68215 96 89 120
-0.779387 -1.13066 4.68215 96 89 120
-0.941306 0.99698 3.62738 102 83 118
-0.918276 0.994479 3.60486 119 126 173
-0.661222 0.409472 4.44438 74 38 39
-0.591164 0.221707 4.63059 46 33 31
-0.592013 -0.0421574 4.64118 36 28 26
-0.570764 -0.352487 4.65581 62 50 64
-0.543602 0.105997 4.62847 53 38 33
-0.544828 -0.202356 4.65252 49 27 29
-0.535805 0.197286 4.63151 53 33 34
-0.864231 0.7994 3.58442 88 43 46
-0.531694 -0.260801 4.6646 66 35 38
-0.570027 0.532163 4.43942 79 44 45
-0.510222 0.11602 4.63488 81 47 46
-0.510222 0.11602 4.63488 81 47 46
-0.848183 0.987755 3.54007 93 48 53
-0.479711 0.195871 4.63513 69 39 41
-0.429591 -0.0913259 4.65043 71 39 37
-0.777719 0.850782 3.5007 124 73 85
0.0896494 0.684562 5.83151 62 31 36
-0.428773 0.456876 4.44929 54 33 33
-0.418371 0.439973 4.45127 82 46 50
-0.415328 0.422146 4.45128 72 38 39
-0.75667 0.867031 3.48184 132 77 96
-0.318383 -0.703958 4.69079 94 80 94
-0.398651 0.623308 4.36685 105 59 67
-0.274359 -0.295644 4.65244 66 36 38
-0.265995 -0.323911 4.65815 47 35 39
-0.730565 1.07135 3.36775 138 95 114
-0.237727 -0.76021 4.69194 78 68 79
-0.218404 -0.446003 4.69524 51 45 55
-0.221054 -0.861415 4.6945 83 65 75
-0.240248 -0.307067 4.59329 63 36 42
-0.219522 0.110204 4.55298 100 61 79
-0.6816 0.977492 3.38476 80 57 73
-0.6816 0.977492 3.38476 80 57 73
-0.671882 0.964506 3.38335 98 70 94
-0.683213 1.02022 3.34029 111 79 103
-0.211977 -0.0402411 4.52559 114 79 88
-0.193097 0.103413 4.55185 98 67 75
-0.678607 0.984913 3.34038 104 79 104
-0.222002 0.0116402 4.47477 89 68 70
-0.20234 0.387621 4.45741 93 57 69
-0.157753 0.142041 4.56942 111 77 94
-0.190048 0.531368 4.45426 91 54 59
-0.128484 -0.538579 4.67367 88 76 88
-0.653518 0.954052 3.34349 114 86 112
-0.0498888 -0.990895 4.70782 61 60 65
-0.0489447 0.45483 4.46359 95 58 65
0.0283331 0.197582 4.62809 47 36 39
0.0277909 -0.652513 4.68765 58 64 55
-0.0272979 0.422816 4.4724 61 38 38
1.81713 -0.168303 8.20739 63 68 74
0.0690595 -1.09143 4.59663 69 87 73
0.428561 -0.141802 5.23894 51 62 60
0.0762952 -1.10919 4.59302 72 97 72
0.0817098 -1.07851 4.59069 68 92 68
1.97018 -0.45279 8.26799 56 72 59
0.114941 -0.97438 4.61214 42 66 53
-0.45694 0.53776 3.37392 77 47 52
0.198322 -0.0433679 4.66824 43 46 51
-0.408737 1.12996 3.33356 124 80 95
-0.36282 0.915983 3.40782 119 76 90
0.199724 0.438875 4.4707 56 58 73
-0.311502 1.01102 3.35422 88 90 110
0.451769 -0.0867899 4.78847 83 91 80
0.469693 -0.353697 4.812 66 81 77
0.469693 -0.353697 4.812 66 81 77
0.474187 -0.126532 4.78441 91 101 90
0.474187 -0.126532 4.78441 91 101 90
2.83177 0.155657 8.91175 78 95 89
2.83177 0.155657 8.91175 78 95 89
0.490462 -0.260381 4.80203 84 94 96
-0.220622 1.01709 3.36365 92 99 117
0.445177 0.410699 4.48648 71 81 88
-0.107379 0.763843 3.42332 0 0 0
-0.11635 0.975159 3.39326 0 0 0
0.650022 -0.875123 4.7232 0 0 0
