ply
format ascii 1.0 
element vertex 160
property float32 x 
property float32 y 
property float32 z
property uchar red  
property uchar green
property uchar blue
element face 0
property list uchar int vertex_indices
end_header
-0.602423 1.26104 3.12346 222 229 239
-0.504651 1.57172 3.06849 170 171 166
-0.474853 1.38581 3.06396 209 206 199
-0.421573 2.7003 2.83642 221 220 215
-0.459956 1.01036 3.16635 221 228 236
-0.428257 1.55726 3.10154 201 200 195
-0.428257 1.55726 3.10154 201 200 195
-0.42421 1.11478 3.15513 208 201 193
-0.403935 1.1605 3.16249 216 212 203
-0.383693 1.18794 3.16059 210 205 199
-0.383693 1.18794 3.16059 210 205 199
-0.374041 1.27049 3.14791 207 203 194
-0.373463 1.21673 3.15965 213 208 202
-0.314384 2.75691 2.90025 212 209 200
-0.293635 1.2096 3.20914 216 213 206
-0.283587 1.60521 3.17055 212 212 204
-0.283587 1.60521 3.17055 212 212 204
-0.184486 1.83327 3.20595 141 143 142
-0.181133 1.49714 3.21907 130 129 124
-0.184616 1.23282 3.28902 217 214 207
-0.0984219 3.0038 2.94085 229 232 239
-0.0922761 2.72542 3.02249 193 194 189
-0.0890282 2.94308 2.96033 221 221 219
-0.0874776 2.92832 2.96899 224 223 218
-0.0883471 2.38053 3.12067 178 178 176
-0.0711886 2.0564 3.21025 47 47 45
-0.0633919 1.48207 3.3769 216 216 208
-0.0633919 1.48207 3.3769 216 216 208
0.0561078 3.03909 3.23709 230 231 225
0.0769651 1.73043 3.60427 216 213 206
0.144679 1.36741 3.73987 221 217 206
0.170229 1.40016 3.74139 224 218 206
0.480905 1.48445 3.90604 200 196 185
0.832087 1.58817 4.08849 217 214 207
0.832087 1.58817 4.08849 217 214 207
0.951798 1.57506 4.15055 218 213 207
1.02926 1.60227 4.19225 216 216 208
1.0745 1.66033 4.20375 220 217 210
1.0745 1.66033 4.20375 220 217 210
1.08742 1.57723 4.21732 206 203 194
1.10237 1.70103 4.20956 218 215 208
1.25831 2.55935 4.08697 34 35 30
1.41132 1.72224 4.39254 217 214 205
1.3386 2.58107 4.11782 60 61 55
1.53271 1.05154 4.64634 216 215 210
1.20557 3.87614 3.58909 14 17 10
1.45724 2.15945 4.29151 213 209 198
1.50595 1.60545 4.38016 95 89 75
1.56141 1.81873 4.46916 46 39 23
1.53931 1.59339 4.39607 101 96 76
1.55317 1.91805 4.43363 94 81 72
1.57437 1.76404 4.45474 57 50 34
1.49252 2.53526 4.19581 46 47 42
1.3363 3.75256 3.71568 10 13 6
1.62532 1.8359 4.48906 101 93 82
1.58637 2.19441 4.36811 217 214 207
1.67043 1.65809 4.46809 17 18 10
1.69445 1.47142 4.50365 19 22 15
1.64133 2.2193 4.34897 215 212 205
1.75711 1.44069 4.61651 15 17 12
1.7385 1.55829 4.49766 11 16 9
1.29683 3.98278 3.18431 15 17 12
1.71201 2.79453 3.22943 176 176 166
1.68184 2.96907 3.16944 224 223 218
1.63532 3.24074 3.0781 7 12 5
1.66151 3.09592 3.12616 17 22 15
1.6526 3.15524 3.10422 10 11 5
1.61266 3.37955 3.01952 12 19 11
1.57433 3.6148 2.94268 13 15 10
1.63139 3.34385 3.04731 10 15 9
1.6734 3.38601 3.06051 9 11 6
1.92554 2.68756 3.52084 190 185 181
1.87713 2.79744 3.31736 148 150 137
1.87713 2.79744 3.31736 148 150 137
1.76415 3.6098 3.04875 14 16 11
1.76415 3.6098 3.04875 14 16 11
2.02611 2.73349 3.42173 169 168 163
2.04131 2.86031 3.39335 189 186 179
2.14461 3.06336 3.40136 141 138 129
5.95993 -2.16782 9.1875 102 102 100
2.29721 2.97174 3.51372 158 158 150
2.05644 3.88684 3.13278 19 24 18
2.33915 2.99039 3.52434 176 177 172
2.66914 2.93411 3.83783 163 163 155
2.48111 3.25501 3.56672 47 43 34
2.57992 3.24631 3.61199 174 170 161
2.75153 3.34046 3.68242 174 174 166
2.67266 3.62036 3.56384 45 47 42
2.77204 3.34956 3.68682 177 177 169
2.83871 3.32872 3.73784 154 151 142
2.85466 3.31098 3.73788 162 162 152
8.13999 7.42472 7.38117 148 124 96
10.866 4.36936 9.46253 131 121 109
14.1135 3.2447 12.1653 133 125 114
13.7458 3.46861 11.7527 134 126 115
7.77689 6.73788 6.64846 115 105 96
12.5438 4.0096 10.7169 131 125 111
7.82427 6.73438 6.67409 109 105 96
12.6384 3.90469 10.7038 127 117 105
11.6141 4.55652 9.82854 136 128 117
12.0448 4.4136 10.1754 124 118 106
8.8351 6.40593 7.45354 113 103 91
8.58241 6.58102 7.23726 110 103 93
8.31666 6.77399 7.00484 120 118 106
8.38062 6.7552 7.05463 120 117 108
8.506 5.17199 6.42523 0 0 0
8.41068 5.24573 6.34078 0 0 0
8.44135 5.22207 6.34434 0 0 0
8.41525 5.2537 6.32345 0 0 0
7.62772 5.83294 5.7275 0 0 0
7.22834 6.07591 5.41324 0 0 0
7.67653 5.79413 5.73303 0 0 0
7.60393 5.87075 5.65623 0 0 0
8.80335 5.60921 6.44906 0 0 0
9.8152 5.71573 6.98162 0 0 0
9.61737 5.92533 6.83324 0 0 0
10.3953 6.23291 7.19732 0 0 0
19.3972 9.75277 13.1403 0 0 0
33.5584 9.12601 22.5986 0 0 0
23.3914 9.56491 15.6512 0 0 0
23.3809 9.40353 15.4912 0 0 0
17.6662 9.97513 11.6578 0 0 0
22.6191 9.33112 14.8529 0 0 0
19.1212 9.52842 12.5337 0 0 0
18.4077 9.56621 12.0507 0 0 0
19.743 9.48174 12.9226 0 0 0
17.4397 9.66175 11.4064 0 0 0
13.7502 9.57332 8.99162 0 0 0
23.5917 9.29226 15.4058 0 0 0
16.2019 9.89892 10.5775 0 0 0
17.1522 9.74808 11.1803 0 0 0
22.7487 9.56198 14.8143 0 0 0
16.1784 9.72373 10.5276 0 0 0
15.3277 9.5084 9.96561 0 0 0
23.4053 9.26974 15.2154 0 0 0
23.4053 9.26974 15.2154 0 0 0
18.7604 9.71014 12.187 0 0 0
22.2629 9.72201 14.4565 0 0 0
15.0574 9.38249 9.7727 0 0 0
16.2959 9.65533 10.5689 0 0 0
26.4964 8.9638 17.1824 0 0 0
23.2818 9.28788 15.0955 0 0 0
13.7438 9.45108 8.90024 0 0 0
13.7438 9.45108 8.90024 0 0 0
23.9731 9.25242 15.5125 0 0 0
25.5672 9.34064 16.5412 0 0 0
25.5672 9.34064 16.5412 0 0 0
34.6624 10.7692 22.3926 0 0 0
13.557 9.21142 8.70765 0 0 0
33.7044 10.6513 21.6411 0 0 0
24.6328 10.2182 15.7827 0 0 0
20.2467 10.455 12.9449 0 0 0
22.6986 10.7767 14.4478 0 0 0
32.5359 10.612 20.5976 0 0 0
21.1834 10.6571 13.3961 0 0 0
22.281 10.6036 14.0744 0 0 0
19.4878 10.6345 12.2983 0 0 0
15.4394 10.1195 9.58423 0 0 0
17.5198 10.4422 10.7476 0 0 0
26.9035 15.3192 16.175 0 0 0
