ply
format ascii 1.0 
element vertex 135
property float32 x 
property float32 y 
property float32 z
property uchar red  
property uchar green
property uchar blue
element face 0
property list uchar int vertex_indices
end_header
-1.33037 0.59221 2.53707 190 192 189
-1.33182 0.514144 2.54922 225 226 221
-1.31711 0.513662 2.55252 215 214 210
-1.31711 0.513662 2.55252 215 214 210
-1.34681 -0.0329039 2.6147 30 30 28
-1.33348 0.127 2.62038 194 191 184
-1.30424 0.533532 2.56912 213 209 206
-1.33199 0.010236 2.63231 20 20 18
-1.32059 -0.0590078 2.62183 36 41 37
-1.36498 -0.440927 2.77213 216 222 234
-1.31564 0.715051 2.708 216 216 208
-1.28425 -0.255608 2.66087 218 224 236
-1.23333 -0.00901475 2.55865 32 32 30
-1.26019 -0.056259 2.65276 43 43 41
-1.2687 -0.10789 2.67223 137 138 140
-1.2381 0.378566 2.6144 227 228 223
-1.25931 -0.205805 2.69863 217 223 237
-1.25931 -0.205805 2.69863 217 223 237
-1.24142 -0.250412 2.68306 216 222 234
-1.20557 -0.259857 2.70106 218 225 233
-1.18148 -0.109959 2.77496 153 153 151
-1.17058 -0.0299785 2.80423 44 44 42
-1.11812 0.103222 2.80812 143 144 146
-0.93681 -0.168789 2.93947 205 202 195
-0.919525 -0.18428 2.9453 210 207 200
-0.879964 -0.197384 2.96249 209 206 201
-0.829215 -0.419313 3.05481 130 127 122
-0.792507 -0.179635 3.01174 207 208 203
-0.763627 0.210695 2.96509 226 226 224
-0.745504 0.561725 2.92457 35 36 22
-0.748523 -0.032522 3.00818 42 42 40
-0.74843 -0.125721 3.02858 157 159 156
-0.745215 -0.0455856 3.01626 42 43 38
-0.724051 -0.229501 3.02462 208 207 202
-0.0318777 -1.16605 3.6504 29 30 24
-0.0122506 -1.12712 3.65258 91 88 79
-0.00472466 -1.40597 3.57768 88 83 77
0.00889868 -1.46235 3.55516 84 85 77
0.00889868 -1.46235 3.55516 84 85 77
0.0106325 -1.06442 3.67509 62 65 58
0.0400492 -1.20094 3.69846 65 64 59
0.0557266 -1.0872 3.68427 118 117 113
0.0675398 -1.46327 3.59338 104 102 90
0.12118 -1.40438 3.64795 122 118 107
0.165118 -1.45911 3.64184 115 111 102
0.165118 -1.45911 3.64184 115 111 102
0.207905 -1.43609 3.69249 113 109 100
0.23728 -0.962799 3.77105 153 146 136
0.280007 -0.919668 3.76743 151 147 136
0.287957 -0.860106 3.77482 105 98 90
0.287709 -0.898007 3.76938 123 119 108
0.294862 -1.09773 3.82326 141 139 127
0.291765 -1.45681 3.71572 84 83 79
0.308602 -0.939608 3.7744 110 106 95
0.336217 -0.899307 3.78472 115 115 107
0.353453 -1.1034 3.85926 110 110 102
0.354071 -0.933136 3.79062 117 116 111
0.374872 -1.13051 3.87607 107 108 102
0.374872 -1.13051 3.87607 107 108 102
0.414787 -1.4537 3.78393 59 59 57
0.414787 -1.4537 3.78393 59 59 57
0.423268 -0.98842 3.81895 104 105 99
0.470762 -0.936382 3.91151 108 107 102
0.474258 -1.32928 3.91165 118 118 110
0.495731 -1.4506 3.8292 53 52 50
0.495731 -1.4506 3.8292 53 52 50
0.525979 -1.39409 3.87677 114 115 109
0.561535 -1.1398 3.98335 125 126 120
0.567486 -1.18676 3.99317 102 102 94
0.576357 -1.16039 3.99673 127 128 120
0.605288 -0.903172 3.97862 117 116 111
0.623423 -1.42576 3.9273 97 96 91
0.63328 -0.980029 3.98525 109 106 97
0.63824 -1.06461 4.01318 103 104 98
0.660492 -1.15511 4.03919 120 117 110
0.666258 -1.39074 3.96199 95 92 85
0.677923 -1.44398 3.92699 99 96 87
0.737302 -1.2064 4.08753 113 105 94
0.727039 -0.68485 3.99719 122 115 105
0.742489 -1.09022 4.07515 117 110 100
0.742489 -1.09022 4.07515 117 110 100
0.755039 -0.942812 4.07943 121 112 103
0.823457 -0.621275 4.02353 120 116 105
0.845988 -0.917447 4.10359 121 114 104
0.902574 -0.394682 4.03487 0 0 0
0.872712 0.858315 3.83408 0 0 0
0.920604 -0.415468 4.03736 0 0 0
0.951204 -0.957841 4.10666 0 0 0
0.951204 -0.957841 4.10666 0 0 0
0.932825 -0.274689 4.02497 0 0 0
1.00471 0.474149 3.91619 0 0 0
1.02521 -1.45121 3.84743 0 0 0
1.04767 -1.41433 3.86449 0 0 0
1.04025 -1.47183 3.83606 0 0 0
1.06346 0.431205 3.89947 0 0 0
1.08141 -1.07055 3.93244 0 0 0
1.08364 -1.03592 3.9402 0 0 0
1.07065 -1.47223 3.85644 0 0 0
1.19725 -1.46484 3.92045 0 0 0
1.19725 -1.46484 3.92045 0 0 0
1.22892 -1.48753 3.92405 0 0 0
1.24261 -1.46382 3.94791 0 0 0
1.25622 -1.44092 3.97962 0 0 0
1.38577 -1.39952 4.0458 0 0 0
1.89133 -0.101184 5.04225 0 0 0
1.81251 0.270723 4.54365 0 0 0
1.78772 -0.0831046 4.44965 0 0 0
1.78772 -0.0831046 4.44965 0 0 0
1.83048 0.374914 4.53331 0 0 0
1.83048 0.374914 4.53331 0 0 0
1.94178 -0.323499 4.54258 0 0 0
1.97132 -0.239453 4.50035 0 0 0
1.97754 0.0440866 4.48211 0 0 0
1.99012 -0.0486167 4.49712 0 0 0
1.97903 0.21068 4.46571 0 0 0
1.985 0.524635 4.41971 0 0 0
1.99125 0.560142 4.40501 0 0 0
2.0084 0.181187 4.43854 0 0 0
2.02787 -0.138627 4.47712 0 0 0
2.03548 0.104272 4.46963 0 0 0
1.99376 0.771561 4.36903 0 0 0
2.01878 0.601519 4.37586 0 0 0
2.02471 0.732372 4.34814 0 0 0
2.11446 0.00601 4.50737 0 0 0
2.13663 0.0986673 4.50441 0 0 0
2.14966 0.0764258 4.50963 0 0 0
2.16679 -0.131813 4.53991 0 0 0
2.17008 0.424558 4.53026 0 0 0
2.18719 0.241722 4.52308 0 0 0
2.23004 -0.15705 4.56612 0 0 0
2.21988 -0.0595989 4.54337 0 0 0
2.19636 0.512333 4.4726 0 0 0
2.19636 0.512333 4.4726 0 0 0
2.19567 0.604796 4.45662 0 0 0
2.19927 0.631913 4.45016 0 0 0
