ply
format ascii 1.0 
element vertex 561
property float32 x 
property float32 y 
property float32 z
property uchar red  
property uchar green
property uchar blue
element face 0
property list uchar int vertex_indices
end_header
-1.49269 1.00205 2.51777 105 100 94
-1.49858 0.837932 2.54373 197 198 192
-1.50039 0.80318 2.56359 87 88 74
-1.4799 0.890661 2.54476 180 177 170
-1.48489 0.816946 2.55527 110 106 95
-1.46452 0.967572 2.54158 188 179 172
-1.47733 0.772319 2.60216 140 142 139
-1.52918 -0.0827423 2.74053 108 109 104
-1.42628 0.956257 2.56742 129 128 126
-1.52475 -0.226062 2.76954 223 227 239
-1.4196 0.894018 2.58001 114 114 104
-1.40801 1.01389 2.56796 99 98 94
-1.45249 0.735814 2.6577 213 209 206
-1.42428 0.788624 2.61053 200 195 192
-1.40085 1.0071 2.57309 110 111 105
-1.50837 -0.191373 2.79141 108 113 109
-1.50042 -0.111517 2.78283 120 122 121
-1.49157 -0.341996 2.76731 220 226 238
-1.47675 0.211532 2.74238 119 121 107
-1.47675 0.211532 2.74238 119 121 107
-1.39871 0.819509 2.60517 209 210 205
-1.4976 -0.224385 2.78952 218 228 238
-1.48304 -0.0393874 2.76284 17 20 13
-1.42827 0.738152 2.67689 216 216 216
-1.4331 0.646312 2.69666 245 246 241
-1.38693 0.821209 2.61177 50 46 43
-1.38693 0.821209 2.61177 50 46 43
-1.37055 1.01602 2.58652 130 129 125
-1.45846 0.0252652 2.77481 58 60 55
-1.37229 0.881203 2.61169 210 210 208
-1.45285 -0.0138649 2.77101 33 33 31
-1.45007 -0.0516345 2.76777 47 49 44
-1.37643 0.81634 2.63366 30 30 28
-1.44202 -0.0369139 2.76381 32 32 30
-1.44236 -0.0503197 2.77434 43 43 41
-1.4518 -0.224156 2.79307 221 229 240
-1.42307 0.308641 2.75669 107 103 92
-1.43354 0.137311 2.77758 187 190 183
-1.40252 0.580803 2.72455 214 214 206
-1.43648 -0.181104 2.79249 109 113 112
-1.39502 0.733844 2.71394 216 215 211
-1.43531 -0.277623 2.7948 219 225 237
-1.42836 -0.16445 2.79716 112 112 112
-1.34753 0.817021 2.65004 32 39 31
-1.34753 0.817021 2.65004 32 39 31
-1.42028 -0.153515 2.79764 145 147 146
-1.42028 -0.153515 2.79764 145 147 146
-1.41653 0.00316652 2.79591 29 29 27
-1.41653 0.00316652 2.79591 29 29 27
-1.41511 -0.117873 2.79609 132 136 137
-1.41511 -0.117873 2.79609 132 136 137
-1.41592 -0.141928 2.79831 141 143 142
-1.37986 -0.0122633 2.76031 11 12 7
-1.39587 -0.141772 2.81059 144 145 147
-1.35979 0.584156 2.75477 225 229 214
-1.43075 0.0284366 2.89944 17 19 14
-1.38716 -0.15579 2.81669 148 150 149
-1.29519 1.01557 2.63308 152 153 155
-1.30546 0.82678 2.65786 213 214 209
-1.38083 -0.000458884 2.8143 25 25 25
-1.38238 -0.280476 2.82543 219 225 237
-1.37332 0.155521 2.80887 210 210 208
-1.37628 -0.0126671 2.81607 29 29 27
-1.41782 0.0121218 2.90247 25 27 24
-1.3293 0.741709 2.7355 211 206 202
-1.28005 0.977527 2.64953 164 165 167
-1.35776 -0.0628237 2.81731 44 46 43
-1.35974 0.0290591 2.82229 39 41 36
-1.34073 0.388958 2.78994 220 220 218
-1.26625 1.00109 2.65322 178 180 179
-1.35161 -0.0110971 2.83399 34 34 34
-1.34878 0.0124309 2.83219 22 25 18
-1.27398 0.832863 2.67565 113 111 99
-1.27105 0.826973 2.67822 131 131 123
-1.34748 0.0266692 2.84362 24 24 22
-1.34039 -0.0439242 2.83188 44 44 42
-1.33562 -0.0859402 2.83912 105 111 111
-1.33553 0.0967004 2.83897 130 134 133
-1.33667 -0.274943 2.84803 216 224 235
-1.33231 0.316085 2.84274 157 159 158
-1.33472 -0.203764 2.8504 104 106 105
-1.31831 0.313766 2.81681 160 162 161
-1.24982 0.824414 2.69174 213 214 209
-1.32646 -0.256455 2.85788 217 223 235
-1.26854 0.70858 2.78145 217 218 212
-1.2999 0.143014 2.85087 195 195 195
-1.2306 0.830096 2.70091 124 124 122
-1.25395 0.771472 2.7529 204 205 199
-1.25395 0.771472 2.7529 204 205 199
-1.26874 0.68209 2.78552 219 218 214
-1.26899 0.729954 2.78752 162 162 154
-1.27577 0.528392 2.80675 219 220 215
-1.2671 0.64743 2.79113 220 221 216
-1.26721 0.637633 2.79397 224 225 220
-1.28901 0.149065 2.85585 199 199 199
-1.30246 -0.0834319 2.88664 98 106 109
-1.30246 -0.0834319 2.88664 98 106 109
-1.30748 -0.204872 2.90373 163 163 163
-1.21519 0.871687 2.70175 213 208 204
-1.21766 0.823844 2.72534 211 212 206
-1.1882 0.829448 2.72141 210 211 205
-1.25726 -0.0330647 2.97025 48 47 43
-1.22265 0.593567 2.90028 205 204 202
-1.22129 0.592288 2.90097 208 207 205
-1.24575 -0.195063 2.99864 206 207 202
-1.23637 -0.183792 3.00087 204 205 200
-1.13634 -0.186439 3.05707 206 203 196
-1.1258 -0.215241 3.0592 131 123 112
-1.12471 -0.181575 3.0624 209 208 204
-1.19872 -1.53631 3.59156 39 26 33
-1.02703 -0.185739 3.11747 210 207 200
-0.991588 -0.202656 3.1354 211 211 203
-0.976318 0.0648844 3.10587 20 22 17
-0.968432 -0.201121 3.14888 208 209 203
-0.952956 -0.183439 3.1551 200 197 190
-0.952956 -0.183439 3.1551 200 197 190
-0.951416 -0.215026 3.15531 209 208 203
-0.943126 -0.24313 3.14445 205 202 195
-0.943205 -0.170603 3.15886 204 201 196
-0.919902 -0.00645204 3.18109 28 30 27
-0.924975 -1.38546 3.37499 44 46 35
-0.904278 -1.09803 3.32026 44 44 36
-0.904278 -1.09803 3.32026 44 44 36
-0.854562 0.205483 3.15495 218 218 216
-0.82656 0.857251 3.06576 44 40 28
-0.87452 -0.403232 3.24448 208 209 204
-0.849013 0.143168 3.16473 165 165 165
-0.856704 -0.197879 3.21111 209 208 204
-0.827478 0.592341 3.10926 221 222 224
-0.822455 0.765987 3.09348 27 27 19
-0.856859 -0.456802 3.24324 207 204 197
-0.842049 -0.0218152 3.19374 58 60 59
-0.832835 0.16122 3.18055 185 185 185
-0.825545 -0.238617 3.20441 211 210 205
-0.820617 -0.0289061 3.20756 40 42 39
-0.823857 -0.16589 3.22975 199 201 198
-0.816324 -0.245806 3.20846 212 211 206
-0.783645 0.835274 3.09015 30 31 23
-0.812969 -0.0213357 3.22223 34 34 34
-0.810372 -0.0375801 3.2131 40 42 39
-0.812851 -0.179419 3.23686 207 208 203
-0.80945 -0.139572 3.23276 149 151 148
-0.807868 -0.196343 3.23094 211 210 206
-0.797988 0.0190149 3.20643 22 24 19
-0.788457 0.125346 3.2021 147 147 147
-0.793312 -0.177917 3.24352 207 208 203
-0.799563 -0.360802 3.27467 212 213 208
-0.79093 -0.36747 3.26397 214 213 208
-0.774322 0.125019 3.20976 145 145 145
-0.774322 0.125019 3.20976 145 145 145
-0.779174 -0.236783 3.23086 212 211 207
-0.713185 0.991093 2.96097 24 27 18
-0.753022 0.737514 3.1266 18 19 11
-0.77768 -0.319277 3.25523 207 212 208
-0.772641 -0.331605 3.25671 219 218 213
-0.760675 0.137479 3.20865 153 153 153
-0.785623 -1.10116 3.31934 123 124 119
-0.787618 -1.09171 3.33167 91 90 86
-0.76188 -0.276488 3.23403 202 199 194
-0.738064 0.758358 3.13788 13 18 12
-0.779258 -1.20485 3.32208 21 26 22
-0.770879 -1.11694 3.33296 20 20 18
-0.604116 -1.23541 3.16754 1 13 9
-0.59715 0.367646 3.13303 174 176 171
-0.592645 0.365933 3.11376 174 176 171
-0.597825 -1.21763 3.17756 152 140 140
-0.536611 0.48397 2.91917 99 102 93
-0.527815 0.660208 2.89675 11 16 9
-0.517748 1.03854 2.84427 15 18 11
-0.524639 0.747713 2.88609 38 38 26
-0.517582 0.839072 2.87047 37 37 25
-0.515691 0.878343 2.86721 22 26 12
-0.516238 0.810069 2.87979 38 38 26
-0.510256 0.989847 2.85224 13 16 7
-0.508809 1.02131 2.84745 17 20 13
-0.504478 1.01862 2.85159 14 17 10
-0.498237 0.825267 2.88804 31 32 18
-0.507671 0.345633 3.01853 178 177 172
-0.482449 0.455595 2.95296 226 228 225
-0.482449 0.455595 2.95296 226 228 225
-0.466602 0.836377 2.90475 37 38 24
-0.445159 0.940833 2.89787 50 50 38
-0.445159 0.940833 2.89787 50 50 38
-0.44248 0.393521 2.98749 188 190 187
-0.435538 0.482539 2.97541 231 232 227
-0.389364 0.762348 2.96363 19 22 13
-0.389364 0.762348 2.96363 19 22 13
-0.375061 0.54596 3.00119 220 221 216
-0.408389 -1.08159 3.27079 17 17 7
-0.411425 -1.37851 3.34313 21 22 16
-0.394432 -1.09172 3.26388 59 58 53
-0.338417 0.467669 3.03574 227 228 222
-0.328829 0.538368 3.03298 219 220 215
-0.3175 1.04305 2.9526 13 16 9
-0.347986 -1.07173 3.26574 164 160 149
-0.356186 -1.34868 3.35938 52 48 37
-0.322165 0.472253 3.04085 209 208 203
-0.301392 0.54901 3.04425 220 219 214
-0.301392 0.54901 3.04425 220 219 214
-0.305333 -1.41752 3.40917 44 46 35
-0.261486 0.574517 3.0734 192 196 199
-0.260651 0.35283 3.14158 162 159 150
-0.260651 0.35283 3.14158 162 159 150
-0.277663 -1.3616 3.41069 50 46 37
-0.242265 0.877827 3.02638 18 19 13
-0.264056 -1.40831 3.42772 62 55 45
-0.260965 -1.31912 3.41242 41 35 23
-0.230496 0.55515 3.08873 152 153 147
-0.251825 -1.36154 3.42753 70 66 54
-0.171792 0.661156 3.10796 128 129 131
-0.171169 0.572415 3.11952 171 172 167
-0.162234 0.739252 3.09866 109 117 120
-0.163128 0.574842 3.1217 160 161 156
-0.178724 -1.21116 3.4204 25 26 20
-0.149023 0.548737 3.13726 156 157 151
-0.149023 0.548737 3.13726 156 157 151
-0.142873 0.540954 3.13614 42 35 29
-0.149537 -1.46171 3.68643 72 49 41
-0.0840928 -1.5134 3.6735 126 131 135
-0.0840928 -1.5134 3.6735 126 131 135
-0.0168223 -1.50183 3.76966 88 88 80
-0.0169843 -1.26138 3.86002 26 23 14
-0.015477 -1.28404 3.86291 68 66 54
-0.0131973 -1.22252 3.85518 105 103 91
-0.0131973 -1.22252 3.85518 105 103 91
-0.0101334 -1.26751 3.8562 101 101 91
-0.00632523 -1.20451 3.85809 70 67 60
0.000803783 -1.18216 3.85341 63 66 59
0.000959153 -1.2618 3.86931 53 52 47
0.0282043 -1.23719 3.88358 77 74 67
0.0368999 -1.26109 3.89186 73 72 68
0.0404011 -1.28561 3.90072 71 73 62
0.0429616 -1.30258 3.90188 67 66 61
0.0457181 -1.27008 3.89885 62 65 56
0.0456842 -1.25656 3.89673 75 74 69
0.0451323 -1.50474 3.81162 100 96 85
0.05501 -1.32914 3.91035 66 66 56
0.0602137 -1.18107 3.89159 73 69 60
0.0602137 -1.18107 3.89159 73 69 60
0.0669359 -1.29167 3.91608 91 86 80
0.0794032 -1.53591 3.82531 104 100 91
0.142815 -1.53505 3.86087 120 116 107
0.146774 -1.58513 3.82877 118 111 101
0.15464 -1.4991 3.86996 120 111 102
0.169839 -1.15746 3.94962 25 24 20
0.174794 -1.56129 3.87455 114 110 101
0.179689 -1.35353 3.97528 56 55 50
0.182204 -1.32498 3.98129 19 19 11
0.176952 -1.58565 3.84799 118 109 100
0.176952 -1.58565 3.84799 118 109 100
0.218525 -1.02392 3.98371 169 162 152
0.283509 -1.04895 4.00766 161 157 146
0.300472 -1.52324 3.95187 82 81 77
0.309043 -0.933971 3.99356 112 108 99
0.3146 -1.32149 4.06249 139 135 124
0.3146 -1.32149 4.06249 139 135 124
0.308925 -0.994209 3.98412 130 127 118
0.309148 -1.49798 3.95496 79 75 72
0.314341 -1.00083 3.98355 124 120 111
0.325636 -1.55645 3.9501 69 70 65
0.322922 -1.61554 3.90371 76 77 72
0.336721 -1.30149 4.06812 149 142 134
0.336721 -1.30149 4.06812 149 142 134
0.3373 -1.32259 4.07184 129 125 116
0.3373 -1.32259 4.07184 129 125 116
0.33175 -1.02086 3.98915 104 94 84
0.341201 -1.24379 4.06353 134 135 127
0.363977 -1.31264 4.08387 123 114 105
0.356845 -1.49726 3.98433 69 55 52
0.367186 -1.28516 4.08514 141 132 123
0.361952 -0.965462 4.00123 140 141 135
0.361508 -1.6157 3.92661 69 70 65
0.378488 -1.19926 4.07869 94 96 91
0.384422 -1.38289 4.113 99 99 91
0.385057 -1.21596 4.08704 112 113 108
0.386513 -1.25869 4.09275 95 98 91
0.386513 -1.25869 4.09275 95 98 91
0.380419 -1.49986 4.00015 100 87 81
0.390704 -1.4967 4.00591 148 141 131
0.389778 -1.5819 3.96668 70 71 66
0.389778 -1.5819 3.96668 70 71 66
0.418529 -1.49741 4.02104 125 126 118
0.429295 -1.30737 4.11258 112 112 104
0.429249 -1.03073 4.04506 108 111 104
0.430535 -0.97287 4.04377 126 125 120
0.432892 -1.05615 4.03469 113 115 110
0.436033 -1.06499 4.02906 99 101 96
0.439656 -1.49535 4.02869 103 102 97
0.455785 -1.07329 4.04101 122 123 117
0.473322 -1.49676 4.05207 108 107 102
0.505864 -1.01917 4.13563 99 98 93
0.505864 -1.01917 4.13563 99 98 93
0.513563 -1.34946 4.16452 109 111 106
0.501806 -1.55606 4.0581 93 82 76
0.518964 -1.33316 4.17637 107 106 102
0.531198 -1.57787 4.0472 48 53 49
0.549751 -1.01355 4.15144 118 117 112
0.546564 -1.49392 4.09293 108 108 100
0.545564 -1.55426 4.08209 100 100 92
0.564713 -1.51873 4.10257 108 109 104
0.582419 -1.35711 4.22042 128 129 123
0.6024 -1.23707 4.20905 106 107 101
0.608444 -1.29162 4.22164 97 98 92
0.616299 -1.27904 4.22637 114 117 108
0.619268 -1.26551 4.22805 135 135 125
0.630052 -1.21815 4.2278 102 101 97
0.625548 -1.49294 4.14107 85 85 75
0.645035 -1.12613 4.23279 105 106 100
0.64831 -1.21656 4.23275 112 113 107
0.65081 -1.2325 4.24096 105 106 100
0.647518 -1.10214 4.20549 113 114 106
0.65046 -1.1557 4.22423 123 124 118
0.662533 -1.20134 4.24344 137 138 132
0.671454 -1.31681 4.26386 100 101 95
0.685139 -1.1592 4.24825 104 103 98
0.681656 -1.06652 4.21565 104 106 101
0.694748 -1.24535 4.26665 119 120 114
0.696343 -1.57676 4.14352 108 108 100
0.714369 -1.51522 4.19046 101 101 93
0.714369 -1.51522 4.19046 101 101 93
0.726676 -1.49317 4.1977 80 77 68
0.730497 -1.49077 4.2007 93 93 81
0.758036 -1.49163 4.21648 107 97 85
0.768682 -0.688019 4.22791 123 117 105
0.767557 -1.50418 4.21244 111 103 90
0.793383 -1.31979 4.33607 114 107 97
0.792475 -1.29169 4.32677 115 107 96
0.793072 -1.27321 4.3275 124 115 106
0.796498 -1.23043 4.32377 118 110 99
0.787085 -1.48297 4.26172 110 101 92
0.811669 -0.178089 4.3821 131 122 113
0.784751 -1.49085 4.22833 101 97 85
0.811477 -1.31575 4.34325 105 98 88
0.810631 -1.27368 4.33445 97 87 78
0.820454 -0.193642 4.38525 128 120 109
0.811484 -1.02859 4.32086 119 113 101
0.834567 -1.91332 4.43894 86 83 74
0.853999 -1.89228 4.45489 87 87 75
0.832707 -1.00641 4.31163 117 111 99
0.857841 -1.92337 4.4398 94 92 80
0.823952 -1.49357 4.25475 108 102 90
0.839433 -1.1439 4.33246 115 109 97
0.839433 -1.1439 4.33246 115 109 97
0.839433 -1.1439 4.33246 115 109 97
0.882575 -0.990082 4.33783 124 116 105
0.858629 0.962895 4.2153 99 99 91
0.921613 -1.91329 4.49088 78 78 68
0.921613 -1.91329 4.49088 78 78 68
0.867305 0.955294 4.22007 106 106 98
0.863285 -1.61479 4.15822 104 100 88
0.920528 -1.05781 4.37522 111 104 94
0.8984 -0.173836 4.22478 100 96 87
0.939625 -1.27726 4.4011 117 113 101
0.897191 -0.229533 4.20056 85 86 81
0.900065 -1.56123 4.20973 100 98 86
0.903787 -1.49754 4.22707 111 107 96
0.943264 -1.39002 4.36611 0 0 0
0.952721 -0.670404 4.32719 0 0 0
1.00423 -1.91412 4.53029 0 0 0
0.970696 -1.09244 4.33962 0 0 0
0.96608 -1.10333 4.30104 0 0 0
0.972888 -0.607466 4.3135 0 0 0
1.02136 -1.92266 4.52717 0 0 0
0.980575 -1.18439 4.33378 0 0 0
0.969302 -0.429401 4.2769 0 0 0
0.982253 -1.06094 4.32795 0 0 0
1.0417 -1.91488 4.55044 0 0 0
1.0417 -1.91488 4.55044 0 0 0
0.989031 -0.450662 4.26947 0 0 0
0.992951 -0.232774 4.24528 0 0 0
1.00164 -0.299562 4.26295 0 0 0
1.0194 -1.04054 4.33689 0 0 0
0.962372 0.942293 4.08326 0 0 0
1.02985 -1.06184 4.35617 0 0 0
1.07009 -1.91845 4.51415 0 0 0
0.969279 0.93359 4.08692 0 0 0
1.03771 -1.04624 4.35705 0 0 0
1.0026 0.352776 4.20685 0 0 0
1.00401 0.256568 4.20246 0 0 0
1.01349 0.197735 4.22558 0 0 0
1.04727 -1.01205 4.34841 0 0 0
0.968652 1.15522 4.01462 0 0 0
1.04271 -1.29492 4.30916 0 0 0
1.01287 0.419367 4.1832 0 0 0
1.01175 0.623979 4.15796 0 0 0
1.05657 -1.02552 4.32406 0 0 0
1.01445 0.73037 4.14762 0 0 0
1.01052 -1.62227 4.11915 0 0 0
1.01654 -1.6122 4.12704 0 0 0
1.01967 0.853092 4.13621 0 0 0
1.02215 0.833397 4.14091 0 0 0
1.0483 -1.50274 4.19622 0 0 0
1.13738 -0.967741 4.27775 0 0 0
1.11492 -1.51651 4.09638 0 0 0
1.14209 -1.45138 4.16384 0 0 0
1.16291 -1.39309 4.23268 0 0 0
1.12299 -1.53465 4.08379 0 0 0
1.1624 -1.33985 4.22673 0 0 0
1.11437 -1.59476 4.04882 0 0 0
1.1664 -1.40272 4.19801 0 0 0
1.14884 -1.5155 4.11001 0 0 0
1.16266 -1.07815 4.13115 0 0 0
1.13802 1.13552 3.9894 0 0 0
1.20439 0.449558 4.17595 0 0 0
1.21021 -1.02026 4.18982 0 0 0
1.26198 -1.41605 4.29498 0 0 0
1.34273 -1.92636 4.4564 0 0 0
1.20317 0.472731 3.91505 0 0 0
1.20839 0.518139 3.90883 0 0 0
1.2161 0.509078 3.90702 0 0 0
1.30398 -1.56908 4.18907 0 0 0
1.21747 0.52499 3.90676 0 0 0
1.21935 0.904569 3.86396 0 0 0
1.4255 -1.9367 4.49801 0 0 0
1.34862 -1.51128 4.22861 0 0 0
1.22183 1.10995 3.83051 0 0 0
1.23289 0.887918 3.86099 0 0 0
1.2351 1.10633 3.83117 0 0 0
1.24476 0.942717 3.85493 0 0 0
1.46944 -1.9271 4.5415 0 0 0
1.41968 -1.36553 4.36788 0 0 0
1.3923 -1.50621 4.24313 0 0 0
1.42642 -1.51673 4.25884 0 0 0
1.32768 0.611657 3.9608 0 0 0
1.32768 0.611657 3.9608 0 0 0
1.36648 0.431118 4.06264 0 0 0
1.43498 -1.59219 4.23571 0 0 0
1.43498 -1.59219 4.23571 0 0 0
1.45906 -1.56837 4.27623 0 0 0
1.50314 -0.973593 4.38341 0 0 0
1.44967 -1.6382 4.21931 0 0 0
1.49035 -0.924173 4.33398 0 0 0
1.4865 -1.63239 4.23316 0 0 0
1.46245 0.511504 4.04623 0 0 0
1.43043 1.1157 3.93762 0 0 0
1.47274 0.616177 4.04746 0 0 0
1.57373 -0.136202 4.23691 0 0 0
1.60472 0.622814 4.12554 0 0 0
1.90955 0.148326 4.74395 0 0 0
1.69353 0.924235 4.12101 0 0 0
1.69264 1.12839 4.08658 0 0 0
2.09324 -0.039446 4.86811 0 0 0
2.13381 -0.481752 4.95971 0 0 0
2.08325 0.398325 4.83153 0 0 0
2.08325 0.398325 4.83153 0 0 0
2.10117 0.100491 4.86024 0 0 0
2.10117 0.100491 4.86024 0 0 0
2.14213 -0.366383 4.94167 0 0 0
2.14213 -0.366383 4.94167 0 0 0
2.14702 -0.256642 4.90143 0 0 0
2.13571 -0.218182 4.87029 0 0 0
2.13994 0.136533 4.86899 0 0 0
2.14441 0.0599392 4.87909 0 0 0
2.13926 0.230548 4.84989 0 0 0
2.15513 0.104856 4.88124 0 0 0
2.18321 0.00861089 4.89368 0 0 0
2.17688 -0.107961 4.87737 0 0 0
2.17747 0.047511 4.86503 0 0 0
2.19356 -0.0131519 4.85046 0 0 0
2.1995 -0.118315 4.86076 0 0 0
2.18269 -0.181071 4.82064 0 0 0
2.19855 0.0387155 4.82712 0 0 0
2.20763 0.100616 4.84583 0 0 0
2.27373 -0.379774 4.98119 0 0 0
2.19745 0.685455 4.80933 0 0 0
2.2133 0.13944 4.84336 0 0 0
2.19512 0.902093 4.79627 0 0 0
2.23461 -0.090891 4.88268 0 0 0
2.23566 0.0729524 4.88161 0 0 0
2.21092 0.258513 4.82431 0 0 0
2.20007 0.628529 4.79921 0 0 0
2.18466 0.924098 4.76281 0 0 0
2.21885 0.201197 4.83421 0 0 0
2.20148 0.889422 4.79202 0 0 0
2.20565 0.438047 4.79857 0 0 0
2.23836 0.0100896 4.86897 0 0 0
2.2341 0.0347856 4.85532 0 0 0
2.20729 0.498261 4.7966 0 0 0
2.21292 0.370327 4.80647 0 0 0
2.20844 0.523013 4.78624 0 0 0
2.24489 0.115292 4.86207 0 0 0
2.20614 0.792623 4.77789 0 0 0
2.22108 0.356083 4.80975 0 0 0
2.25673 0.143952 4.86219 0 0 0
2.25123 0.049665 4.84961 0 0 0
2.25123 0.049665 4.84961 0 0 0
2.26047 -0.1781 4.86745 0 0 0
2.26887 -0.128279 4.8793 0 0 0
2.26887 -0.128279 4.8793 0 0 0
2.26688 -0.0840064 4.87184 0 0 0
2.16824 1.1885 4.65102 0 0 0
2.2626 0.0647043 4.84773 0 0 0
2.2626 0.0647043 4.84773 0 0 0
2.22733 0.884252 4.76395 0 0 0
2.27243 0.0154239 4.85355 0 0 0
2.28596 -0.0672305 4.88166 0 0 0
2.28596 -0.0672305 4.88166 0 0 0
2.28658 0.144651 4.88111 0 0 0
2.22765 0.849552 4.7448 0 0 0
2.20586 0.918894 4.69738 0 0 0
2.20002 0.929656 4.67492 0 0 0
2.20411 0.96284 4.68315 0 0 0
2.18178 0.940649 4.62294 0 0 0
2.37821 -0.295696 5.03898 0 0 0
2.37821 -0.295696 5.03898 0 0 0
2.19669 0.946298 4.65356 0 0 0
2.23764 0.822822 4.74014 0 0 0
2.28992 0.37433 4.84952 0 0 0
2.31382 0.145914 4.89752 0 0 0
2.19795 1.1774 4.63323 0 0 0
2.25745 0.115772 4.7555 0 0 0
2.33975 0.146999 4.90708 0 0 0
2.19775 1.13957 4.60758 0 0 0
2.23218 0.904592 4.67519 0 0 0
2.40126 -0.266209 5.02823 0 0 0
2.35186 0.119082 4.91004 0 0 0
3.76426 -2.74083 7.83935 0 0 0
2.20806 1.15825 4.59544 0 0 0
2.37301 0.14768 4.93066 0 0 0
2.37791 0.084278 4.92285 0 0 0
2.40451 -0.152932 4.96804 0 0 0
2.38147 0.633014 4.89105 0 0 0
2.42846 -0.110414 4.98332 0 0 0
2.42846 -0.110414 4.98332 0 0 0
2.36446 0.794986 4.83625 0 0 0
2.45174 -0.123351 4.99559 0 0 0
2.46342 -0.207412 5.0164 0 0 0
3.95852 -3.08574 8.00516 0 0 0
2.44365 0.39846 4.94118 0 0 0
4.00244 -2.98633 8.08065 0 0 0
2.47731 -0.153425 4.99394 0 0 0
2.45044 0.536887 4.92228 0 0 0
2.44716 0.579429 4.91551 0 0 0
2.42388 0.795907 4.8626 0 0 0
2.4417 0.832402 4.88761 0 0 0
2.4534 0.716824 4.89596 0 0 0
2.4639 1.19029 4.75339 0 0 0
2.5628 0.987402 4.83562 0 0 0
3.00786 1.01408 5.36725 0 0 0
3.02746 1.01516 5.36338 0 0 0
4.36902 -3.22989 7.66425 0 0 0
3.02406 1.20644 5.30321 0 0 0
3.02406 1.20644 5.30321 0 0 0
4.41183 -3.14045 7.68414 0 0 0
4.43296 -3.21645 7.70671 0 0 0
4.42077 -3.22006 7.65766 0 0 0
4.48981 -2.73668 7.6849 0 0 0
4.47249 -3.22151 7.6413 0 0 0
4.43859 -3.26265 7.52292 0 0 0
4.57781 -3.19147 7.71749 0 0 0
4.51476 -2.56725 7.4188 0 0 0
4.51476 -2.56725 7.4188 0 0 0
4.5338 -2.31862 7.37762 0 0 0
4.51586 -2.11305 7.34079 0 0 0
4.55529 -2.58379 7.39356 0 0 0
4.64601 -2.40774 7.46056 0 0 0
4.63891 -2.5084 7.38378 0 0 0
3.76906 1.10915 5.9253 0 0 0
4.62458 -1.58366 7.2531 0 0 0
4.63622 -1.59329 7.24964 0 0 0
4.63785 -1.59137 7.22938 0 0 0
