ply
format ascii 1.0 
element vertex 129
property float32 x 
property float32 y 
property float32 z
property uchar red  
property uchar green
property uchar blue
element face 0
property list uchar int vertex_indices
end_header
-0.277322 0.724524 1.06072e-05 200 200 190
-0.294041 0.87376 1.15275e-05 105 100 94
-0.206352 0.335119 9.15152e-06 197 198 192
-0.237183 0.541999 1.05523e-05 87 88 74
-1.47331 1.43709 6.80715e-05 180 177 170
-1.47331 1.43709 6.80715e-05 110 106 95
-0.235193 0.561854 1.09733e-05 188 179 172
-1.20951e-05 6.9225e-06 5.65806e-10 140 142 139
-0.0571425 0.0156172 2.6931e-06 108 109 104
-0.199295 0.19707 9.40974e-06 129 128 126
-0.146669 0.045297 7.24892e-06 223 227 239
-0.198273 0.359225 9.82997e-06 114 114 104
-0.142268 0.147899 7.91964e-06 99 98 94
-1.47335 1.43776 8.68684e-05 213 209 206
-0.120449 0.0788403 6.9194e-06 110 111 105
-0.11653 0.0868374 7.55942e-06 108 113 109
-0.0963952 0.0636645 6.32626e-06 120 122 121
-0.0775975 0.0676709 5.81897e-06 220 226 238
-0.0917125 0.0792788 7.23396e-06 119 121 107
-0.0586994 0.0579773 4.89834e-06 119 121 107
-0.0586994 0.0579773 4.89834e-06 218 228 238
0.00792422 -0.00167554 -7.63352e-07 17 20 13
-0.0539054 0.103191 5.3423e-06 216 216 216
-0.0875262 0.242391 8.75136e-06 245 246 241
-0.0454339 0.0889592 4.68164e-06 50 46 43
-7.66518e-09 1.13821e-08 8.12311e-13 50 46 43
-6.42334e-09 7.80301e-09 6.81953e-13 130 129 125
-0.0488006 0.110525 5.21317e-06 58 60 55
-0.0680771 0.191858 7.37482e-06 210 210 208
-1.13834 10.0296 0.000187378 33 33 31
-0.979515 14.1055 0.000301189 47 49 44
-0.887071 16.4778 0.000383582 30 30 28
-3.4072e-05 -0.00931165 -1.81402e-07 32 32 30
-0.906181 2.17537 -0.000133141 30 35 28
-1.29226 6.07759 -0.000176295 43 43 41
-1.23967 2.49961 -0.000168063 107 103 92
-1.26639 6.74201 -0.000169901 187 190 183
-0.00230226 0.00746205 -3.04046e-07 214 214 206
-0.00230226 0.00746205 -3.04046e-07 109 113 112
38.2833 -58.2949 0.00351571 216 215 211
49.8166 -96.7594 0.00416969 219 225 237
42.6913 -75.3445 0.0035577 112 112 112
21.4914 -31.322 0.00172344 32 39 31
21.4914 -31.322 0.00172344 32 39 31
21.4914 -31.322 0.00172344 145 147 146
79.0575 84.5516 0.00589879 145 147 146
26.1639 -42.8186 0.00194613 29 29 27
71.6703 65.8633 0.00532922 29 29 27
0.739217 -0.121506 5.36714e-05 132 136 137
3.86809 -0.066038 0.000275537 132 136 137
0.526195 -0.549657 3.61047e-05 141 143 142
-0.0309579 -0.0615263 -2.10634e-06 48 50 47
0.298504 -0.283964 1.99467e-05 11 12 7
11.2496 -23.1798 0.000688544 9 11 6
9.80983 -18.1946 0.000596633 9 11 6
6.66088 -11.195 0.000404549 144 145 147
9.83354 -20.5758 0.000596804 225 229 214
4.17081 -6.55503 0.000253115 148 150 149
8.59501 -19.3468 0.000521252 152 153 155
8.26202 -16.5436 0.000494721 213 214 209
0.256991 -0.271498 1.53015e-05 25 25 25
0.170799 -0.151013 9.95328e-06 219 225 237
1.48412 -2.36478 8.52672e-05 210 210 208
5.71248e-07 -1.37186e-06 3.21397e-11 29 29 27
-5.22767e-07 -1.1407e-06 -2.87841e-11 25 27 24
3.80494e-06 -7.14316e-06 2.08297e-10 211 206 202
0.277962 -0.391507 1.51863e-05 164 165 167
0.0921125 0.271338 4.98487e-06 44 46 43
2.43805e-07 -5.57982e-07 1.31472e-11 220 220 218
-0.0178533 0.0392801 -9.46051e-07 178 180 179
0.140741 -0.187597 7.42912e-06 34 34 34
-0.643548 1.05911 -3.36966e-05 22 25 18
6.48848e-08 -1.05534e-07 3.33881e-12 113 111 99
5.46645e-08 -9.17824e-08 2.76889e-12 131 131 123
0.0985934 -0.060016 4.97261e-06 44 44 42
0.0996522 -0.0540514 5.01405e-06 130 134 133
6.16044e-08 -1.11453e-07 3.083e-12 216 224 235
5.26354e-08 -9.33791e-08 2.60142e-12 157 159 158
23.0597 25.176 0.00101285 104 106 105
9.44275 7.36201 0.000402327 160 162 161
7.29402 5.79277 0.000302376 213 214 209
23.7823 31.7873 0.000983527 217 223 235
23.7823 31.7873 0.000983527 124 124 122
-8.07782e-08 -7.76847e-08 -3.33288e-12 204 205 199
-8.07782e-08 -7.76847e-08 -3.33288e-12 204 205 199
0.364297 0.142791 1.49951e-05 219 218 214
0.67993 0.351734 2.77307e-05 162 162 154
13.3888 13.2789 0.000544452 219 220 215
-1.24323e-07 -8.51382e-08 -4.98735e-12 220 221 216
0.150461 0.0544125 5.91718e-06 224 225 220
24.8973 40.1784 0.000978293 199 199 199
7.52735 7.25055 0.000295733 98 106 109
29.5692 54.7631 0.00115627 98 106 109
-8.67952e-08 -1.0679e-07 -3.38753e-12 163 163 163
14.8577 17.9687 0.000578349 213 208 204
0.0120126 0.0114592 4.6549e-07 211 212 206
2.50001 2.11156 9.68625e-05 210 211 205
2.50001 2.11156 9.68625e-05 48 47 43
-5.97929e-07 -3.8171e-07 -2.31316e-11 205 204 202
3.78833 3.56105 0.000144504 208 207 205
0.130863 0.0622553 4.94417e-06 206 207 202
16.9171 24.6002 0.00062821 204 205 200
20.0861 32.8904 0.000743172 206 203 196
0.100093 0.0526985 3.68872e-06 131 123 112
-5.09775e-07 -2.95007e-07 -1.86178e-11 209 208 204
18.2471 29.2943 0.000663544 210 207 200
-2.50191e-07 -3.91828e-07 -8.18825e-12 211 211 203
6.96287 10.8387 0.000226404 20 22 17
12.2638 21.6633 0.000395302 208 209 203
10.8437 18.6776 0.000349357 200 197 190
10.8437 18.6776 0.000349357 200 197 190
-0.214903 0.214425 -6.77246e-06 209 208 203
-0.259792 0.237925 -7.88917e-06 205 202 195
7.49533e-08 -4.87548e-08 2.25388e-12 204 201 196
-0.268304 0.247037 -8.05639e-06 28 30 27
7.11534e-08 -5.65834e-08 2.11581e-12 208 209 204
7.09352e-08 -6.11051e-08 2.09244e-12 165 165 165
-8.95374e-07 -1.24275e-06 -2.61136e-11 209 208 204
9.58721e-08 -3.25792e-08 2.77448e-12 221 222 224
-0.172566 0.206143 8.37112e-06 27 27 19
-0.176541 0.232872 8.71159e-06 207 204 197
-0.120746 0.0744328 6.86963e-06 58 60 59
-80.3213 65.9947 0.00642901 13 16 7
-0.662991 1.25392 -3.55454e-05 185 185 185
-0.62827 0.978897 -3.1715e-05 211 210 205
-0.619843 0.934354 -3.06168e-05 40 42 39
-0.51589 -0.377107 -2.17729e-05 199 201 198
-0.507602 -1.00146 -2.01074e-05 212 211 206
-0.493256 -0.599144 -1.9018e-05 34 34 34
