ply
format ascii 1.0 
element vertex 1343
property float32 x 
property float32 y 
property float32 z
property uchar red  
property uchar green
property uchar blue
element face 0
property list uchar int vertex_indices
end_header
2.50543 0.525649 4.9418 0 0 0
2.52203 0.43717 4.95783 0 0 0
2.55408 0.948377 4.84235 0 0 0
2.65316 0.728684 4.91857 0 0 0
3.13838 0.728731 5.4988 0 0 0
3.15813 0.729882 5.49324 0 0 0
3.16191 0.989083 5.4467 0 0 0
4.477 -3.82881 7.71137 0 0 0
3.15885 0.937025 5.43834 0 0 0
3.15885 0.937025 5.43834 0 0 0
4.52846 -3.74322 7.74362 0 0 0
4.54744 -3.82123 7.76161 0 0 0
4.53224 -3.81965 7.70732 0 0 0
4.62871 -3.33795 7.77697 0 0 0
4.58552 -3.81997 7.69008 0 0 0
4.54112 -3.8472 7.55433 0 0 0
4.44857 -3.77259 7.40653 0 0 0
4.69914 -3.79767 7.77508 0 0 0
4.65098 -3.14173 7.49869 0 0 0
4.56765 -3.0888 7.36951 0 0 0
4.684 -2.88804 7.47749 0 0 0
4.67301 -2.67524 7.45216 0 0 0
4.69032 -3.1556 7.46843 0 0 0
4.68707 -2.79039 7.43839 0 0 0
4.68707 -2.79039 7.43839 0 0 0
4.79804 -2.98496 7.55778 0 0 0
4.78177 -3.0795 7.46531 0 0 0
3.96278 0.798951 6.10944 0 0 0
4.81961 -2.13485 7.39056 0 0 0
4.81985 -2.13092 7.36749 0 0 0
-1.53666 0.857599 2.48636 100 93 83
-1.50091 0.826226 2.50567 188 179 172
-1.58498 -0.436751 2.72433 220 226 238
-1.5745 -0.251047 2.72002 88 86 74
-1.45467 0.700379 2.53895 130 130 128
-1.45467 0.700379 2.53895 130 130 128
-1.56232 -0.189249 2.73306 108 112 115
-1.45466 0.637707 2.56328 200 195 192
-1.43657 0.871632 2.53261 118 119 113
-1.43417 0.863549 2.5326 110 111 105
-1.448 0.640633 2.56791 205 204 199
-1.52272 -0.00769834 2.71907 125 122 115
-1.53048 -0.512264 2.73636 220 226 238
-1.52313 -0.455127 2.72834 222 226 238
-1.51791 -0.00108126 2.72054 122 122 112
-1.50094 0.195838 2.70061 212 212 210
-1.47253 0.490401 2.66325 245 246 241
-1.4942 -0.27423 2.72786 118 120 119
-1.46733 0.3955 2.68071 220 216 213
-1.49404 -0.152921 2.734 87 87 85
-1.45929 0.402712 2.68309 216 213 208
-1.45929 0.402712 2.68309 216 213 208
-1.48088 -0.179319 2.74132 24 24 22
-1.44974 0.353411 2.6952 225 216 211
-1.52604 -0.192927 2.86817 30 32 29
-1.46159 -0.0127623 2.74859 157 152 148
-1.46258 -0.338008 2.75161 112 112 112
-1.45344 -0.237052 2.7351 44 45 39
-1.4506 -0.0776139 2.75812 120 124 127
-1.44568 -0.453863 2.75915 218 224 236
-1.34323 0.870812 2.57112 145 143 146
-1.43804 -0.272155 2.75747 122 126 127
-1.5037 -0.651561 2.88425 215 221 233
-1.43406 -0.0766478 2.7653 127 133 133
-1.42361 -0.115122 2.77561 12 17 11
-1.32764 0.67088 2.59546 213 214 209
-1.4187 -0.0780313 2.7737 131 133 132
-1.411 -0.160851 2.77362 25 27 24
-1.36839 0.58632 2.69176 108 105 96
-1.31941 0.660328 2.62142 128 119 112
-1.43072 -0.0905362 2.8714 130 131 135
-1.38682 -0.207255 2.79282 44 46 45
-1.38455 -0.144182 2.78927 33 34 29
-1.36097 0.0781223 2.77103 15 18 11
-1.29252 0.662055 2.63207 178 173 170
-1.36987 -0.0478561 2.79772 176 176 176
-1.35241 0.144751 2.76941 157 159 158
-1.34777 0.144828 2.76374 160 162 161
-1.31418 0.585905 2.72213 210 209 205
-1.33217 0.224262 2.76205 221 221 219
-1.26414 0.721767 2.62232 215 214 209
-1.26489 0.672383 2.62843 223 224 219
-1.35121 0.0144233 2.83221 221 221 219
-1.29079 0.598659 2.71795 214 213 208
-1.2855 -0.383423 2.96503 206 207 202
-1.2599 -0.37419 2.97514 207 208 203
-1.25837 -0.410851 2.97305 205 204 199
-1.23905 -0.070357 2.94105 142 146 147
-1.19717 -0.382444 3.0029 202 198 189
-1.18084 -0.416642 3.00288 197 190 180
-1.18279 -0.380519 3.01564 201 201 193
-1.16323 -0.417341 3.0083 119 119 111
-1.14843 -0.416586 3.01477 155 157 156
-1.12831 -0.37175 3.03636 118 112 100
-1.10988 -0.439481 3.01496 212 211 207
-1.05859 -0.379645 3.06793 210 207 200
-1.02516 -0.437946 3.05429 210 207 200
-1.01985 -0.371973 3.08811 209 209 199
-0.986058 -0.401785 3.01098 207 204 197
-1.01015 -0.411984 3.08471 207 204 197
-0.899876 -0.0247083 3.11169 194 194 194
-0.892463 -0.0188322 3.11449 200 200 198
-0.88181 0.0178138 3.09653 218 218 216
-0.891443 -0.365485 3.15714 152 151 149
-0.863732 -0.0401993 3.10057 178 178 178
-0.870044 -0.0400118 3.12367 178 178 178
-0.85672 0.0385172 3.11841 226 226 224
-0.854255 -0.20628 3.16184 27 29 24
-0.83392 -0.249994 3.16324 40 42 37
-0.837496 -0.597447 3.20142 210 209 205
-0.82057 -0.43683 3.15403 211 210 206
-0.806326 -0.0678042 3.10816 147 147 147
-0.82582 -0.540464 3.18901 213 212 208
-0.813586 -0.437277 3.15811 213 209 206
-0.807404 -0.452176 3.16008 208 207 203
-0.734822 -0.435953 3.16201 212 211 207
-0.290193 -1.65871 3.38866 30 23 15
-0.234564 -1.64439 3.6478 27 27 19
-0.170859 -1.60166 3.75707 26 25 21
-0.169443 -1.59795 3.74779 26 25 21
-0.163 -1.41877 3.73158 63 62 57
-0.158043 -1.703 3.62887 231 223 220
-0.162263 -1.60564 3.75795 20 24 23
-0.141375 -1.74846 3.56862 35 31 30
-0.140975 -1.54128 3.77568 145 140 134
-0.140089 -1.51339 3.76214 66 58 55
-0.139493 -1.56093 3.76463 87 82 78
-0.123128 -1.57552 3.7824 56 59 52
-0.113458 -1.77396 3.58352 109 115 115
-0.113458 -1.77396 3.58352 109 115 115
-0.117548 -1.46215 3.76802 81 78 71
-0.0874239 -1.4935 3.7939 56 63 56
-0.0562791 -1.58299 3.82489 27 29 26
-0.0512187 -1.75408 3.70237 90 91 83
-0.0470591 -1.45811 3.80694 68 68 58
-0.0471398 -1.50087 3.81493 74 74 64
-0.0327193 -1.55791 3.82843 87 82 76
-0.0261971 -1.5838 3.82192 87 84 77
-0.0254012 -1.7604 3.7111 93 90 83
-0.0230261 -1.46546 3.82699 62 65 58
-0.0115356 -1.55201 3.84425 56 56 54
-0.0111967 -1.42289 3.85302 68 69 63
0.0044849 -1.47063 3.84122 58 51 45
0.00514848 -1.50909 3.848 73 70 65
0.00809174 -1.59299 3.862 72 68 57
0.0163275 -1.52236 3.83926 73 72 68
0.0275791 -1.47012 3.8552 71 72 66
0.027738 -1.49115 3.85878 70 73 64
0.0278436 -1.14088 3.77846 203 202 197
0.0316179 -1.57349 3.87332 64 65 57
0.0428236 -1.79407 3.75746 99 97 85
0.0449101 -1.55805 3.87548 91 86 80
0.108082 -1.78611 3.79553 120 113 103
0.108082 -1.78611 3.79553 120 113 103
0.114866 -1.80284 3.79993 122 115 107
0.125836 -1.8405 3.76249 118 111 101
0.133912 -1.76053 3.81306 120 111 102
0.1624 -1.60097 3.95239 19 19 11
0.165451 -1.76541 3.83283 120 116 107
0.190604 -1.76547 3.84928 114 110 99
0.200462 -1.30305 3.97323 169 162 152
0.20308 -1.82358 3.8414 115 111 102
0.234141 -1.32125 3.96863 165 158 148
0.247458 -1.77676 3.87455 103 98 94
0.258438 -1.76641 3.88864 81 82 76
0.272368 -1.50915 4.00739 160 153 143
0.272257 -1.22867 3.96646 145 137 126
0.272257 -1.22867 3.96646 145 137 126
0.27942 -1.51518 4.00861 159 150 141
0.299894 -1.47239 4.01443 154 149 143
0.295175 -1.33896 3.92822 146 141 135
0.308257 -1.54754 4.03018 148 148 140
0.308257 -1.54754 4.03018 148 148 140
0.316025 -1.28781 3.94318 104 94 84
0.337788 -1.76875 3.92953 47 39 36
0.344511 -1.85294 3.90092 75 77 72
0.344511 -1.85294 3.90092 75 77 72
0.355733 -1.18961 3.99098 140 143 136
0.366189 -1.56218 4.03543 126 122 113
0.365623 -1.57405 4.06346 126 122 113
0.360632 -1.24047 3.98981 114 115 107
0.369314 -1.54014 4.03876 103 104 98
0.368027 -1.77866 3.94598 28 30 25
0.377669 -1.42589 4.04053 114 115 109
0.386445 -1.51354 4.07187 119 116 109
0.386445 -1.51354 4.07187 119 116 109
0.403823 -1.20954 4.02324 122 121 116
0.403823 -1.20954 4.02324 122 121 116
0.403093 -1.8535 3.93061 64 65 60
0.403093 -1.8535 3.93061 64 65 60
0.422288 -1.77043 3.97643 120 119 114
0.428544 -1.85261 3.94335 58 60 57
0.428544 -1.85261 3.94335 58 60 57
0.458683 -1.79979 4.00944 148 149 141
0.458683 -1.79979 4.00944 148 149 141
0.483239 -1.62303 4.13807 107 108 102
0.483239 -1.62303 4.13807 107 108 102
0.482899 -1.55549 4.11733 113 115 110
0.502402 -1.7766 4.031 102 103 95
0.505888 -1.79621 4.02552 87 88 80
0.539469 -1.28678 4.10207 118 117 112
0.551678 -1.77011 4.04234 96 97 91
0.560548 -1.85383 4.01577 45 49 48
0.599993 -1.46108 4.19076 102 103 97
0.61988 -1.54432 4.1732 124 121 112
0.621448 -1.56062 4.21317 124 121 112
0.623777 -1.60406 4.21778 113 114 108
0.629402 -1.60507 4.225 121 122 116
0.656916 -1.48175 4.22204 110 107 100
0.662329 -1.62375 4.24243 105 108 101
0.663279 -1.502 4.23189 113 115 110
0.664195 -1.47542 4.23051 132 129 122
0.669295 -1.56301 4.20829 129 130 124
0.761352 -1.24865 4.30529 115 105 95
0.772511 -1.56803 4.30215 119 109 99
0.783173 0.274343 4.3617 133 109 85
0.775195 -1.1815 4.25859 128 122 110
0.782912 -1.55153 4.30013 118 109 100
0.791288 -1.55864 4.31193 119 111 100
0.776517 -1.02508 4.19969 128 122 110
0.792769 -1.4903 4.30422 107 100 90
0.792769 -1.4903 4.30422 107 100 90
0.823923 -1.28157 4.31032 108 99 90
0.905466 -0.532327 4.2199 101 94 86
0.935557 -0.535002 4.25694 0 0 0
0.962236 -0.916095 4.3443 0 0 0
0.942621 -1.89313 4.14134 0 0 0
1.01858 -0.408852 4.31798 0 0 0
1.02691 -1.34921 4.35328 0 0 0
1.02307 -0.230536 4.29081 0 0 0
1.18444 -1.68544 4.20621 0 0 0
1.18654 -1.6596 4.20274 0 0 0
1.21394 -1.6327 4.21951 0 0 0
1.21592 -1.66876 4.22308 0 0 0
1.32458 -1.28382 4.28424 0 0 0
1.33608 -1.89265 4.14386 0 0 0
1.33299 -1.88635 4.13516 0 0 0
1.34866 -1.8632 4.16887 0 0 0
1.46058 -1.79876 4.40126 0 0 0
1.44211 -1.66671 4.34198 0 0 0
1.3871 -1.88426 4.15911 0 0 0
1.3871 -1.88426 4.15911 0 0 0
1.50175 -1.64277 4.36631 0 0 0
1.47479 -1.80833 4.25457 0 0 0
1.46876 -1.81096 4.23848 0 0 0
1.53346 -1.66466 4.38684 0 0 0
1.52119 -1.80886 4.27991 0 0 0
1.61046 -0.396553 4.36315 0 0 0
1.79057 -0.395539 4.73525 0 0 0
1.79254 -0.411246 4.724 0 0 0
1.80985 -0.0904454 4.72032 0 0 0
2.09466 -0.45674 5.43342 0 0 0
1.95467 -0.0899886 4.96801 0 0 0
1.87451 -0.488534 4.748 0 0 0
1.95645 -0.42264 4.81966 0 0 0
2.03719 -0.0207887 4.99035 0 0 0
1.96907 -0.439854 4.80404 0 0 0
2.05469 0.0244673 4.99577 0 0 0
1.99182 -0.394781 4.81105 0 0 0
1.99935 -0.134067 4.812 0 0 0
2.07735 0.133005 4.99038 0 0 0
2.09006 0.292802 4.96627 0 0 0
2.09706 0.632456 4.93354 0 0 0
2.08844 -0.395348 4.88961 0 0 0
2.07943 -0.403994 4.85968 0 0 0
2.0783 -0.297576 4.80408 0 0 0
2.10928 -0.300942 4.86659 0 0 0
2.12288 -0.499728 4.87855 0 0 0
2.12288 -0.499728 4.87855 0 0 0
2.15172 -0.701169 4.9363 0 0 0
2.13653 -0.424451 4.89391 0 0 0
2.14759 -0.349994 4.90403 0 0 0
2.13151 -0.101553 4.85309 0 0 0
2.15004 -0.235207 4.89021 0 0 0
2.14894 0.432992 4.81096 0 0 0
2.18599 -0.0334348 4.88931 0 0 0
2.13922 0.735093 4.75323 0 0 0
2.19446 0.255898 4.85559 0 0 0
2.21651 -0.0340135 4.90393 0 0 0
2.22951 -0.0924922 4.90793 0 0 0
2.22836 -0.0655289 4.87731 0 0 0
2.23873 0.0695134 4.89207 0 0 0
2.24138 -0.373285 4.88693 0 0 0
2.2135 0.63107 4.81907 0 0 0
2.20989 0.699621 4.80456 0 0 0
2.22671 -0.491986 4.84109 0 0 0
2.22553 0.665216 4.82099 0 0 0
2.26385 -0.363565 4.89636 0 0 0
2.26426 -0.374782 4.89707 0 0 0
2.23223 0.676237 4.81834 0 0 0
2.25504 -0.103412 4.86412 0 0 0
2.30245 -0.697955 4.96494 0 0 0
2.26659 -0.468774 4.88467 0 0 0
2.26561 -0.249188 4.87847 0 0 0
2.27254 -0.424289 4.89723 0 0 0
2.2583 0.0692951 4.85564 0 0 0
2.25181 0.638499 4.82539 0 0 0
2.263 0.436919 4.84529 0 0 0
2.28431 -0.297575 4.89045 0 0 0
2.28989 -0.218778 4.90156 0 0 0
2.26311 0.184798 4.84344 0 0 0
2.29039 -0.259148 4.88129 0 0 0
2.26819 0.599276 4.82277 0 0 0
2.29128 0.206838 4.84839 0 0 0
2.31405 0.0803332 4.87818 0 0 0
2.32626 -0.0852278 4.89412 0 0 0
2.27487 0.641247 4.78079 0 0 0
2.32382 -0.294252 4.88354 0 0 0
2.31212 0.321776 4.8471 0 0 0
2.35562 -0.308895 4.90283 0 0 0
2.35911 -0.348363 4.90379 0 0 0
2.35911 -0.348363 4.90379 0 0 0
2.32518 0.616176 4.82133 0 0 0
2.36922 -0.294033 4.90902 0 0 0
2.34106 0.247047 4.84987 0 0 0
2.38186 -0.349076 4.91738 0 0 0
2.27002 0.809736 4.68423 0 0 0
2.27308 0.904675 4.67087 0 0 0
2.46179 -0.628783 5.03583 0 0 0
2.45206 -0.57968 5.0104 0 0 0
2.42215 -0.087353 4.93078 0 0 0
2.43499 -0.174845 4.97193 0 0 0
2.41442 0.148189 4.90609 0 0 0
2.46638 -0.42548 4.97753 0 0 0
2.4757 -0.107069 4.97892 0 0 0
2.48094 -0.0303159 4.97711 0 0 0
2.37009 0.710249 4.74891 0 0 0
2.37009 0.710249 4.74891 0 0 0
2.45094 -0.0866622 4.90521 0 0 0
2.48595 -0.0899645 4.97497 0 0 0
2.49749 -0.452409 4.98905 0 0 0
2.49809 -0.256223 4.98036 0 0 0
2.49334 0.1322 4.96555 0 0 0
2.49166 0.0751366 4.95856 0 0 0
2.51451 -0.483712 4.97246 0 0 0
2.51451 -0.483712 4.97246 0 0 0
2.49505 0.447927 4.93147 0 0 0
2.49995 0.289572 4.93712 0 0 0
2.53129 0.333035 4.91896 0 0 0
2.4727 0.709725 4.80154 0 0 0
2.59248 0.763346 4.83515 0 0 0
-1.77124 0.928457 2.82174 208 205 196
-1.55134 0.696595 2.5246 216 213 206
-1.54286 0.385315 2.64855 219 218 214
-1.55121 0.145234 2.67488 137 139 138
-1.55523 0.0127731 2.68567 42 44 41
-1.55198 -0.0748029 2.69491 146 146 146
-1.54229 -0.0917981 2.69639 154 154 154
-1.56057 -0.366161 2.77249 221 228 236
-1.54817 -0.359296 2.73101 224 228 237
-1.51559 -0.278704 2.72897 221 228 238
-1.5141 -0.451131 2.71245 220 227 235
-1.46758 0.324277 2.69853 165 166 161
-1.44487 0.354516 2.70218 190 190 188
-1.46263 -0.248068 2.71926 215 211 202
-1.46797 -0.354098 2.74253 208 201 193
-1.47502 -0.673784 2.8309 199 194 188
-1.41305 0.223927 2.74039 222 221 216
-1.43312 -0.324122 2.75609 214 214 206
-1.42813 -0.318151 2.76188 216 213 206
-1.4512 -0.655742 2.85012 229 225 214
-1.34077 0.714306 2.64217 107 99 86
-1.34077 0.714306 2.64217 107 99 86
-1.39502 -0.143727 2.78143 209 208 203
-1.38594 -0.419163 2.80799 217 212 206
-1.31536 0.681121 2.66126 232 236 239
-1.36875 -0.262247 2.792 217 214 207
-1.36875 -0.262247 2.792 217 214 207
-1.36648 -0.41584 2.8046 219 216 209
-1.36648 -0.41584 2.8046 219 216 209
-1.32088 0.2134 2.79622 214 215 210
-1.31697 0.279899 2.79135 123 119 107
-1.3233 0.146905 2.80207 143 143 143
-1.05116 -0.439599 3.05475 219 214 208
-1.00994 -0.376357 3.10225 217 214 207
-0.988922 0.00718523 3.24555 53 54 48
-0.967658 0.10393 3.25428 131 131 123
-0.967658 0.10393 3.25428 131 131 123
-0.961413 0.113836 3.25161 140 139 134
-1.00537 -0.951753 3.17759 35 40 36
-0.866864 0.572665 3.07684 13 18 11
-0.944569 -1.31652 3.24267 55 52 33
-0.863911 0.462734 3.58296 201 201 199
-0.871147 0.405991 3.09361 200 200 198
-0.929592 -1.3059 3.2442 53 52 47
-0.924544 -1.29578 3.25665 102 100 88
-0.839334 -0.242642 3.18167 210 209 204
-0.829703 -0.0135844 3.1621 23 22 18
-0.803154 -0.0963385 3.18469 40 41 35
-0.852498 -1.35246 3.27965 40 40 30
-0.850379 -1.32168 3.29365 41 39 26
-0.850379 -1.32168 3.29365 41 39 26
-0.799934 -0.0868185 3.18262 39 39 31
-0.854212 -1.44216 3.28042 75 68 60
-0.793926 0.0507839 3.17187 16 21 15
-0.772782 0.536862 3.12465 11 13 8
-0.821403 -0.716588 3.24556 104 93 73
-0.836691 -1.30627 3.27254 71 73 70
-0.813184 -1.34006 3.23304 24 26 15
-0.803106 -1.41856 3.25405 43 44 36
-0.785107 -1.62752 3.65288 52 49 44
-0.718783 -1.36191 3.29066 34 36 23
-0.618736 0.201056 3.12719 203 204 199
-0.569513 0.867519 2.82665 10 15 9
-0.567113 0.274856 2.9071 111 107 95
-0.619429 -1.64002 3.14512 20 23 16
-0.50863 0.182864 3.36566 183 185 182
-0.519124 -1.22293 3.19798 16 18 13
-0.258642 -1.46123 3.30631 53 14 15
-0.179073 0.187667 3.18748 156 153 144
-0.174364 0.150436 3.20009 150 146 135
0.256962 -1.33991 4.04038 148 142 128
0.231497 -1.30934 3.94403 169 163 149
0.250065 -1.32696 3.94701 163 155 144
0.258784 -1.17061 3.94993 175 169 157
0.20269 -1.8174 3.82765 77 76 71
0.277484 -1.26136 3.9359 138 134 125
0.245815 -1.84131 3.82676 74 75 69
0.351672 -1.24311 3.95499 121 120 115
0.53473 -1.28955 4.10954 117 114 107
0.527614 -2.19659 4.19306 58 59 54
0.527614 -2.19659 4.19306 58 59 54
0.776534 -0.500386 4.39435 114 102 88
0.87458 0.73773 4.26053 142 115 88
0.859922 -1.41272 4.3137 133 120 103
0.910402 0.748268 4.16503 121 112 103
0.914692 -1.41156 4.3175 127 120 102
0.958097 0.716602 4.13514 122 109 92
0.973355 -0.579461 4.26064 137 128 113
0.945465 -1.67526 4.31563 107 99 86
1.01603 0.663739 4.15909 111 109 97
1.04168 -1.30559 4.31179 122 114 101
1.0587 -2.22682 4.44804 105 101 89
1.05833 -1.38071 4.33318 120 112 99
0.986337 -1.89695 4.1285 111 102 93
0.985939 -1.90503 4.09177 112 105 95
1.1526 -1.69734 4.15832 113 109 98
1.13862 -1.73939 4.11358 110 106 94
1.09834 -1.86465 4.02348 106 99 89
1.22707 0.269069 3.93772 0 0 0
1.24445 0.251084 3.91679 0 0 0
2.26415 -0.199088 4.94203 0 0 0
2.28151 -0.0873856 4.89465 0 0 0
2.48272 -0.638385 5.06609 0 0 0
4.20168 -4.53107 7.56469 0 0 0
4.27165 -4.47526 7.52434 0 0 0
4.27165 -4.47526 7.52434 0 0 0
4.30079 -4.36521 7.50528 0 0 0
4.56691 -2.22716 6.50101 0 0 0
4.56691 -2.22716 6.50101 0 0 0
4.58204 -2.247 6.42984 0 0 0
4.74149 -2.79207 6.468 0 0 0
4.81597 -2.92829 6.38796 0 0 0
4.96226 -2.92258 6.08892 0 0 0
4.96736 -2.90357 6.08563 0 0 0
4.99781 -2.4994 5.92126 0 0 0
-1.60376 -0.240585 2.75343 72 67 61
-1.60343 -0.412741 2.76149 73 71 59
9.12941 0.713853 -9.40022 96 101 97
7.45916 1.07616 -7.85243 102 99 94
8.79991 0.68628 -9.53304 131 117 116
-1.42306 -0.390667 2.87923 216 218 215
29.4129 0.901329 -36.7216 222 228 240
-1.22012 -0.377098 3.05615 159 162 151
-1.20739 -0.381235 3.06456 159 162 151
-3.69108 -4.93304 9.07722 143 147 132
-3.55002 -3.29224 9.54045 214 216 215
-3.55002 -3.29224 9.54045 218 217 215
-3.33678 -3.60099 9.53641 184 182 183
-0.49459 -1.64683 3.28396 186 184 185
-0.407106 -1.78547 3.23298 40 40 38
-3.06138 -3.88752 9.5634 38 35 30
-0.427152 -1.65258 3.32891 214 210 207
-2.77902 0.677049 10.1285 214 210 207
-0.263004 -1.48247 3.36702 214 215 209
-2.73678 0.612444 10.3313 17 23 11
-0.224747 -1.82021 3.33354 51 45 31
-0.176764 -1.84393 3.35427 83 83 75
-0.0609472 -1.59422 3.88126 38 34 23
-0.0418019 -1.56691 3.81221 45 43 31
-0.0391833 -1.59251 3.80846 71 71 63
0.0479724 -1.84841 3.73803 99 104 100
0.0300335 -1.52422 3.84025 46 42 31
0.0848539 -1.84728 3.75431 44 40 28
0.0792783 -1.41902 3.87545 87 80 72
0.149571 -1.76669 3.82494 87 80 72
0.150542 -1.80652 3.82566 92 88 79
0.174161 -1.53251 3.9199 17 19 16
0.173188 -1.53132 3.92201 66 69 60
0.257397 -1.85053 3.84911 86 92 82
0.257397 -1.85053 3.84911 205 206 200
0.284102 -1.4159 3.98897 72 73 65
0.320145 -1.76799 3.91846 64 59 55
0.357248 -1.22722 3.96442 115 102 94
0.352153 -1.45384 4.01425 115 102 94
0.371687 -1.85373 3.91354 25 28 21
0.416924 -2.17205 4.12527 25 28 21
0.457639 -1.85514 3.96191 211 210 206
0.457639 -1.85514 3.96191 162 158 146
0.438561 -2.18246 4.12626 21 22 17
0.459541 -1.76608 3.99138 188 182 170
0.464812 -2.17207 4.14831 136 132 123
0.488829 -1.76833 4.01228 79 80 75
0.558487 -1.44277 3.64833 114 111 104
0.515861 -1.7666 4.02175 114 111 104
0.535048 -2.15586 4.19029 79 80 75
0.551307 -1.79365 4.04278 125 126 120
0.558801 -2.15125 4.20235 85 74 70
0.585674 -2.18541 4.20421 111 112 106
0.592209 -1.54067 4.15041 142 142 132
0.601083 -1.77175 4.07208 108 109 103
0.624468 -1.48831 4.16092 122 123 117
0.621299 -2.18983 4.22536 116 117 111
0.627383 -1.55368 4.17031 98 99 93
0.661785 -1.77149 4.10503 88 90 79
0.792886 -1.51102 4.25905 135 130 124
1.14199 -1.89891 4.04862 110 111 105
1.30373 -2.1992 4.37386 115 103 91
1.30896 -2.21808 4.37326 99 99 91
1.30896 -2.21808 4.37326 141 142 136
1.30096 -1.82008 4.15919 125 121 110
1.30323 -1.87005 4.15327 132 124 113
1.32281 -2.19869 4.38465 0 0 0
1.38472 -2.21401 4.41224 0 0 0
1.37908 -1.8348 4.19847 0 0 0
1.40961 -2.22025 4.42374 0 0 0
1.42398 -1.83349 4.21996 0 0 0
1.46042 -1.69453 4.34698 0 0 0
1.49648 -1.83373 4.26127 0 0 0
1.50788 -1.89484 4.24024 0 0 0
1.50788 -1.89484 4.24024 0 0 0
1.54346 -1.89563 4.26455 0 0 0
1.73278 -0.411909 4.65029 0 0 0
1.77634 -0.397648 4.68264 0 0 0
1.77638 -0.396839 4.68436 0 0 0
1.79397 -0.461054 4.66204 0 0 0
1.91171 -0.466415 4.72358 0 0 0
2.08515 -0.420032 4.86428 0 0 0
2.15227 -0.343223 4.89417 0 0 0
2.3056 -0.47481 4.91363 0 0 0
2.35184 -0.336899 4.89843 0 0 0
2.41211 -0.182578 4.93141 0 0 0
2.42832 -0.200042 4.93779 0 0 0
-1.96545 0.718666 2.5806 0 0 0
-1.96545 0.718666 2.5806 0 0 0
-4.10335 -3.83186 3.10583 0 0 0
-4.25422 -3.99842 3.18552 0 0 0
-4.28215 -3.98382 3.23824 0 0 0
-4.2545 -4.13895 3.23928 0 0 0
-4.26308 -4.11771 3.24188 88 84 75
-4.20415 -4.14738 3.24333 88 84 75
-4.12907 -4.0538 3.23202 130 146 146
-4.24769 -4.11302 3.25958 164 177 186
-1.52135 0.408991 2.69941 37 38 30
-4.1336 -4.20141 3.30583 164 174 184
-4.104 -4.23111 3.31152 163 173 183
-4.18725 -4.28694 3.33966 166 174 185
-1.56803 -0.359254 2.74169 165 173 184
-1.49915 -0.206015 2.74823 165 173 184
-1.52364 -0.525355 2.75718 62 66 51
-4.16869 -3.96927 3.4001 163 171 182
-4.17803 -4.2862 3.39744 162 172 182
-4.17803 -4.2862 3.39744 161 171 181
-1.50275 -0.413135 2.77249 188 185 176
-1.49204 -0.137025 2.77507 197 190 180
-4.1988 -4.19579 3.43444 185 181 170
-1.46031 -0.232258 2.78276 21 26 19
-1.42989 -0.232635 2.77629 165 171 183
-1.48473 -0.382709 2.79224 165 171 183
-4.08059 -4.15763 3.4413 194 187 177
-4.22311 -3.64597 3.48468 94 84 72
-4.24465 -4.00819 3.48874 36 29 36
-4.27311 -3.99827 3.49942 91 83 70
-1.44276 -0.452307 2.79503 91 83 70
-1.39625 0.102286 2.792 187 183 172
-4.2344 -4.02197 3.49929 25 24 20
-1.44 -0.136878 2.80457 92 102 93
-4.10531 -4.01351 3.484 103 99 98
-4.21076 -4.08407 3.50949 15 24 21
-1.55903 -0.632729 2.84 171 165 153
-4.21143 -4.04075 3.51138 206 203 198
-1.39952 -0.150927 2.81418 29 34 27
-4.18116 -3.89198 3.54007 198 195 186
-1.34807 -0.175184 2.81382 17 18 12
-1.34364 -0.213508 2.81965 17 20 13
-1.37423 -0.136511 2.83267 184 180 169
-1.3671 -0.0543385 2.83194 25 31 21
-1.3671 -0.0543385 2.83194 201 197 186
-1.33121 0.58919 2.83004 27 29 18
-1.37019 -0.174295 2.84245 208 203 197
-4.2865 -3.52859 3.61463 207 204 197
-1.31037 0.595716 2.83673 201 194 184
-0.858129 -0.583616 2.71273 213 212 207
-1.47928 -0.663065 2.88255 213 212 207
-1.36644 -0.18116 2.855 102 95 85
-1.30501 0.548201 2.84936 206 203 194
-1.31559 0.595117 2.85281 184 190 202
-1.45843 -0.681687 2.88698 117 123 113
-1.32174 -0.0208941 2.8541 199 186 180
-1.27122 0.627505 2.84473 199 186 180
-1.34154 -0.265351 2.85975 203 200 191
-1.31388 0.607004 2.85859 122 125 114
-1.30956 0.53085 2.85701 108 108 98
-4.2671 -3.48021 3.65408 201 193 182
-1.28704 0.460566 2.85426 203 199 190
-1.30168 -0.457202 2.854 116 118 107
-1.33905 0.112655 2.86847 205 202 195
-1.31397 0.409234 2.8643 119 120 112
-4.25311 -3.44212 3.67018 81 81 73
-4.25766 -3.37967 3.67238 185 191 203
-1.32528 0.448925 2.87666 123 123 115
-1.30906 0.420641 2.87336 209 202 194
-1.30053 0.0236231 2.87168 179 179 167
-1.33748 0.275198 2.88748 122 123 115
-1.36585 -0.329265 2.89283 184 192 203
-1.36585 -0.329265 2.89283 190 196 208
-1.27032 -0.432683 2.86713 107 104 95
-1.29996 0.197919 2.88562 87 82 76
-1.32715 0.0841244 2.8938 182 183 169
-1.33371 0.0362125 2.89771 67 65 52
-1.3135 0.274658 2.89879 207 205 193
-1.35263 -0.0485385 2.91144 207 205 193
-1.32206 -0.176817 2.90741 207 204 195
-1.27708 -0.459598 2.89405 81 79 67
-1.35561 -0.194122 2.92543 90 81 72
-1.3285 -0.208136 2.91879 73 67 53
-1.3285 -0.208136 2.91879 83 80 73
-1.31773 -0.258261 2.9189 91 85 71
-1.33324 -0.227661 2.93102 181 177 168
-1.35155 -0.198509 2.93725 209 206 197
-1.3273 -0.37665 2.93671 118 127 110
-1.29221 0.0338296 2.93032 185 196 179
-1.24615 0.290369 2.93108 185 196 179
-1.34534 -0.787609 2.97612 187 184 177
-1.19914 -0.0747337 2.99738 86 80 66
-1.15717 -0.37394 3.04855 82 79 62
-1.29381 0.0843595 3.0952 181 174 166
-1.13233 -0.395333 3.05917 94 92 80
-0.471263 -1.85393 3.13893 69 61 50
-0.471263 -1.85393 3.13893 201 199 187
-0.408574 -1.82989 3.18643 68 69 55
-0.479483 -1.18658 3.22119 109 103 89
-0.638124 -2.17824 3.3191 116 116 108
-0.638124 -2.17824 3.3191 82 76 62
-0.471878 -1.21343 3.25665 71 72 66
-0.471878 -1.21343 3.25665 71 72 66
-0.613313 -2.15848 3.32845 43 39 36
-0.376401 -1.32339 3.24362 116 105 101
-0.311343 -1.78479 3.24708 55 54 52
-0.523706 -2.19546 3.36273 55 54 52
-0.271324 -1.83315 3.25893 193 192 187
-0.495564 -2.18253 3.36684 193 192 187
-0.269859 -1.775 3.27098 178 157 166
-0.491726 -2.17633 3.3843 188 192 178
-0.162742 -1.8565 3.29065 33 30 23
-0.28052 -1.52161 3.3614 28 30 17
-0.140605 -1.86256 3.31138 41 38 33
-0.140605 -1.86256 3.31138 83 84 68
-0.167804 -1.77919 3.32682 69 70 62
-0.146331 -1.77901 3.34105 34 30 19
-0.150902 -1.33868 3.34118 105 110 106
-0.116571 0.722017 3.30869 26 31 25
-0.195744 -1.40853 3.3731 27 28 22
-0.182152 -1.46353 3.36832 27 28 22
-0.183853 -1.44859 3.37353 16 21 15
-0.183853 -1.44859 3.37353 8 10 5
-0.195327 -1.69143 3.38265 211 208 201
-0.253148 -1.65396 3.41043 28 31 24
-0.342065 -2.15765 3.46883 189 185 182
-0.112951 -1.80223 3.35488 179 177 182
-0.107214 -1.80223 3.35253 129 125 122
-0.141004 0.331565 3.37096 129 125 122
-0.312006 -2.17504 3.47793 70 66 63
-0.169003 -1.72576 3.40321 47 47 39
-0.169003 -1.72576 3.40321 42 38 29
-0.165228 0.591376 3.3901 18 24 12
-0.165017 0.338109 3.40561 18 24 12
-0.164103 0.58133 3.40257 159 160 155
-0.149067 0.605249 3.39819 66 65 63
-0.218787 -0.124481 3.44086 33 41 30
-0.164474 0.533768 3.40893 33 41 30
-0.162247 0.335896 3.41599 214 213 208
-0.181011 0.0649965 3.43475 160 162 159
-0.174496 0.312423 3.42932 212 212 204
-0.0423928 -1.86029 3.3851 215 215 207
-0.149203 0.463328 3.42056 168 172 173
-0.189969 0.0373693 3.44554 185 186 181
-0.189969 0.0373693 3.44554 130 132 129
-0.206465 -0.262992 3.46199 205 204 209
-0.157164 0.298663 3.43342 193 192 190
-0.185538 -0.0335393 3.46272 150 149 144
-0.222157 -0.378057 3.48659 32 33 27
-0.222157 -0.378057 3.48659 180 178 181
-0.30673 -1.62819 3.54588 180 178 181
-0.152399 0.436534 3.44637 21 27 13
-0.299711 -1.22573 3.54839 179 180 175
-0.226703 -0.646176 3.50583 45 46 30
-0.226703 -0.646176 3.50583 35 35 23
-0.138167 -1.78926 3.47277 35 35 23
-0.274467 -1.28864 3.53944 49 41 30
-0.283059 -1.36163 3.54857 29 34 30
-0.280168 -1.35907 3.54741 203 202 198
-0.147537 -1.764 3.48477 209 210 204
-0.277779 -1.39486 3.54843 209 210 204
-0.292807 -1.22252 3.55622 69 69 69
-0.0895787 -1.85425 3.45995 13 24 16
-0.0895787 -1.85425 3.45995 207 207 199
-0.236081 -1.15887 3.53576 207 207 199
-0.236081 -1.15887 3.53576 52 49 42
-0.139789 -1.81805 3.50168 213 210 205
-0.273277 -1.32118 3.57268 205 204 200
-0.275191 -1.30783 3.57384 62 68 64
-0.116417 -1.84949 3.4999 62 68 64
-0.116417 -1.84949 3.4999 212 211 206
-0.16106 -0.388891 3.51021 212 211 206
-0.166564 -0.357477 3.51958 78 84 74
-0.0502835 0.72905 3.44862 167 167 157
-0.251885 -1.57129 3.58449 106 119 109
-0.251885 -1.57129 3.58449 33 35 24
-0.229338 -1.74115 3.57507 33 35 24
-0.160271 -0.123665 3.52992 39 40 34
-0.167811 -0.452741 3.54016 28 29 21
-0.157693 -1.77001 3.55261 32 33 27
-0.257105 -1.62159 3.61793 150 147 140
-0.168292 -0.454979 3.56705 150 147 140
-0.254908 -1.62053 3.62924 35 35 25
-0.213848 -1.31894 3.60589 14 16 11
-0.0972194 -1.8769 3.55067 41 42 28
-0.198469 -1.28899 3.59802 33 33 21
-0.209376 -1.29312 3.60478 48 51 42
-0.249642 -1.62693 3.63469 62 62 54
-0.187558 -1.38097 3.59845 44 25 21
-0.215699 -0.971459 3.61034 168 169 161
-0.211681 -1.30562 3.61197 56 58 47
-0.215769 -0.866761 3.61123 36 44 33
-0.191853 -1.36639 3.611 31 39 28
-0.191422 -1.36334 3.6106 36 16 9
-0.18558 -1.37277 3.60958 211 210 205
-0.187886 -1.46936 3.61827 29 31 18
-0.22217 -1.64702 3.64122 134 142 129
-0.222941 -1.64152 3.64765 172 149 141
-0.210057 -0.979167 3.63338 208 207 202
-0.221778 -1.17169 3.64749 208 207 202
-0.163398 -1.738 3.6263 212 211 206
-0.232784 -1.31105 3.6588 197 196 192
-0.219387 -1.65543 3.65721 95 97 86
-0.252711 -1.62506 3.67714 187 174 165
-0.0747454 -1.84317 3.58547 67 61 49
-0.219601 -1.325 3.65873 215 212 205
-0.256418 -1.6155 3.68388 17 20 13
-0.251028 -1.61422 3.68178 40 53 44
-0.20551 -1.37814 3.65546 192 183 174
-0.209976 -1.35576 3.6573 177 180 173
-0.252221 -1.63142 3.68928 63 65 54
-0.252221 -1.63142 3.68928 141 143 132
-0.186117 -0.967187 3.64442 153 155 150
-0.328372 -2.16038 3.73938 153 155 150
-0.0874381 -1.7565 3.60727 209 208 203
-0.05163 -1.84644 3.61147 201 201 193
-0.17449 -1.2504 3.68841 179 179 171
-0.17449 -1.2504 3.68841 179 179 171
-0.199378 -1.56272 3.70984 75 72 63
-0.140713 -1.73155 3.68401 105 106 100
-0.257727 -2.13509 3.77071 13 16 7
-0.0225473 -1.87192 3.65094 23 26 15
-0.15999 -1.61516 3.74006 199 198 194
-0.129568 -1.4847 3.74334 199 198 194
-0.130178 -1.57603 3.7494 184 183 178
-0.107199 -1.42628 3.74183 36 27 20
-0.0416373 -1.82429 3.7157 40 42 31
-0.108908 -1.48578 3.74996 14 17 8
-0.0233523 -1.75326 3.71057 184 184 174
-0.000729215 -1.75319 3.72487 204 201 196
-0.0711504 -1.58004 3.77726 143 125 111
0.0180602 -1.75488 3.73267 211 210 205
-0.0282663 -1.4881 3.79362 193 190 183
-0.0381024 -1.56664 3.80106 200 199 194
-0.0116567 -1.45992 3.79969 193 190 183
-0.0158845 -1.52256 3.80604 190 190 182
-0.00361328 -1.45283 3.80358 184 184 176
0.0789829 -1.75635 3.76938 191 191 183
-0.00656203 -1.40547 3.82383 198 197 193
0.00700124 -1.53809 3.82096 121 121 111
0.0192682 -1.50259 3.82005 206 206 198
0.0290797 -1.49 3.82089 150 147 142
0.0206066 -1.5851 3.8313 208 207 202
0.0419286 -1.50795 3.83549 195 192 183
0.038595 -1.55984 3.8395 210 209 204
0.0536875 -1.4288 3.83026 167 172 165
0.0879175 -1.27774 3.81866 186 182 179
0.135609 -1.79191 3.7989 191 190 186
0.0647691 -1.51322 3.84694 184 184 176
0.219595 -1.81777 3.83474 173 169 166
0.0797536 -2.18743 3.93867 188 185 176
0.155985 -1.2763 3.86893 210 209 204
0.155985 -1.2763 3.86893 23 18 14
0.160256 -1.59692 3.90967 194 194 186
0.249678 -1.78214 3.85761 161 160 158
0.12233 -2.18593 3.96665 190 187 178
0.299736 -1.7814 3.88219 177 170 160
0.299736 -1.7814 3.88219 40 25 22
0.254465 -1.56513 3.95515 40 25 22
0.315102 -1.20351 3.91228 184 181 172
0.326083 -1.13246 3.92533 190 185 179
0.342735 -1.22891 3.92665 174 174 164
0.305942 -1.40066 3.973 104 101 96
0.301383 -1.5588 3.98214 104 101 96
0.314702 -1.4527 3.97849 186 186 174
0.315381 -1.53749 3.98734 202 201 197
0.311021 -1.58187 3.99499 211 210 205
0.371622 -1.23264 3.94402 188 189 184
0.406765 -1.76987 3.94241 213 210 205
0.351702 -1.42648 3.98805 187 187 179
0.335662 -1.58828 4.00502 202 201 196
0.362032 -1.44742 4.00636 184 185 177
0.315218 -2.18698 4.071 188 185 178
0.384908 -1.46134 4.00912 183 182 180
0.423122 -1.28814 3.97656 191 190 185
0.376584 -1.51143 4.02314 207 206 202
0.376584 -1.51143 4.02314 181 181 173
0.381191 -1.55467 4.02636 202 201 197
0.322302 -2.17762 4.08688 170 170 160
0.415979 -1.2945 4.01054 196 195 191
0.428949 -1.24037 4.00176 165 168 159
0.539068 -1.28447 3.94888 185 186 178
0.414118 -1.33109 4.04178 185 186 178
0.233616 -2.50221 4.21684 190 187 180
0.425251 -1.30916 4.03738 64 66 55
0.530871 -1.84539 3.98214 159 160 152
0.523484 -1.84779 3.98697 177 176 172
0.453251 -1.28418 4.03879 198 198 190
0.395348 -2.19065 4.1117 199 199 191
0.543436 -1.82327 4.01604 10 15 9
0.519985 -1.60051 4.10596 175 176 168
0.592419 -1.76694 4.06222 187 187 177
0.501747 -2.15854 4.18306 187 187 177
0.649055 -1.78609 4.07737 125 135 126
0.586125 -1.6241 4.14281 53 53 45
0.588048 -1.56552 4.14696 188 187 182
0.613372 -1.5628 4.15217 18 23 17
0.622985 -1.5321 4.15453 72 78 64
0.626903 -1.50683 4.15755 51 51 39
0.639256 -1.56515 4.17333 65 69 55
0.648273 -1.58908 4.1756 32 34 21
0.643801 -1.60135 4.18844 33 36 25
0.671202 -1.48985 4.17379 25 27 16
0.679192 -1.34332 4.16452 39 39 27
0.734282 -1.7974 4.13742 197 172 165
0.674143 -1.45197 4.17815 21 22 14
0.68201 -1.58143 4.19449 21 24 17
0.68201 -1.58143 4.19449 21 24 15
0.698654 -1.50695 4.19087 52 29 23
0.691403 -1.54843 4.1992 211 208 203
0.69826 -1.51776 4.19793 89 80 65
0.697328 -1.55672 4.20014 188 187 182
0.714955 -1.53276 4.20538 16 19 12
0.784911 -1.76518 4.16171 16 19 12
0.807941 -1.76546 4.18325 52 38 25
0.78325 -1.13622 4.18356 26 29 20
0.799523 -1.53371 4.25774 43 40 25
0.835124 -1.29449 4.23057 30 34 20
0.844852 -1.24245 4.22987 22 28 16
0.916356 -1.21997 4.16779 162 159 150
0.846711 -1.25303 4.23577 159 155 146
0.943285 -0.515503 4.14465 210 207 202
0.972206 -0.484114 4.15774 124 124 116
0.90419 -1.26199 4.26057 125 118 108
1.15969 -1.75019 4.11938 144 137 127
1.29037 -1.89001 4.11039 120 117 110
1.21835 -1.67357 4.19274 116 113 106
1.28879 -1.42472 4.16399 32 34 29
1.34923 -1.65353 4.15863 31 33 28
1.32591 -1.29898 4.18559 130 132 121
1.36624 -1.79907 4.17185 172 154 144
1.33599 -1.54067 4.22973 44 47 38
1.43706 -1.91491 4.1545 157 154 145
1.29599 -2.1329 4.37931 133 127 115
1.49119 -1.92249 4.18694 179 176 169
1.53186 -1.92469 4.21245 130 128 116
1.45141 -1.68067 4.3347 120 114 100
1.55695 -1.9308 4.2388 74 74 62
1.53022 -1.86815 4.27044 99 95 84
1.41832 -1.48629 4.39262 101 103 92
1.54837 -1.80625 4.2791 91 93 82
1.55426 -1.80252 4.2842 81 83 72
1.55135 -1.31125 4.36598 104 104 94
1.60822 -1.35195 4.32603 90 91 83
1.53031 -1.23288 4.57582 107 108 100
1.67438 0.23424 4.31318 65 61 50
1.67438 0.23424 4.31318 91 92 84
1.54419 -1.33949 4.59897 85 85 75
1.54225 -1.69602 4.66292 109 109 97
1.59183 -1.74416 4.64283 99 92 82
1.71528 0.000858896 4.34753 117 107 95
1.64205 -0.0017566 4.45265 38 31 21
1.66746 -1.90213 4.56513 38 31 21
1.53826 -1.66602 4.74352 113 103 91
1.67045 0.607405 4.40637 100 94 82
1.63299 -0.313856 4.52953 89 81 70
1.63055 -0.394987 4.56422 114 104 92
1.73848 0.768107 4.33648 114 108 96
1.67118 -1.81473 4.62244 75 75 65
1.59187 -1.35093 4.7167 110 86 62
1.59456 -1.34722 4.71333 122 108 95
1.63736 -0.410469 4.58361 122 116 104
1.64598 -0.413575 4.57765 121 113 102
1.64598 -0.413575 4.57765 114 108 96
1.69977 0.640634 4.42867 83 71 57
1.65456 -0.303367 4.57729 89 85 76
1.65008 -0.0581704 4.56534 89 85 76
1.66021 -0.436882 4.58122 113 107 93
1.64905 -0.383334 4.59966 115 109 95
1.67034 -0.0904548 4.55722 115 109 95
1.6654 -0.392752 4.59741 115 107 94
1.6654 -0.392752 4.59741 112 108 97
1.72358 -1.87806 4.6229 125 112 103
1.68342 -1.79861 4.68608 112 93 78
1.66653 -0.410881 4.607 116 105 87
1.66664 -0.383921 4.61229 118 112 100
1.66149 -0.327478 4.62672 141 108 73
1.69412 0.0423184 4.5983 141 108 73
1.70371 -0.410247 4.62185 69 71 60
1.7055 -0.385067 4.63623 78 75 68
1.72941 -0.439817 4.62083 126 91 61
1.72647 -0.413008 4.63113 120 94 71
1.76064 -1.91354 4.69792 98 80 66
1.73718 -0.456724 4.62206 128 98 70
1.772 -0.485834 4.64318 89 86 77
1.77687 -0.409713 4.66173 0 0 0
1.77485 -0.385088 4.67188 0 0 0
1.79308 -0.440877 4.65753 0 0 0
1.83364 -0.374669 4.60498 0 0 0
1.78994 -0.384883 4.67836 0 0 0
1.82642 -0.3925 4.71541 0 0 0
1.84322 -0.387448 4.72158 0 0 0
1.86917 -0.483801 4.69611 0 0 0
1.92809 -0.468672 4.73791 0 0 0
1.92849 -0.153683 4.74465 0 0 0
1.94419 -0.416153 4.78222 0 0 0
1.95347 -0.400259 4.79541 0 0 0
1.95271 -0.401348 4.79656 0 0 0
1.98144 -0.442729 4.78939 0 0 0
2.03735 -0.369641 4.85857 0 0 0
2.06562 -0.405399 4.87828 0 0 0
2.07356 -0.406111 4.88368 0 0 0
2.0789 -0.406974 4.88984 0 0 0
2.08635 -0.399043 4.89052 0 0 0
2.0921 -0.407378 4.89511 0 0 0
2.09473 -0.365873 4.88882 0 0 0
2.11866 -0.0928063 4.86804 0 0 0
2.11866 -0.0928063 4.86804 0 0 0
2.11867 -0.236664 4.88636 0 0 0
2.12466 -0.408361 4.91813 0 0 0
2.12466 -0.408361 4.91813 0 0 0
2.12503 -0.233581 4.89917 0 0 0
2.12432 -0.304577 4.9085 0 0 0
2.13034 -0.408646 4.92619 0 0 0
2.12931 -0.215882 4.91589 0 0 0
2.13838 -0.408654 4.93102 0 0 0
2.13838 -0.408654 4.93102 0 0 0
2.13213 -0.615147 4.97003 0 0 0
2.15098 0.0370252 4.87445 0 0 0
2.15812 -0.0798606 4.8974 0 0 0
2.1635 -0.16229 4.9132 0 0 0
2.17812 0.453969 4.86133 0 0 0
2.24244 -0.491009 4.88868 0 0 0
2.22461 0.016573 4.90775 0 0 0
2.24238 -0.440613 4.92209 0 0 0
2.2531 -0.478973 4.90623 0 0 0
2.22542 0.195633 4.90504 0 0 0
2.26921 -0.489309 4.90222 0 0 0
2.27117 -0.23148 4.90532 0 0 0
2.24632 0.613627 4.89065 0 0 0
2.27884 0.211242 4.87568 0 0 0
2.29373 -0.532026 4.94349 0 0 0
2.28968 0.491112 4.84951 0 0 0
2.30147 -0.240396 4.92205 0 0 0
2.30051 -0.312915 4.94132 0 0 0
2.27845 -0.684062 5.0426 0 0 0
2.3035 0.334883 4.88387 0 0 0
2.3279 -0.35285 4.9457 0 0 0
2.33047 -0.314404 4.95294 0 0 0
2.32878 -0.166373 4.95498 0 0 0
2.32878 -0.166373 4.95498 0 0 0
2.3325 -0.184159 4.96055 0 0 0
2.34955 -0.353371 4.9715 0 0 0
2.35007 -0.309079 4.96703 0 0 0
2.3072 -0.182551 5.06568 0 0 0
2.34598 -0.175944 4.97037 0 0 0
2.34359 -0.158197 4.97376 0 0 0
2.35541 -0.354824 4.97542 0 0 0
2.34852 0.380948 4.90074 0 0 0
2.35598 -0.31527 4.97958 0 0 0
2.37265 -0.175934 4.99042 0 0 0
2.387 -0.4338 5.01909 0 0 0
2.3921 -0.433682 5.00932 0 0 0
2.4219 -0.179368 4.9064 0 0 0
2.37943 0.406091 4.93215 0 0 0
2.39037 -0.366922 5.02532 0 0 0
2.39895 -0.225515 5.00038 0 0 0
2.39111 0.639538 4.90489 0 0 0
2.40756 -0.463663 5.02988 0 0 0
2.40537 -0.471314 5.03781 0 0 0
2.40276 -0.158335 5.00492 0 0 0
2.42008 -0.494056 5.02707 0 0 0
2.4092 0.153856 4.97341 0 0 0
2.41523 -0.234766 5.03045 0 0 0
2.4407 0.481086 4.89892 0 0 0
2.43018 -0.469342 5.05619 0 0 0
2.42583 -0.166479 5.03084 0 0 0
2.44716 0.597458 4.94143 0 0 0
2.44277 0.377144 4.98586 0 0 0
2.45465 0.321806 4.98639 0 0 0
2.49883 0.668094 4.94451 0 0 0
-3.87489 0.648791 2.42144 0 0 0
-3.69 -3.46326 2.53572 0 0 0
-3.69508 -3.44475 2.56013 0 0 0
-3.66904 -3.10273 2.57415 0 0 0
-3.64936 -3.19943 2.61324 0 0 0
-4.02981 -3.4489 2.99921 0 0 0
-1.42724 0.412054 2.70929 83 79 67
-1.35871 0.213223 2.77031 159 169 181
-1.38365 -0.303304 2.80184 164 172 183
7.70236 -0.212277 1.85987 167 177 189
-3.97039 -3.91041 3.16727 168 176 189
-1.24125 0.607612 2.7983 174 180 192
-1.31181 -0.156129 2.82555 56 55 50
-1.24184 0.607676 2.81403 72 75 64
-1.32811 -0.206686 2.84328 79 79 69
-1.3242 -0.349693 2.86442 77 74 65
-1.26493 0.479473 2.85206 23 27 13
-1.30642 -0.19126 2.88298 194 194 186
-3.9945 -4.14552 3.28558 112 112 104
-1.27561 0.160506 2.87702 194 194 186
-1.28548 0.054641 2.88472 115 116 111
-1.28221 0.0165721 2.89269 98 94 85
-4.15564 -4.29422 3.33749 197 197 187
-3.98771 -4.2084 3.34458 99 95 83
-0.678411 -0.210135 2.85796 16 15 10
-1.27576 -0.236831 2.93441 93 95 94
-1.24969 -0.459733 2.94539 121 123 120
-1.28113 -0.397898 2.95277 128 130 125
-1.21445 0.121165 2.94094 17 23 11
-1.30548 -0.802502 2.99531 36 36 26
-2.8255 -1.04045 3.22264 128 129 121
-1.26487 -0.827766 3.00761 128 129 121
-3.97812 -4.09844 3.45939 105 99 87
-0.327089 0.29209 3.06324 124 121 116
-0.269785 0.294907 3.09478 115 117 116
-1.95941 -1.56108 3.53479 108 101 91
-0.438165 -1.2007 3.22756 117 118 110
-0.151558 0.295886 3.16022 114 116 105
-0.322266 -1.79917 3.2518 21 20 15
-0.334153 -1.22052 3.29921 181 180 176
-0.0999719 0.298211 3.21433 187 188 183
-0.0620139 0.332874 3.24695 190 186 183
-0.0620139 0.332874 3.24695 190 186 183
-0.269092 -1.4634 3.33398 192 192 190
-2.35914 -2.94055 3.84504 25 31 29
-0.453938 -2.14756 3.39457 135 112 106
-0.114157 0.70561 3.25894 197 196 192
-0.114157 0.70561 3.25894 208 209 203
-0.17851 -1.33133 3.35552 208 209 203
-0.209113 -1.37097 3.37321 65 60 56
-0.182612 -1.40185 3.37042 11 14 7
-0.191669 -1.43743 3.37619 11 14 7
-0.064082 -1.85037 3.37115 215 215 207
-0.333364 -2.18703 3.45838 215 215 207
-0.266665 -1.22533 3.4327 203 204 198
-0.254031 -1.63975 3.46149 191 186 182
-0.188631 0.474282 3.4175 47 43 42
-0.194791 0.435124 3.42378 44 40 41
-0.192488 0.362609 3.42853 32 31 27
-0.243303 -0.395435 3.47976 4 9 5
-0.180618 0.586066 3.44505 183 180 175
-0.266102 -0.834938 3.51403 49 42 34
-0.145235 0.246037 3.46998 198 195 186
-0.292549 -1.34405 3.54866 217 214 205
-0.238349 -0.693232 3.53332 213 213 205
-0.155004 0.497768 3.48956 205 208 215
-0.177863 -1.75851 3.55466 171 172 167
-0.158757 0.451176 3.49693 184 187 180
-0.167303 0.195515 3.50664 136 138 137
-0.173125 0.272763 3.50737 207 206 201
-0.171008 0.0152068 3.51471 197 202 196
-0.173838 0.08608 3.52083 149 150 142
-0.184074 -0.503252 3.54253 47 46 28
-0.174946 0.0585902 3.5261 213 213 203
-0.179896 0.00218244 3.53239 191 190 186
-0.177711 0.0986437 3.53255 104 100 97
-0.184495 -0.183919 3.54256 52 47 25
-0.196174 -0.544229 3.55846 89 100 94
-0.188354 -0.446988 3.55739 58 66 68
-0.185767 -0.512494 3.55859 214 215 220
-0.201115 -0.708767 3.57303 195 192 185
-0.195239 -0.309478 3.56184 22 21 17
-0.182735 -0.725614 3.57035 154 142 142
-0.39025 -2.14046 3.67357 23 23 13
-0.263454 -1.62988 3.62482 100 118 128
-0.0781339 0.714507 3.51715 58 51 33
-0.196689 -0.747634 3.58793 101 107 97
-0.0669569 0.738542 3.52163 58 84 97
-2.0991 -2.89741 4.19889 199 198 193
-0.371252 -2.16178 3.68541 40 40 30
-0.216624 -0.959855 3.6166 43 43 43
-0.226664 -1.62797 3.63879 216 215 210
-0.230025 -1.02763 3.62818 199 199 191
-0.233832 -1.18766 3.64208 215 214 209
-0.0973762 -1.78065 3.62524 24 28 14
-0.0115273 -1.86516 3.60469 32 34 23
-0.234386 -1.63692 3.66698 29 26 19
-0.220545 -1.20555 3.65421 13 19 15
-0.253866 -1.53011 3.67589 21 16 10
-0.255144 -1.56935 3.67913 209 208 203
-0.220145 -1.28124 3.67559 24 26 21
-0.0922551 -1.80161 3.66737 16 15 11
-0.19449 -0.370493 3.73422 22 33 25
-0.0114723 -1.78592 3.71893 207 206 201
-0.106502 -1.42417 3.74168 216 191 187
-0.108485 -1.45723 3.74469 23 21 8
-0.108485 -1.45723 3.74469 151 144 136
-0.188418 -0.517691 3.77444 25 27 16
-0.0310647 -1.44335 3.7907 113 101 85
-0.0310647 -1.44335 3.7907 21 21 13
0.0892944 -1.76063 3.77039 196 195 191
-0.0212592 -1.53553 3.80591 183 184 179
-0.0142496 -1.52072 3.80589 183 184 179
0.00294863 -1.57501 3.82142 101 81 70
0.0623323 -1.53068 3.84792 174 173 169
0.024711 -2.16474 3.90857 174 173 169
0.26717 -1.75821 3.87893 171 172 166
0.162181 -2.16863 3.98512 192 189 180
0.326945 -1.76066 3.91122 188 185 178
0.358578 -1.2413 3.94759 190 187 182
0.291657 -1.56007 3.98616 191 188 181
0.332462 -1.60294 3.99934 14 19 13
0.388081 -1.14029 3.99281 181 179 167
0.43119 -1.31981 3.98034 9 10 4
0.354714 -1.58388 4.02548 184 181 174
0.422609 -1.33145 4.01208 185 185 175
0.390194 -1.32871 4.03175 184 185 171
0.486519 -1.60357 4.09889 179 179 171
0.496308 -1.62094 4.09954 207 206 202
0.617418 -1.28915 4.12211 203 202 197
0.627524 -1.60448 4.18048 184 181 174
0.654813 -1.58521 4.19221 204 203 198
1.25253 0.29377 3.92795 207 207 199
1.13009 -1.74733 4.12019 190 187 178
1.36089 0.428783 3.96695 185 188 181
1.25072 -1.86641 4.11482 208 207 202
1.434 0.937933 3.94617 186 186 178
1.31458 -1.92206 4.12045 188 187 182
1.44241 0.708236 3.97691 209 208 203
1.35679 -1.9224 4.1459 16 17 12
1.38445 -1.89807 4.1755 49 41 30
1.39147 -1.87614 4.2059 16 18 13
1.30187 -1.25307 4.24619 201 195 183
1.30187 -1.25307 4.24619 15 17 12
1.42329 -1.90229 4.20299 136 134 122
1.56243 0.297259 4.08649 14 16 13
1.44072 -1.80162 4.25989 12 17 11
1.62257 0.422932 4.11492 13 15 12
1.40633 -1.69066 4.32837 110 107 100
1.57771 -1.93892 4.26183 110 107 100
1.77363 0.945651 4.1346 11 13 10
1.57086 -1.4493 4.37567 119 122 113
1.58895 -1.49266 4.37167 41 42 37
1.60278 -1.53095 4.37465 132 128 116
1.50862 -1.49677 4.50786 99 102 93
1.72308 -1.90446 4.37163 101 98 91
1.72308 -1.90446 4.37163 164 158 146
1.702 -1.88049 4.39378 86 88 77
1.50219 -1.46717 4.52672 104 104 96
1.47198 -1.45648 4.56553 97 98 90
1.4426 -1.69245 4.60965 87 83 72
1.58697 0.0308772 4.45091 77 77 65
1.56515 -0.305254 4.47983 77 77 65
1.63575 0.443406 4.42495 84 80 68
1.55299 -1.58159 4.55743 82 76 62
1.56892 -0.567103 4.51835 102 93 76
1.58399 -0.398499 4.50448 98 89 72
1.5821 -0.444327 4.50823 85 82 75
1.62454 0.170522 4.45476 70 56 43
1.6273 0.273703 4.4505 142 142 132
1.65902 0.586021 4.41732 95 87 76
1.63816 0.487557 4.43575 101 97 86
1.63179 0.307195 4.44777 115 105 93
1.65196 0.616561 4.43359 113 105 92
1.6019 -0.429988 4.51396 134 134 126
1.6234 0.126222 4.47792 129 126 117
1.60911 -1.81021 4.57237 120 120 112
1.67251 -1.92538 4.53902 130 130 118
1.67411 -1.93445 4.53926 124 124 116
1.65428 0.452935 4.47114 137 134 127
1.63858 0.290147 4.48918 118 112 98
1.75273 0.73139 4.40097 58 59 54
1.62082 -0.518126 4.5527 90 84 72
1.5719 -1.42134 4.62177 90 84 70
1.5372 -1.68247 4.66801 72 60 44
1.53285 -1.66929 4.67313 150 150 142
1.63329 -1.79746 4.60483 89 86 77
1.63143 -0.0606606 4.55505 120 113 103
1.64199 -1.79736 4.6128 117 111 97
1.65168 0.280366 4.53248 102 98 86
1.61604 -0.381763 4.58809 98 92 80
1.61604 -0.381763 4.58809 93 89 77
1.54115 -1.35584 4.6824 101 79 55
1.61032 -1.75278 4.64577 115 109 97
1.66825 0.630442 4.51217 75 65 55
1.63 -0.240286 4.57913 108 108 98
1.55608 -1.36528 4.67831 123 115 104
1.64234 -0.0688293 4.56373 123 115 104
1.67384 0.484603 4.52102 113 101 87
1.52564 -1.67375 4.71909 90 78 62
1.51509 -1.67154 4.72856 122 119 112
1.1818 0.747825 4.90022 120 112 101
1.3497 -2.18792 4.88369 114 106 95
1.67987 0.651406 4.52338 116 108 97
1.60793 -0.698368 4.63376 130 129 125
1.67859 -1.79541 4.63924 115 87 63
1.72093 -1.8829 4.62362 117 86 66
1.70752 -0.399712 4.64481 117 117 107
1.67654 0.475958 4.70309 61 62 54
1.78608 -1.86879 4.72184 118 118 110
1.68373 0.490253 4.71746 119 109 99
1.68373 0.490253 4.71746 72 70 58
1.77047 -0.399234 4.68555 74 68 56
1.84216 -0.136575 4.68997 117 109 98
1.64788 -1.83889 4.93451 140 125 106
-4.81273 -3.51898 10.8753 66 67 61
-4.81273 -3.51898 10.8753 130 117 101
-4.69058 -3.51116 11.0319 130 117 101
-4.66431 -3.53738 11.0359 121 112 97
-4.78092 -3.47121 11.1708 127 97 71
-4.66315 -3.46537 11.0661 68 65 58
1.95647 -0.392419 4.80347 81 78 69
-4.63995 -3.416 11.2002 81 78 69
-4.60213 -3.09501 11.2091 77 77 69
-4.58413 -3.14557 11.2188 74 73 68
-4.56819 -3.38934 11.2145 81 82 74
-4.58013 -3.11845 11.2619 78 75 68
-4.56676 -3.08053 11.284 89 86 79
-4.62022 -3.07429 11.3643 83 80 73
2.10747 -0.470003 4.8668 77 74 69
2.11765 -0.475826 4.86665 72 71 66
2.09482 -0.408115 4.89331 86 83 78
2.12863 -0.349747 4.90872 75 75 67
2.14013 -0.243723 4.89619 77 77 67
2.31417 0.934661 4.70963 78 75 68
2.22281 -0.415418 4.90776 87 84 79
2.34197 0.960967 4.72804 74 75 69
2.28478 -0.477251 4.92256 86 83 76
2.30001 0.159562 4.88246 0 0 0
2.30032 -0.239005 4.90619 0 0 0
2.30657 0.215337 4.87852 0 0 0
2.30428 -0.246449 4.90923 0 0 0
2.31317 -0.0441362 4.923 0 0 0
2.40243 0.820396 4.78351 0 0 0
2.33732 0.186654 4.90958 0 0 0
2.41682 0.847129 4.79084 0 0 0
2.41257 0.732595 4.81339 0 0 0
2.36699 0.632433 4.88738 0 0 0
2.43788 0.886242 4.8003 0 0 0
2.37813 0.519816 4.89349 0 0 0
2.39472 0.526954 4.90348 0 0 0
2.43214 -0.180837 4.90977 0 0 0
2.38573 -0.384995 4.9858 0 0 0
2.46111 0.704524 4.85053 0 0 0
2.42003 0.529222 4.92228 0 0 0
2.40362 0.157592 4.9607 0 0 0
2.40362 0.157592 4.9607 0 0 0
2.4643 0.485555 4.89311 0 0 0
2.48025 0.732917 4.86074 0 0 0
2.48025 0.732917 4.86074 0 0 0
2.39848 -0.0527249 4.99848 0 0 0
2.43165 0.326514 4.95695 0 0 0
2.42336 0.074848 4.98505 0 0 0
2.41273 -0.070297 5.00521 0 0 0
2.41133 -0.3488 5.03464 0 0 0
2.46133 0.640365 4.93621 0 0 0
2.44572 0.0450962 5.00406 0 0 0
2.47805 0.536211 4.96395 0 0 0
2.56694 0.713933 4.92521 0 0 0
2.58257 0.731124 4.93534 0 0 0
2.60307 0.792545 4.92227 0 0 0
2.60307 0.792545 4.92227 0 0 0
-3.09476 -3.27297 12.6037 0 0 0
-3.06949 -3.46805 12.5883 0 0 0
-3.04208 -3.55579 12.5903 0 0 0
-3.00703 -3.60233 12.5639 0 0 0
-2.85299 -3.50194 12.5422 0 0 0
-2.70113 -3.61454 12.6283 0 0 0
-11.3355 -7.96838 26.9325 0 0 0
-2.39401 -3.53705 13.1598 0 0 0
-2.46743 -3.3305 13.28 0 0 0
-2.43589 -3.41389 13.6006 0 0 0
3.09019 0.802521 5.58668 0 0 0
-3.26558 -3.25609 2.00458 0 0 0
-3.32037 -3.64695 2.14098 0 0 0
-3.46111 -4.04012 2.27467 0 0 0
-3.50507 -4.11088 2.31534 0 0 0
-3.55614 -4.21039 2.35465 0 0 0
-3.56437 -4.16958 2.35558 0 0 0
-3.59583 -4.25155 2.41507 164 171 187
-3.57962 -3.8555 2.52039 65 90 86
-3.58783 -3.40587 2.51587 158 166 179
-3.57315 -3.65982 2.53152 156 166 176
-1.1561 -0.223297 2.76306 155 165 175
-1.25407 -0.5437 2.82895 158 168 178
-0.399 -1.82868 3.14098 156 166 176
-4.3129 -4.08246 3.16536 31 32 26
-4.32995 -4.10056 3.19528 173 181 194
-0.364305 -1.43055 3.2267 14 19 13
0.0606829 0.421451 3.24797 48 48 36
0.0500686 0.359506 3.2532 129 135 123
0.0253741 0.306807 3.28565 183 191 176
0.0253741 0.306807 3.28565 87 89 88
-0.189426 -1.26176 3.36176 20 23 14
-0.174689 -1.3776 3.37285 185 173 159
-0.171888 -1.34429 3.37403 196 192 181
-0.0077281 -1.88796 3.40466 200 196 187
-23.4284 1.2605 3.88765 203 203 193
-0.22014 -0.0573735 3.39514 203 203 193
-0.208336 -1.68289 3.44277 109 102 92
-0.0848393 -1.84961 3.46228 99 91 80
-0.112001 -1.82353 3.46351 128 120 109
-0.126968 -1.78255 3.47225 18 20 9
-0.528919 0.278528 3.44677 204 201 192
-0.0733375 0.272285 3.43402 188 188 178
-0.210223 -0.365552 3.45956 74 70 58
-0.066509 0.0160012 3.48941 27 30 23
-0.0148273 0.609298 3.48215 59 56 51
-0.263164 -1.27769 3.53789 59 59 49
-0.0378475 0.394949 3.49101 203 200 191
-0.149265 -1.76613 3.55253 203 200 191
-0.292187 -1.33964 3.5486 211 209 197
-0.292187 -1.33964 3.5486 82 72 60
-0.07178 0.177557 3.50832 56 57 51
-0.132595 -0.44065 3.54191 202 200 188
-0.164139 -0.637797 3.56884 206 202 191
-0.225706 -1.31319 3.6206 188 191 182
-0.229396 -1.64638 3.64083 201 195 181
-0.186093 -1.70713 3.64019 201 195 181
