ply
format ascii 1.0 
element vertex 843
property float32 x 
property float32 y 
property float32 z
property uchar red  
property uchar green
property uchar blue
element face 0
property list uchar int vertex_indices
end_header
-1.49913 1.01722 2.59885 200 200 190
-1.48931 0.999682 2.61049 105 100 94
-1.4963 0.812724 2.64167 197 198 192
-1.49634 0.771715 2.65692 87 88 74
-1.47604 0.87184 2.6377 180 177 170
-1.4809 0.78776 2.64837 110 106 95
-1.46226 0.960396 2.63988 188 179 172
-1.4726 0.734398 2.69571 140 142 139
-1.52519 -0.241346 2.84526 108 109 104
-1.42189 0.944523 2.66018 129 128 126
-1.51757 -0.403907 2.86496 223 227 239
-1.415 0.873293 2.67285 114 114 104
-1.40355 1.00965 2.66058 99 98 94
-1.44684 0.689704 2.75158 213 209 206
-1.3963 1.00162 2.66571 110 111 105
-1.50079 -0.365776 2.88681 108 113 109
-1.49295 -0.275094 2.87809 120 122 121
-1.48433 -0.534752 2.86239 220 226 238
-1.46985 0.0921389 2.83713 119 121 107
-1.46985 0.0921389 2.83713 119 121 107
-1.49003 -0.402963 2.8848 218 228 238
-1.47584 -0.192532 2.85779 17 20 13
-1.42445 0.692193 2.77903 216 216 216
-1.4268 0.586146 2.7907 245 246 241
-1.38136 0.788373 2.70309 50 46 43
-1.38136 0.788373 2.70309 50 46 43
-1.36689 1.01252 2.68376 130 129 125
-1.45102 -0.120082 2.8696 58 60 55
-1.36708 0.856714 2.70447 210 210 208
-1.44652 -0.16442 2.86976 33 33 31
-1.44272 -0.206593 2.86243 47 49 44
-1.37092 0.782028 2.72668 30 30 28
-1.43471 -0.189747 2.85837 32 32 30
-1.36191 0.788144 2.71384 30 35 28
-1.43489 -0.20544 2.86897 43 43 41
-1.41718 0.200691 2.85629 107 103 92
-1.42719 0.00606722 2.87678 187 190 183
-1.39777 0.511085 2.82659 214 214 206
-1.42873 -0.354109 2.88719 109 113 112
-1.38839 0.683976 2.80778 216 215 211
-1.42782 -0.463263 2.89064 219 225 237
-1.42073 -0.335417 2.89257 112 112 112
-1.34172 0.781729 2.74297 32 39 31
-1.34172 0.781729 2.74297 32 39 31
-1.41242 -0.323181 2.8922 145 147 146
-1.41242 -0.323181 2.8922 145 147 146
-1.40869 -0.146123 2.89043 29 29 27
-1.40869 -0.146123 2.89043 29 29 27
-1.40726 -0.282838 2.89059 132 136 137
-1.40726 -0.282838 2.89059 132 136 137
-1.40821 -0.310676 2.89353 141 143 142
-1.3251 0.781181 2.75425 48 50 47
-1.35576 -0.159622 2.81948 11 12 7
-1.34952 -0.124823 2.8196 9 11 6
-1.34952 -0.124823 2.8196 9 11 6
-1.38778 -0.310541 2.90499 144 145 147
-1.3535 0.512667 2.85281 225 229 214
-1.37866 -0.32661 2.90972 148 150 149
-1.28953 1.0071 2.72547 152 153 155
-1.29812 0.791029 2.74461 213 214 209
-1.37277 -0.151217 2.90901 25 25 25
-1.37407 -0.467879 2.9198 219 225 237
-1.36524 0.0252573 2.90306 210 210 208
-1.35929 -0.162167 2.86484 29 29 27
-1.40839 -0.141597 2.9975 25 27 24
-1.32226 0.69142 2.82894 211 206 202
-1.27414 0.963013 2.74195 164 165 167
-1.34941 -0.221623 2.91087 44 46 43
-1.3329 0.28987 2.88377 220 220 218
-1.26027 0.98937 2.74557 178 180 179
-1.34315 -0.164167 2.92809 34 34 34
-1.34034 -0.137513 2.92626 22 25 18
-1.26634 0.797113 2.76202 113 111 99
-1.26473 0.791073 2.77079 131 131 123
-1.33195 -0.201101 2.92587 44 44 42
-1.32699 -0.0427484 2.93296 130 134 133
-1.32748 -0.462174 2.93973 216 224 235
-1.32141 0.204293 2.93161 157 159 158
-1.32601 -0.382442 2.94442 104 106 105
-1.30941 0.203265 2.90746 160 162 161
-1.2433 0.787307 2.78425 213 214 209
-1.31749 -0.442358 2.9512 217 223 235
-1.22233 0.79222 2.7854 124 124 122
-1.24651 0.723983 2.84541 204 205 199
-1.2466 0.723819 2.84584 204 205 199
-1.26095 0.620981 2.87875 219 218 214
-1.26118 0.674897 2.88076 162 162 154
-1.26768 0.446252 2.90012 219 220 215
-1.25923 0.581519 2.88437 220 221 216
-1.2593 0.570293 2.88722 224 225 220
-1.28022 0.0154517 2.94948 199 199 199
-1.29323 -0.248467 2.98049 98 106 109
-1.29323 -0.248467 2.98049 98 106 109
-1.29801 -0.386319 2.99766 163 163 163
-1.20852 0.840012 2.79407 213 208 204
-1.20931 0.783743 2.81093 211 212 206
-1.18126 0.791039 2.81366 210 211 205
-1.2476 -0.196328 3.06741 48 47 43
-1.21333 0.514271 2.99354 205 204 202
-1.21197 0.512786 2.99423 208 207 205
-1.2358 -0.380171 3.09624 206 207 202
-1.22669 -0.367814 3.09999 204 205 200
-1.12493 -0.37271 3.14816 206 203 196
-1.11464 -0.405329 3.15174 131 123 112
-1.11348 -0.367726 3.15472 209 208 204
-1.01515 -0.374506 3.20569 210 207 200
-0.979307 -0.394007 3.21952 211 211 203
-0.965196 -0.0925602 3.19681 20 22 17
-0.956856 -0.393786 3.23952 208 209 203
-0.941022 -0.373617 3.24171 200 197 190
-0.941022 -0.373617 3.24171 200 197 190
-0.939861 -0.409706 3.24577 209 208 203
-0.931735 -0.440743 3.23489 205 202 195
-0.931135 -0.359571 3.24374 204 201 196
-0.908263 -0.176622 3.27119 28 30 27
-0.862087 -0.624446 3.32831 208 209 204
-0.83799 -0.00765021 3.25439 165 165 165
-0.844607 -0.392166 3.2928 209 208 204
-0.81717 0.500146 3.19919 221 222 224
-0.812345 0.696259 3.1835 27 27 19
-0.844963 -0.685298 3.33232 207 204 197
-0.830538 -0.193722 3.27952 58 60 59
-0.906603 -1.70246 3.58695 13 16 7
-0.821483 0.0122374 3.26564 185 185 185
-0.814263 -0.438437 3.29355 211 210 205
-0.808979 -0.202495 3.29054 40 42 39
-0.811949 -0.356919 3.31215 199 201 198
-0.805065 -0.446692 3.29749 212 211 206
-0.801614 -0.195377 3.31119 34 34 34
-0.799123 -0.213143 3.30211 40 42 39
-0.801346 -0.373564 3.32568 207 208 203
-0.79758 -0.32817 3.31413 149 151 148
-0.796013 -0.391605 3.31207 211 210 206
-0.786569 -0.147856 3.28927 22 24 19
-0.777047 -0.0285978 3.28271 147 147 147
-0.781888 -0.372184 3.33213 207 208 203
-0.787785 -0.578925 3.36304 212 213 208
-0.779321 -0.585883 3.35237 214 213 208
-0.763372 -0.0304088 3.29856 145 145 145
-0.763372 -0.0304088 3.29856 145 145 145
-0.767971 -0.437607 3.31945 212 211 207
-0.743028 0.662153 3.21597 18 19 11
-0.766255 -0.531364 3.3436 207 212 208
-0.761243 -0.545261 3.34503 219 218 213
-0.749837 -0.0163594 3.29736 153 153 153
-0.773523 -1.41133 3.40724 123 124 119
-0.775387 -1.40122 3.41948 91 90 86
-0.750775 -0.482299 3.32247 202 199 194
-0.72807 0.684871 3.2271 13 18 12
-0.758774 -1.42949 3.42061 20 20 18
-0.594735 -1.55524 3.25512 1 13 9
-0.607439 0.254194 3.32678 174 176 171
-0.583854 0.245326 3.20214 174 176 171
-0.59378 -1.52753 3.27037 63 78 75
-0.588419 -1.53563 3.26503 152 140 140
-0.529621 0.389032 3.00823 99 102 93
-0.52104 0.588682 2.98586 11 16 9
-0.517959 0.687813 2.97521 38 38 26
-0.511051 0.791603 2.9596 37 37 25
-0.509649 0.75838 2.96891 38 38 26
-0.503892 0.96248 2.94135 13 16 7
-0.502486 0.99821 2.93655 17 20 13
-0.498147 0.994902 2.94066 14 17 10
-0.491689 0.774962 2.97709 31 32 18
-0.500164 0.227806 3.10707 178 177 172
-0.475548 0.355147 3.04174 226 228 225
-0.475548 0.355147 3.04174 226 228 225
-0.460124 0.786404 2.99366 37 38 24
-0.438851 0.904354 2.98674 50 50 38
-0.438851 0.904354 2.98674 50 50 38
-0.435614 0.283366 3.07598 188 190 187
-0.428796 0.384145 3.06395 231 232 227
-0.383006 0.699458 3.05214 19 22 13
-0.383006 0.699458 3.05214 19 22 13
-0.368585 0.453929 3.08946 220 221 216
-0.400056 -1.38593 3.35626 17 17 7
-0.402641 -1.7213 3.42775 21 22 16
-0.386274 -1.39697 3.34935 59 58 53
-0.332021 0.363932 3.12369 227 228 222
-0.364219 -1.65666 3.43042 58 60 49
-0.322522 0.443527 3.12095 219 220 215
-0.311685 1.01572 3.04099 13 16 9
-0.340279 -1.3745 3.35096 164 160 149
-0.347909 -1.68825 3.44348 52 48 37
-0.315867 0.368784 3.12873 209 208 203
-0.295239 0.454816 3.13208 220 219 214
-0.295239 0.454816 3.13208 220 219 214
-0.297389 -1.76684 3.49225 44 46 35
-0.255518 0.481748 3.16094 192 196 199
-0.254397 0.228975 3.22846 162 159 150
-0.254397 0.228975 3.22846 162 159 150
-0.270038 -1.70422 3.49361 50 46 37
-0.236652 0.825284 3.11426 18 19 13
-0.236652 0.825284 3.11426 18 19 13
-0.256522 -1.757 3.51027 62 55 45
-0.253533 -1.65669 3.49522 41 35 23
-0.224719 0.459091 3.17608 152 153 147
-0.244441 -1.70465 3.51004 70 66 54
-0.242467 -1.63197 3.49797 63 57 43
-0.166446 0.576943 3.19507 128 129 131
-0.165788 0.476653 3.20649 171 172 167
-0.157001 0.665165 3.18585 109 117 120
-0.15781 0.479245 3.20865 160 161 156
-0.17226 -1.53594 3.50267 25 26 20
-0.143782 0.449037 3.22402 156 157 151
-0.143782 0.449037 3.22402 156 157 151
-0.13769 0.440367 3.2229 42 35 29
-0.142654 -1.82513 3.76382 72 49 41
-0.0782446 -1.88202 3.75063 126 131 135
-0.0797016 -1.87695 3.73832 126 131 135
-0.0126186 -1.86943 3.83885 88 88 80
-0.0117448 -1.60772 3.93387 26 23 14
-0.0117448 -1.60772 3.93387 26 23 14
-0.0104234 -1.63275 3.93535 68 66 54
-0.00796183 -1.56514 3.92933 105 103 91
-0.00796183 -1.56514 3.92933 105 103 91
-0.00432628 -1.61653 3.93515 101 101 91
-0.00144138 -1.54403 3.9306 70 67 60
0.00596538 -1.52052 3.92877 63 66 59
0.00582963 -1.60821 3.94231 53 52 47
0.0325018 -1.58118 3.95518 77 74 67
0.0447625 -1.63613 3.97374 71 73 62
0.0472414 -1.65535 3.97442 67 66 61
0.0497086 -1.61825 3.9699 62 65 56
0.049678 -1.60315 3.96788 75 74 69
0.0490751 -1.87639 3.88484 100 96 85
0.0590081 -1.68453 3.98228 66 66 56
0.06394 -1.51894 3.96281 73 69 60
0.064082 -1.51956 3.96365 73 69 60
0.0827562 -1.9114 3.89795 104 100 91
0.145038 -1.91133 3.93222 120 116 107
0.148938 -1.96601 3.90091 118 111 101
0.171512 -1.49445 4.01854 25 24 20
0.175558 -1.93854 3.94041 114 110 101
0.181739 -1.71431 4.04682 56 55 50
0.177145 -1.96343 3.9114 118 109 100
0.177145 -1.96343 3.9114 118 109 100
0.22148 -1.35271 4.06343 169 162 152
0.28288 -1.37574 4.07429 161 157 146
0.299611 -1.90053 4.01983 82 81 77
0.309336 -1.25095 4.06718 112 108 99
0.313205 -1.68014 4.12708 139 135 124
0.313205 -1.68014 4.12708 139 135 124
0.307842 -1.314 4.05137 130 127 118
0.307576 -1.87143 4.02014 79 75 72
0.313154 -1.32131 4.05079 124 120 111
0.324286 -1.93729 4.01797 69 70 65
0.321736 -2.00151 3.97289 76 77 72
0.335817 -1.6596 4.13725 149 142 134
0.334864 -1.6581 4.1325 149 142 134
0.335421 -1.68164 4.13609 129 125 116
0.335421 -1.68164 4.13609 129 125 116
0.33131 -1.34621 4.0613 104 94 84
0.33928 -1.60748 4.13064 134 130 121
0.340785 -1.59729 4.1353 134 135 127
0.362432 -1.67243 4.15209 123 114 105
0.354787 -1.87252 4.05104 69 55 52
0.364639 -1.64046 4.1488 141 132 123
0.361307 -1.2862 4.07465 140 141 135
0.359518 -2.00225 3.99494 69 70 65
0.376769 -1.54694 4.14738 94 96 91
0.383373 -1.75215 4.18517 99 99 91
0.382746 -1.56469 4.15348 112 113 108
0.383535 -1.61132 4.15608 95 98 91
0.383535 -1.61132 4.15608 95 98 91
0.376807 -1.8736 4.06155 100 87 81
0.387221 -1.87097 4.06875 148 141 131
0.386016 -1.96354 4.02873 70 71 66
0.387115 -1.96585 4.03373 70 71 66
0.414411 -1.87204 4.08331 125 126 118
0.425675 -1.66592 4.1767 112 112 104
0.42555 -1.35659 4.10987 108 111 104
0.42897 -1.29681 4.11786 126 125 120
0.429148 -1.38439 4.09976 113 115 110
0.434707 -1.39898 4.1048 99 101 96
0.435766 -1.87155 4.09363 103 102 97
0.451552 -1.40361 4.10583 122 123 117
0.468637 -1.87376 4.1161 108 107 102
0.503166 -1.35056 4.20983 99 98 93
0.500136 -1.34697 4.19698 99 98 93
0.507528 -1.71402 4.22473 109 111 106
0.496269 -1.93873 4.121 93 82 76
0.512746 -1.69634 4.23611 107 106 102
0.525318 -1.96342 4.11112 48 53 49
0.545849 -1.34541 4.22365 118 117 112
0.539567 -1.87027 4.15315 108 108 100
0.539206 -1.93826 4.14481 100 100 92
0.556886 -1.89742 4.16086 108 109 104
0.575319 -1.7241 4.28175 128 129 123
0.596165 -1.59379 4.27534 106 107 101
0.601673 -1.6536 4.28627 97 98 92
0.607604 -1.63786 4.28394 114 117 108
0.610473 -1.62289 4.28545 135 135 125
0.62249 -1.57108 4.29118 102 101 97
0.617125 -1.87192 4.2015 85 85 75
0.635643 -1.46874 4.29008 105 106 100
0.640975 -1.57125 4.29821 112 113 107
0.643342 -1.58881 4.30608 105 106 100
0.640723 -1.44432 4.2732 113 114 106
0.641006 -1.50118 4.28186 123 124 118
0.654139 -1.55349 4.30595 137 138 132
0.661698 -1.6803 4.32176 100 101 95
0.677165 -1.50933 4.31384 104 103 98
0.671538 -1.40207 4.2735 104 106 101
0.684777 -1.60211 4.32558 119 120 114
0.686313 -1.96466 4.20352 108 108 100
0.703615 -1.89791 4.24876 101 101 93
0.703615 -1.89791 4.24876 101 101 93
0.714569 -1.87127 4.25228 80 77 68
0.71868 -1.86935 4.25657 93 93 81
0.744956 -1.86966 4.27 107 97 85
0.756532 -0.98342 4.28541 123 117 105
0.755444 -1.88628 4.26988 111 103 90
0.780126 -1.68458 4.39064 114 107 97
0.778863 -1.65481 4.37972 115 107 96
0.780735 -1.63463 4.38521 124 115 106
0.782826 -1.58699 4.3769 118 110 99
0.774104 -1.86426 4.31713 110 101 92
0.797303 -0.426231 4.4337 131 122 113
0.772084 -1.87193 4.285 101 97 85
0.797242 -1.6819 4.39539 105 98 88
0.797495 -1.63512 4.39066 97 87 78
0.805857 -0.443569 4.43675 128 120 109
0.818904 -2.34473 4.4867 86 83 74
0.821725 -1.34217 4.37695 117 111 99
0.841569 -2.35579 4.48745 94 92 80
0.808731 -1.87246 4.30579 108 102 90
0.824644 -1.49155 4.38516 115 109 97
0.824644 -1.49155 4.38516 115 109 97
0.824644 -1.49155 4.38516 115 109 97
0.870728 -1.32528 4.40357 124 116 105
0.844871 0.845317 4.27479 99 99 91
0.903171 -2.34574 4.536 78 78 68
0.903171 -2.34574 4.536 78 78 68
0.84939 -2.00684 4.2172 104 100 88
0.905927 -1.39972 4.4344 111 104 94
0.883432 -0.414008 4.28277 100 96 87
0.921681 -1.64109 4.45056 117 113 101
0.882478 -0.474533 4.25946 85 86 81
0.883565 -1.94663 4.26274 100 98 86
0.887555 -1.8777 4.28101 111 107 96
0.925554 -1.76448 4.41694 0 0 0
0.935328 -0.967836 4.38037 0 0 0
0.983154 -2.34739 4.57332 0 0 0
0.95737 -1.44036 4.40633 0 0 0
0.951081 -1.44863 4.36257 0 0 0
0.955192 -0.897689 4.36737 0 0 0
0.999882 -2.35673 4.5704 0 0 0
0.963957 -1.53678 4.3913 0 0 0
0.961204 -0.704997 4.3602 0 0 0
0.968632 -1.40409 4.39469 0 0 0
1.01937 -2.34861 4.59238 0 0 0
1.01937 -2.34861 4.59238 0 0 0
0.982398 -0.729433 4.35823 0 0 0
0.975631 -0.480187 4.30241 0 0 0
0.983909 -0.554909 4.31928 0 0 0
1.00801 -1.38496 4.41259 0 0 0
0.947758 0.830755 4.14789 0 0 0
1.01017 -1.40146 4.4076 0 0 0
1.04739 -2.35157 4.55768 0 0 0
0.954483 0.82087 4.15142 0 0 0
1.02183 -1.3883 4.42032 0 0 0
0.985651 0.170037 4.26621 0 0 0
0.987055 0.0637212 4.2619 0 0 0
0.996051 -0.00265223 4.28403 0 0 0
1.02726 -1.34615 4.40021 0 0 0
1.01485 -1.64523 4.33821 0 0 0
0.995987 0.245105 4.2436 0 0 0
0.995231 0.47327 4.21955 0 0 0
1.03661 -1.36013 4.37682 0 0 0
0.998012 0.591803 4.20972 0 0 0
0.993393 -2.01537 4.17793 0 0 0
0.999549 -2.00281 4.18696 0 0 0
1.00328 0.728542 4.19886 0 0 0
1.00565 0.706417 4.20336 0 0 0
1.02987 -1.88366 4.25366 0 0 0
1.05956 -1.79254 4.34266 0 0 0
1.11615 -1.29456 4.33273 0 0 0
1.09624 -1.89587 4.15769 0 0 0
1.12198 -1.82575 4.22264 0 0 0
1.14148 -1.76338 4.28886 0 0 0
1.10429 -1.91558 4.14554 0 0 0
1.14108 -1.7043 4.28321 0 0 0
1.09626 -1.98117 4.11175 0 0 0
1.14835 -1.77836 4.26327 0 0 0
1.12926 -1.89513 4.17081 0 0 0
1.14276 -1.41147 4.19198 0 0 0
1.12123 1.05134 4.05811 0 0 0
1.18849 -1.34943 4.24842 0 0 0
1.23737 -1.7906 4.34851 0 0 0
1.31347 -2.35824 4.50192 0 0 0
1.18629 0.319465 3.98659 0 0 0
1.19153 0.37031 3.98066 0 0 0
1.19914 0.360343 3.97896 0 0 0
1.27993 -1.9567 4.2469 0 0 0
1.20049 0.378051 3.97873 0 0 0
1.32618 -1.74319 4.38983 0 0 0
1.20302 0.802821 3.93761 0 0 0
1.39343 -2.37055 4.54157 0 0 0
1.32204 -1.89492 4.28236 0 0 0
1.20596 1.03352 3.90533 0 0 0
1.2164 0.784497 3.93483 0 0 0
1.21902 1.02946 3.90604 0 0 0
1.2282 0.845868 3.92908 0 0 0
1.43547 -2.36093 4.58293 0 0 0
1.39024 -1.73703 4.41855 0 0 0
1.36522 -1.89031 4.29813 0 0 0
1.39859 -1.90083 4.31415 0 0 0
1.30807 0.471299 4.03152 0 0 0
1.30807 0.471299 4.03152 0 0 0
1.34441 0.264958 4.12942 0 0 0
1.40596 -1.98392 4.28849 0 0 0
1.40596 -1.98392 4.28849 0 0 0
1.43014 -1.95839 4.33072 0 0 0
1.47175 -1.30485 4.43443 0 0 0
1.32642 -1.89767 3.9889 0 0 0
1.46019 -1.24847 4.38739 0 0 0
1.45113 -2.05793 4.33252 0 0 0
1.45767 -2.02796 4.28946 0 0 0
1.4096 1.0331 4.01005 0 0 0
1.44916 0.471307 4.11577 0 0 0
1.57733 0.474162 4.1916 0 0 0
1.86114 -0.083977 4.77977 0 0 0
1.66479 0.808924 4.18816 0 0 0
1.66468 1.03771 4.15521 0 0 0
1.95959 -0.326454 4.8611 0 0 0
2.03661 -0.296576 4.89727 0 0 0
2.06312 -0.780524 4.96237 0 0 0
2.02819 0.186347 4.86362 0 0 0
2.02819 0.186347 4.86362 0 0 0
2.04466 -0.142465 4.89024 0 0 0
2.04466 -0.142465 4.89024 0 0 0
2.08186 -0.658859 4.96588 0 0 0
2.07433 -0.653957 4.95098 0 0 0
2.08784 -0.536656 4.9285 0 0 0
2.07569 -0.49256 4.89525 0 0 0
2.08218 -0.103311 4.89878 0 0 0
2.08754 -0.188395 4.9108 0 0 0
2.08385 0.000975091 4.88443 0 0 0
2.09698 -0.137913 4.91108 0 0 0
2.12126 -0.242589 4.9177 0 0 0
2.11773 -0.372301 4.90651 0 0 0
2.1217 -0.20075 4.90092 0 0 0
2.13646 -0.266304 4.88478 0 0 0
2.14006 -0.382411 4.89082 0 0 0
2.14437 -0.208379 4.8675 0 0 0
2.14898 -0.141109 4.87803 0 0 0
2.20864 -0.675336 5.00379 0 0 0
2.14026 0.50339 4.84409 0 0 0
2.15438 -0.0988187 4.87539 0 0 0
2.12863 0.739809 4.8133 0 0 0
2.17022 -0.351653 4.90518 0 0 0
2.17498 -0.173801 4.91128 0 0 0
2.15532 0.0328437 4.86267 0 0 0
2.13247 0.768581 4.80669 0 0 0
2.14479 0.728815 4.82809 0 0 0
2.14846 0.231886 4.8338 0 0 0
2.1727 -0.213938 4.88371 0 0 0
2.15202 0.298045 4.83559 0 0 0
2.15528 0.156971 4.84119 0 0 0
2.15592 0.326262 4.83058 0 0 0
2.18438 -0.126441 4.89273 0 0 0
2.15347 0.621845 4.8219 0 0 0
2.16313 0.14113 4.84432 0 0 0
2.19615 -0.0948193 4.89343 0 0 0
2.19111 -0.197805 4.88145 0 0 0
2.19111 -0.197805 4.88145 0 0 0
2.20722 -0.394744 4.90901 0 0 0
2.20297 -0.391455 4.90109 0 0 0
2.12446 1.06937 4.71028 0 0 0
2.20244 -0.18114 4.88016 0 0 0
2.20244 -0.18114 4.88016 0 0 0
2.17086 0.724907 4.802 0 0 0
2.22008 -0.326834 4.90444 0 0 0
2.22008 -0.326834 4.90444 0 0 0
2.22156 -0.0946467 4.90557 0 0 0
2.17173 0.687898 4.784 0 0 0
2.1519 0.767195 4.73929 0 0 0
2.14685 0.780458 4.71811 0 0 0
2.15062 0.816509 4.72591 0 0 0
2.2113 0.826144 4.8459 0 0 0
2.14426 0.800153 4.69803 0 0 0
2.18865 0.658831 4.79277 0 0 0
2.22907 0.159057 4.88224 0 0 0
2.2507 -0.0944628 4.92701 0 0 0
2.14615 1.05626 4.67902 0 0 0
2.27134 -0.0935479 4.92816 0 0 0
2.1467 1.01625 4.65481 0 0 0
2.19145 0.756225 4.74289 0 0 0
2.33129 -0.552958 5.04898 0 0 0
2.16668 1.04136 4.66085 0 0 0
2.30663 -0.163 4.94078 0 0 0
2.3227 -0.421643 4.96788 0 0 0
2.31718 0.441089 4.92232 0 0 0
2.33657 -0.171258 4.95151 0 0 0
2.30244 0.622405 4.87107 0 0 0
2.36522 -0.391437 4.98962 0 0 0
2.39221 -0.488005 5.03867 0 0 0
2.36354 0.178834 4.94699 0 0 0
2.40654 -0.427777 5.01799 0 0 0
2.38337 0.333726 4.9521 0 0 0
2.37184 0.378852 4.93045 0 0 0
2.35959 0.621883 4.89636 0 0 0
2.37855 0.529449 4.91232 0 0 0
2.40251 1.06294 4.79483 0 0 0
2.49638 0.834411 4.87298 0 0 0
2.90945 0.830405 5.37164 0 0 0
2.92865 0.831864 5.36828 0 0 0
2.92851 1.09799 5.31697 0 0 0
4.09495 -3.80652 7.43262 0 0 0
2.92801 1.04497 5.31301 0 0 0
2.92801 1.04497 5.31301 0 0 0
4.13366 -3.71156 7.44953 0 0 0
4.15223 -3.79207 7.46923 0 0 0
4.14339 -3.79579 7.42637 0 0 0
4.20721 -3.28436 7.45142 0 0 0
4.19254 -3.79717 7.41195 0 0 0
4.16738 -3.84087 7.30883 0 0 0
4.16738 -3.84087 7.30883 0 0 0
4.28722 -3.76569 7.47899 0 0 0
4.24504 -3.10209 7.21866 0 0 0
4.24504 -3.10209 7.21866 0 0 0
4.26506 -2.83719 7.18238 0 0 0
4.2507 -2.61825 7.15075 0 0 0
4.28468 -3.11954 7.19687 0 0 0
4.2695 -2.73936 7.14797 0 0 0
4.2695 -2.73936 7.14797 0 0 0
4.36635 -2.93332 7.25617 0 0 0
4.36384 -3.03929 7.1885 0 0 0
3.62124 0.899575 5.89185 0 0 0
4.37067 -2.06376 7.07332 0 0 0
4.37348 -2.06129 7.05565 0 0 0
-1.50404 0.998034 2.62815 100 93 83
-1.46788 0.962816 2.64747 188 179 172
-1.54297 -0.445878 2.86632 220 226 238
-1.5323 -0.23877 2.86109 88 86 74
-1.42102 0.82202 2.68105 130 130 128
-1.42102 0.82202 2.68105 130 130 128
-1.51949 -0.169587 2.87346 108 112 115
-1.41997 0.751849 2.7051 200 195 192
-1.40296 1.01331 2.67399 118 119 113
-1.40063 1.0043 2.67406 110 111 105
-1.41318 0.7551 2.70965 205 204 199
-1.48087 0.0325141 2.8593 125 122 115
-1.48927 -0.529948 2.87919 220 226 238
-1.48228 -0.4664 2.87115 222 226 238
-1.47606 0.0399101 2.86074 122 122 112
-1.45982 0.259098 2.84044 212 212 210
-1.43295 0.587122 2.80281 245 246 241
-1.45337 -0.264534 2.86986 118 120 119
-1.42726 0.481438 2.82034 220 216 213
-1.4525 -0.129107 2.87501 87 87 85
-1.41924 0.489485 2.82268 216 213 208
-1.41924 0.489485 2.82268 216 213 208
-1.43934 -0.158399 2.88242 24 24 22
-1.40943 0.434628 2.83481 225 216 211
-1.46228 -0.169169 2.97383 30 32 29
-1.41955 0.0273134 2.88857 157 152 148
-1.42144 -0.335148 2.89365 112 112 112
-1.41297 -0.22293 2.87714 44 45 39
-1.40853 -0.0447661 2.89834 120 124 127
-1.4049 -0.464241 2.90195 218 224 236
-1.30916 1.01208 2.71223 145 143 146
-1.3969 -0.26159 2.89917 122 126 127
-1.45614 -0.680439 3.02304 215 221 233
-1.39199 -0.0435718 2.90545 127 133 133
-1.3814 -0.0862412 2.91578 12 17 11
-1.29331 0.788919 2.73732 213 214 209
-1.37655 -0.0449734 2.91375 131 133 132
-1.36929 -0.137215 2.91434 25 27 24
-1.3291 0.694003 2.8308 108 105 96
-1.28404 0.776969 2.76266 128 119 112
-1.36408 -0.0583754 2.97323 130 131 135
-1.34486 -0.188529 2.93346 44 46 45
-1.34261 -0.118361 2.92963 33 34 29
-1.31968 0.128828 2.91079 15 18 11
-1.2571 0.778873 2.77321 178 173 170
-1.32754 -0.0109968 2.93728 176 176 176
-1.31117 0.202955 2.90886 157 159 158
-1.30689 0.202991 2.90346 160 162 161
-1.27453 0.693507 2.86065 210 209 205
-1.29144 0.291368 2.90145 221 221 219
-1.22944 0.845553 2.7636 215 214 209
-1.23005 0.790471 2.76984 223 224 219
-1.30751 0.0587673 2.97023 221 221 219
-1.25175 0.70776 2.85676 214 213 208
-1.2387 -0.38042 3.1013 206 207 202
-1.21328 -0.369945 3.11122 207 208 203
-1.21199 -0.410685 3.10954 205 204 199
-1.19346 -0.0336922 3.07651 142 146 147
-1.151 -0.37846 3.1386 202 198 189
-1.13519 -0.416412 3.13907 197 190 180
-1.13647 -0.376011 3.15091 201 201 193
-1.11781 -0.417066 3.14447 119 119 111
-1.10312 -0.416073 3.15083 155 157 156
-1.08254 -0.365824 3.17127 118 112 100
-1.06559 -0.44152 3.15168 212 211 207
-1.01346 -0.373838 3.20226 210 207 200
-0.981524 -0.438845 3.19021 210 207 200
-0.974972 -0.364869 3.22185 209 209 199
-0.932417 -0.39467 3.1078 207 204 197
-0.965756 -0.409268 3.2191 207 204 197
-0.856482 0.0194954 3.2425 194 194 194
-0.84916 0.0260262 3.24518 200 200 198
-0.839261 0.0662475 3.22791 218 218 216
-0.847655 -0.356072 3.28884 152 151 149
-0.817903 0.00206043 3.21769 178 178 178
-0.827099 0.00278109 3.25433 178 178 178
-0.814103 0.089402 3.24874 226 226 224
-0.810949 -0.180122 3.29222 27 29 24
-0.791224 -0.228376 3.29419 40 42 37
-0.794363 -0.6113 3.33365 210 209 205
-0.778925 -0.435124 3.28741 211 210 206
-0.763641 -0.028236 3.23241 147 147 147
-0.783242 -0.548709 3.32149 213 212 208
-0.772005 -0.435515 3.29137 213 209 206
-0.76596 -0.451947 3.29345 208 207 203
-0.695171 -0.434043 3.29596 212 211 207
-0.249694 -1.74979 3.47119 30 23 15
-0.201486 -1.7482 3.77214 27 27 19
-0.138573 -1.69466 3.87366 26 25 21
-0.138573 -1.69466 3.87366 26 25 21
-0.131159 -1.49514 3.84764 63 62 57
-0.127594 -1.81452 3.75629 231 223 220
-0.130264 -1.69903 3.87465 20 24 23
-0.112064 -1.86883 3.70093 35 31 30
-0.109498 -1.62732 3.89039 145 140 134
-0.108764 -1.59747 3.87749 66 58 55
-0.108187 -1.64957 3.88048 87 82 78
-0.0922195 -1.66462 3.8973 56 59 52
-0.0848111 -1.89622 3.71554 109 115 115
-0.0848111 -1.89622 3.71554 109 115 115
-0.0869261 -1.54094 3.88249 81 78 71
-0.0576294 -1.57401 3.90719 56 63 56
-0.0273552 -1.6706 3.93748 27 29 26
-0.023429 -1.86668 3.8267 90 91 83
-0.0185767 -1.5346 3.91922 68 68 58
-0.0186023 -1.58107 3.92722 74 74 64
-0.00459762 -1.64294 3.94065 87 82 76
0.000786011 -1.67549 3.94332 87 84 77
0.00163688 -1.87321 3.83521 93 90 83
0.00474413 -1.54163 3.93811 62 65 58
0.0159394 -1.63563 3.9554 56 56 54
0.016322 -1.49353 3.9616 68 69 63
0.0313627 -1.5466 3.95163 58 51 45
0.0320495 -1.58839 3.95842 73 70 65
0.0349763 -1.67962 3.97258 72 68 57
0.0410786 -1.6089 3.96492 73 72 68
0.0537063 -1.54535 3.96478 71 72 66
0.0538829 -1.5682 3.96838 70 73 64
0.0534755 -1.18851 3.88946 203 202 197
0.0577148 -1.65766 3.98301 64 65 57
0.0679664 -1.90762 3.87952 99 97 85
0.0705306 -1.64067 3.98496 91 86 80
0.131259 -1.89665 3.91541 120 113 103
0.131259 -1.89665 3.91541 120 113 103
0.137842 -1.91482 3.91982 122 115 107
0.148361 -1.95893 3.88588 118 111 101
0.156275 -1.86747 3.93154 120 111 102
0.183984 -1.68362 4.05762 19 19 11
0.186841 -1.86981 3.94795 120 116 107
0.211064 -1.86964 3.96497 114 110 99
0.220411 -1.35681 4.07262 169 162 152
0.223228 -1.93534 3.95949 115 111 102
0.2528 -1.37704 4.06911 165 158 148
0.266074 -1.88184 3.98986 103 98 94
0.276659 -1.8696 4.00281 81 82 76
0.289724 -1.58038 4.10785 160 153 143
0.289356 -1.27619 4.06619 145 137 126
0.289356 -1.27619 4.06619 145 137 126
0.296509 -1.58692 4.10915 159 150 141
0.316135 -1.53992 4.11405 154 149 143
0.311577 -1.39874 4.0331 146 141 135
0.324235 -1.62116 4.12969 148 148 140
0.324235 -1.62116 4.12969 148 148 140
0.330941 -1.34772 4.06534 104 94 84
0.353041 -1.87064 4.04416 47 39 36
0.359857 -1.96434 4.01649 75 77 72
0.359857 -1.96434 4.01649 75 77 72
0.369502 -1.23261 4.08896 140 143 136
0.379307 -1.64842 4.16116 126 122 113
0.379307 -1.64842 4.16116 126 122 113
0.374285 -1.28818 4.08872 114 115 107
0.382434 -1.62335 4.16541 103 104 98
0.382311 -1.87982 4.05699 28 30 25
0.390901 -1.48701 4.13972 114 115 109
0.399189 -1.58193 4.1681 119 116 109
0.399189 -1.58193 4.1681 119 116 109
0.415618 -1.25293 4.11925 122 121 116
0.415618 -1.25293 4.11925 122 121 116
0.416241 -1.96154 4.04237 64 65 60
0.416241 -1.96154 4.04237 64 65 60
0.434416 -1.87015 4.08885 120 119 114
0.440829 -1.96152 4.05647 58 60 57
0.440829 -1.96152 4.05647 58 60 57
0.469445 -1.89925 4.11655 148 149 141
0.469445 -1.89925 4.11655 148 149 141
0.491951 -1.69791 4.23122 107 108 102
0.491951 -1.69791 4.23122 107 108 102
0.49163 -1.62547 4.21132 113 115 110
0.511376 -1.87264 4.13642 102 103 95
0.51481 -1.89449 4.13176 87 88 80
0.545522 -1.34834 4.23163 118 117 112
0.558667 -1.87268 4.16234 96 97 91
0.567526 -1.96113 4.12994 45 49 48
0.603148 -1.51883 4.27769 102 103 97
0.623723 -1.62599 4.29989 124 121 112
0.623723 -1.62599 4.29989 124 121 112
0.626013 -1.67302 4.30481 113 114 108
0.631331 -1.67372 4.31143 121 122 116
0.657409 -1.53978 4.307 110 107 100
0.662734 -1.69314 4.3279 105 108 101
0.663447 -1.56128 4.31632 113 115 110
0.664271 -1.53245 4.31464 132 129 122
0.67131 -1.64254 4.33067 129 130 124
0.755649 -1.28267 4.37932 115 105 95
0.7673 -1.62942 4.3821 119 109 99
0.771252 0.357722 4.40495 133 109 85
0.769313 -1.21218 4.33633 128 122 110
0.777227 -1.61166 4.38012 118 109 100
0.785094 -1.61872 4.39096 119 111 100
0.773717 -1.05581 4.31964 128 122 110
0.786409 -1.54495 4.38284 107 100 90
0.786409 -1.54495 4.38284 107 100 90
0.815446 -1.31827 4.38512 108 99 90
0.892307 -0.511344 4.292 101 94 86
0.920397 -0.5132 4.3257 0 0 0
0.945641 -0.921657 4.41086 0 0 0
0.934182 -1.99489 4.24394 0 0 0
0.99793 -0.375672 4.3792 0 0 0
1.00885 -1.38996 4.42705 0 0 0
1.00205 -0.184414 4.35186 0 0 0
1.16449 -1.76451 4.30169 0 0 0
1.16647 -1.73652 4.29809 0 0 0
1.19225 -1.70623 4.31309 0 0 0
1.19424 -1.74537 4.31699 0 0 0
1.29491 -1.32327 4.36659 0 0 0
1.31035 -1.98939 4.24194 0 0 0
1.31035 -1.98939 4.24194 0 0 0
1.32437 -1.96181 4.2724 0 0 0
1.4246 -1.87667 4.48269 0 0 0
1.40794 -1.73661 4.42662 0 0 0
1.3618 -1.98567 4.26423 0 0 0
1.3618 -1.98567 4.26423 0 0 0
1.46417 -1.70927 4.44864 0 0 0
1.44048 -1.89226 4.34476 0 0 0
1.43757 -1.9005 4.33584 0 0 0
1.494 -1.73193 4.46783 0 0 0
1.48359 -1.88867 4.36279 0 0 0
1.56035 -0.361537 4.424 0 0 0
1.71773 -0.35156 4.75606 0 0 0
1.72011 -0.368577 4.74647 0 0 0
1.73432 -0.027004 4.73715 0 0 0
2.08112 -0.42224 5.65396 0 0 0
1.86064 -0.0227018 4.95492 0 0 0
1.79713 -0.450423 4.7697 0 0 0
1.87099 -0.378434 4.83198 0 0 0
1.93648 0.050744 4.97352 0 0 0
1.88367 -0.397145 4.8187 0 0 0
1.95226 0.0985923 4.97742 0 0 0
1.9128 -0.353961 4.85313 0 0 0
1.90946 -0.0718653 4.81982 0 0 0
1.97283 0.213048 4.97067 0 0 0
1.98448 0.381337 4.94656 0 0 0
1.9897 0.738873 4.91128 0 0 0
1.99201 -0.347774 4.89362 0 0 0
1.99296 -0.361332 4.89084 0 0 0
2.04361 -0.254065 4.95763 0 0 0
2.01185 -0.248028 4.87171 0 0 0
2.02578 -0.458993 4.8863 0 0 0
2.02578 -0.458993 4.8863 0 0 0
2.052 -0.671583 4.94114 0 0 0
2.03729 -0.378594 4.8983 0 0 0
2.04659 -0.299297 4.9057 0 0 0
2.03169 -0.0366842 4.85601 0 0 0
2.04855 -0.177788 4.8913 0 0 0
2.04544 0.528814 4.80845 0 0 0
2.08062 0.0360419 4.88663 0 0 0
2.03636 0.84799 4.75175 0 0 0
2.08763 0.341835 4.85133 0 0 0
2.1086 0.0356376 4.89959 0 0 0
2.12113 -0.0262171 4.90435 0 0 0
2.1253 0.00534348 4.8896 0 0 0
2.1291 0.145054 4.88724 0 0 0
2.1358 -0.324424 4.89182 0 0 0
2.10391 0.73795 4.81189 0 0 0
2.1006 0.810307 4.79778 0 0 0
2.12525 -0.45177 4.85397 0 0 0
2.11479 0.773958 4.81294 0 0 0
2.15639 -0.31389 4.90001 0 0 0
2.15684 -0.325786 4.90086 0 0 0
2.1211 0.785595 4.81042 0 0 0
2.14731 -0.0384621 4.8664 0 0 0
2.1924 -0.667346 4.96714 0 0 0
2.16049 -0.425959 4.89196 0 0 0
2.15787 -0.192847 4.88201 0 0 0
2.16709 -0.378977 4.90159 0 0 0
2.14922 0.144429 4.85548 0 0 0
2.13946 0.745786 4.81743 0 0 0
2.15081 0.533077 4.83898 0 0 0
2.17531 -0.243961 4.8936 0 0 0
2.17929 -0.160143 4.90173 0 0 0
2.15328 0.266581 4.84248 0 0 0
2.18112 -0.203361 4.88482 0 0 0
2.15529 0.70444 4.81599 0 0 0
2.17929 0.28995 4.8465 0 0 0
2.20037 0.156378 4.87527 0 0 0
2.21259 -0.0187139 4.89267 0 0 0
2.16319 0.748882 4.77835 0 0 0
2.21278 -0.240577 4.88772 0 0 0
2.19786 0.411482 4.84312 0 0 0
2.24184 -0.255717 4.90508 0 0 0
2.24545 -0.29759 4.90676 0 0 0
2.24545 -0.29759 4.90676 0 0 0
2.20863 0.722308 4.81462 0 0 0
2.25417 -0.239817 4.91026 0 0 0
2.22558 0.332511 4.84721 0 0 0
2.26615 -0.298046 4.91879 0 0 0
2.16175 0.927425 4.69 0 0 0
2.1644 1.02784 4.67634 0 0 0
2.33781 -0.591791 5.0285 0 0 0
2.32953 -0.540425 5.00524 0 0 0
2.30077 -0.0203897 4.92526 0 0 0
2.3055 -0.111278 4.93038 0 0 0
2.2925 0.228454 4.89876 0 0 0
2.34317 -0.377718 4.9734 0 0 0
2.34866 -0.0404968 4.96795 0 0 0
2.3529 0.040616 4.96478 0 0 0
2.25348 0.821946 4.74928 0 0 0
2.25348 0.821946 4.74928 0 0 0
2.40023 -0.0219351 5.05267 0 0 0
2.35555 -0.021199 4.95666 0 0 0
2.37204 -0.405997 4.9842 0 0 0
2.36843 -0.197679 4.96523 0 0 0
2.3635 0.212136 4.95136 0 0 0
2.36288 0.151809 4.94645 0 0 0
2.38924 -0.439628 4.97049 0 0 0
2.38924 -0.439628 4.97049 0 0 0
2.36374 0.544915 4.91505 0 0 0
2.36962 0.377997 4.92329 0 0 0
2.39951 0.423781 4.9067 0 0 0
2.34703 0.821147 4.79587 0 0 0
2.45689 0.8775 4.8246 0 0 0
