ply
format ascii 1.0 
element vertex 1465
property float32 x 
property float32 y 
property float32 z
property uchar red  
property uchar green
property uchar blue
element face 0
property list uchar int vertex_indices
end_header
-3.41508 -2.72845 6.10456 148 141 123
-4.74333 -2.66389 8.49327 154 147 129
-2.58171 0.11866 4.62673 142 136 104
-4.75913 -2.66116 8.53015 159 152 133
-3.40903 -2.72183 6.11356 146 139 121
-2.55765 0.122981 4.62719 144 137 108
-4.64319 -2.72671 8.41988 157 150 132
-4.64319 -2.72671 8.41988 157 150 132
-3.61992 -2.80034 6.5669 150 143 124
-2.49965 0.278456 4.53906 141 134 105
-2.52705 0.39273 4.59778 143 136 107
-3.61429 -2.78521 6.57697 149 142 123
-2.53495 0.41261 4.62159 143 136 107
-2.5363 0.111624 4.63559 144 137 108
-2.51623 0.388739 4.59899 143 136 107
-2.49628 0.34519 4.56385 144 137 108
-2.50426 0.370256 4.58864 143 138 109
-2.4857 0.337025 4.57151 143 138 108
-3.82423 -2.86042 7.04331 151 144 125
-3.8203 -2.86935 7.05467 149 142 123
-2.46099 0.145868 4.60818 158 150 127
-2.46099 0.145868 4.60818 158 150 127
-3.99758 -2.92515 7.52178 128 122 100
-5.52527 2.60824 10.4291 110 108 83
-5.48185 2.59628 10.4298 117 112 90
-3.98935 -2.90584 7.61177 118 111 83
-3.98935 -2.90584 7.61177 118 111 83
-2.47602 0.510463 4.73671 154 150 123
-2.46978 0.521735 4.74521 152 147 125
-2.43955 0.495461 4.74894 155 151 124
-2.43955 0.495461 4.74894 155 151 124
-2.52807 -0.306158 4.97644 153 151 128
-2.36844 0.292401 4.67496 157 153 128
-2.3856 0.371882 4.74092 160 155 133
-2.76565 -2.745 5.56233 97 92 72
-2.76565 -2.745 5.56233 97 92 72
-2.32269 0.316972 4.74739 159 155 130
-2.32799 0.350289 4.76036 160 156 131
-2.30739 0.340702 4.77493 159 155 130
-4.57852 -1.83865 9.48192 165 160 138
-2.27507 0.28662 4.76012 160 156 131
-2.27507 0.28662 4.76012 160 156 131
-2.27182 0.302571 4.77718 159 155 130
-2.27182 0.302571 4.77718 159 155 130
-2.26655 0.291458 4.77393 159 155 130
-4.89828 2.61042 10.3538 44 44 34
-4.54172 -1.94231 9.61132 107 101 75
-4.74725 2.93101 10.4129 80 73 45
-2.20271 -0.261761 4.92447 165 160 130
-4.27165 2.53066 10.0857 97 91 65
-4.27205 2.5001 10.1041 108 103 81
-3.88307 -2.24496 9.22299 170 165 145
-2.04313 -0.0618716 4.8569 165 161 136
-4.25146 2.57963 10.1141 120 114 90
-4.46475 3.86787 10.6633 108 99 68
-4.20847 1.84503 10.1081 116 109 80
-4.1957 1.89173 10.0987 102 93 62
-1.96828 0.128515 4.86206 97 92 63
-1.94978 0.10939 4.85662 88 79 48
-4.14216 4.03132 10.3641 115 106 77
-4.08311 3.22686 10.2821 118 108 72
-2.15489 -2.39175 5.4316 154 147 128
-4.07998 3.30535 10.3098 116 106 71
-1.68675 -2.25718 4.27218 120 113 85
-1.63718 -2.25338 4.15159 84 77 49
-4.06416 3.42924 10.3304 108 99 66
-4.04742 3.93275 10.4039 120 110 75
-4.05366 3.93713 10.4205 119 109 74
-2.96299 -2.78047 7.66373 158 153 133
-2.95898 -2.77577 7.65367 158 153 133
-1.86738 0.142907 4.86123 140 134 108
-1.86738 0.142907 4.86123 140 134 108
-1.8516 0.144536 4.85389 142 136 112
-3.95306 3.83935 10.5015 124 116 79
-3.80792 2.76361 10.2692 96 85 53
-3.88777 3.84697 10.5352 107 97 62
-3.88777 3.84697 10.5352 107 97 62
-1.77879 0.152558 4.82035 167 161 139
-1.76227 -0.151659 4.84949 142 134 111
-1.74126 -0.0570686 4.80843 93 84 53
-1.97838 -2.53414 5.49375 138 131 105
-2.98984 -2.81895 8.30716 102 91 71
-1.71623 0.115691 4.76567 149 144 114
-1.68383 0.0655531 4.73064 132 126 92
-1.70355 -0.105306 4.78985 104 91 57
-1.67881 0.0956416 4.72826 145 135 108
-2.93155 -2.87612 8.25494 102 92 65
-3.70594 3.83102 10.4533 111 101 66
-2.96349 -2.86895 8.36509 108 96 70
-2.91712 -2.89538 8.24228 104 97 69
-3.68942 3.80792 10.433 123 113 78
-3.68942 3.80792 10.433 123 113 78
-2.94735 -2.89781 8.35993 117 110 84
-1.66389 0.0246891 4.74427 129 119 83
-2.92982 -2.91033 8.36896 119 113 89
-1.68437 0.312486 4.83834 155 144 114
-1.64573 -0.0309134 4.75329 144 137 108
-1.61455 0.0716942 4.74737 135 126 93
-1.61228 0.0520354 4.7537 121 113 77
-1.57525 0.0756494 4.73421 129 116 82
-3.35438 1.75934 10.0854 86 79 50
-1.61313 -0.254779 4.85683 153 146 118
-1.57118 0.0267906 4.7392 116 106 70
-1.6064 0.358249 4.89916 150 141 112
-1.54583 0.073439 4.72977 121 111 76
-1.49665 0.183828 4.70268 155 148 122
-1.49588 0.251738 4.72133 160 153 125
-1.49588 0.251738 4.72133 160 153 125
-3.14236 1.18728 9.99155 163 157 135
-1.44229 0.174163 4.70387 149 140 111
-1.41742 -0.000460301 4.64372 170 164 138
-1.40747 0.0394602 4.63705 152 147 118
-1.42292 0.249557 4.71354 145 134 104
-2.81459 -1.82525 9.47388 92 83 54
-1.39263 0.228715 4.70779 160 153 125
-2.45612 -2.93992 8.33198 131 125 101
-1.37605 0.206256 4.67932 161 154 128
-1.35094 0.0609288 4.64492 170 162 139
-1.36746 0.262197 4.72038 166 159 133
-1.33819 0.0634785 4.65883 169 161 140
-1.35875 0.299193 4.73476 164 157 131
-1.35568 0.291599 4.73336 162 155 129
-2.32694 -2.93249 8.16514 123 113 88
-1.3244 0.265247 4.69438 160 153 125
-1.30141 0.213688 4.65606 148 141 112
-1.2891 0.21626 4.65459 148 141 112
-1.26537 0.232707 4.65892 153 144 115
-1.24459 0.072546 4.6585 131 121 86
-1.27091 0.474536 4.77613 175 165 140
-1.23843 0.06627 4.65653 133 120 88
-1.26753 0.445675 4.76966 170 163 135
-2.68371 2.31789 10.126 107 98 65
-1.20943 0.254607 4.66005 121 108 76
-1.2051 0.228681 4.65751 156 147 116
-1.19566 0.347431 4.69097 164 157 129
-1.19838 0.50799 4.78606 165 156 127
-1.16393 0.217221 4.64976 170 163 137
-1.36221 -2.59365 5.46654 143 136 110
-2.4825 1.62451 10.0195 161 154 126
-1.17965 0.549301 4.80254 152 145 117
-1.1786 0.597999 4.83032 166 156 129
-1.13474 0.750192 4.73623 170 163 135
-1.79248 -2.88235 7.52437 173 164 149
-1.79248 -2.88235 7.52437 173 164 149
-2.4137 2.79075 10.1834 139 131 95
-1.11749 0.803745 4.73814 156 150 126
-1.11749 0.803745 4.73814 156 150 126
-2.40266 2.78338 10.1925 139 130 97
-1.09291 0.263047 4.64669 173 165 142
-2.40219 2.89786 10.2203 129 120 79
-1.76966 -2.89227 7.54729 178 170 151
-2.36665 2.22767 10.1008 91 82 53
-1.03727 -0.252523 4.4542 172 166 142
-1.06906 0.0438157 4.60858 143 136 108
-2.32317 3.67904 10.3248 153 142 110
-1.03756 0.189217 4.61887 135 127 91
-0.984248 -0.208934 4.40373 176 170 144
-1.05981 0.779772 4.74766 119 106 72
-1.8411 -2.3546 8.36229 164 155 138
-1.01653 -0.103992 4.62346 176 170 144
-0.970254 0.183808 4.59292 118 105 70
-0.99697 -0.619202 4.97485 132 130 105
-0.927497 -0.593665 4.94223 129 120 79
-0.85277 -2.4996 4.59409 145 137 116
-0.839692 -2.50344 4.59846 144 138 116
-1.24188 -2.83809 7.03933 164 157 139
-0.832561 1.01639 4.73488 98 89 56
-0.815732 -2.53206 4.7044 40 40 32
-0.721429 0.20619 4.26381 181 176 146
-0.716284 0.172683 4.24966 182 175 146
-0.802285 -0.540056 4.81477 124 118 82
-0.701784 0.19381 4.25642 179 174 142
-0.637758 -0.114048 3.98245 178 172 148
-0.682459 0.246357 4.28131 185 179 153
-0.63393 -0.105166 3.983 177 173 146
-0.66978 0.112697 4.24454 184 179 150
-0.650189 0.190476 4.2752 164 158 132
-0.628506 0.20482 4.27091 182 176 150
-0.618073 0.157344 4.27228 182 177 148
-0.608545 0.148373 4.2742 180 174 148
-0.604949 0.134126 4.27327 180 174 148
-0.605156 0.576272 4.28598 182 175 149
-0.754385 -2.63265 5.36067 91 82 51
-0.594254 0.064147 4.27567 181 176 146
-0.560503 0.439421 4.13585 154 147 119
-1.17647 -2.45109 8.97592 176 169 151
-1.15208 -2.4514 8.96897 176 169 151
-1.11789 -2.45259 8.95949 175 168 149
-0.52348 0.0279673 4.24373 182 176 150
-0.50863 0.243319 4.162 182 176 150
-0.496733 0.00963263 4.22947 158 154 127
-0.473836 0.00740217 4.23228 137 131 105
-0.465925 -0.0161918 4.22029 182 176 150
-1.10353 2.79262 10.0679 152 146 120
-0.483446 0.769159 4.56476 142 133 100
-0.483446 0.769159 4.56476 142 133 100
-0.429118 0.283583 4.14703 168 164 139
-0.419595 -0.159534 4.1199 179 173 147
-0.408385 0.206452 4.11815 180 176 149
-0.445129 0.716997 4.53231 181 177 148
-1.00193 3.83749 10.2518 114 104 68
-0.971182 2.41933 10.1711 171 164 145
-0.402917 0.343993 4.22198 175 174 146
-0.93403 2.3678 9.80507 171 166 146
-0.93403 2.3678 9.80507 171 166 146
-0.429475 0.712501 4.53581 182 176 150
-0.896352 2.32012 9.46055 169 162 144
-0.896352 2.32012 9.46055 169 162 144
-0.931974 3.88025 9.96473 167 160 134
-0.922422 3.87994 9.94333 170 162 139
-0.916701 3.85503 9.95206 162 153 124
-0.385947 -0.116958 4.21362 182 180 157
-0.892068 3.82091 9.94695 138 130 94
-0.888554 3.87215 9.97396 159 152 124
-0.880586 2.94547 9.9122 169 162 134
-0.878639 3.8742 9.95736 162 157 128
-0.873631 3.79929 9.9557 118 108 73
-0.869396 3.87595 9.94018 155 145 118
-0.403617 -0.639832 4.6428 186 180 158
-0.626101 -2.91849 7.21094 150 143 115
-0.860532 3.1896 9.93295 111 105 71
-0.860532 3.1896 9.93295 111 105 71
-0.847894 3.16986 9.95199 114 106 70
-0.8384 3.71271 10.0045 115 105 70
-0.84949 3.31594 10.3145 108 99 70
-0.823328 3.61215 9.99763 111 96 63
-0.810819 3.24704 9.97163 107 98 69
-0.583423 -2.95786 7.47269 147 140 112
-0.777356 3.22868 9.98259 109 100 69
-0.345538 -0.694123 4.59668 183 178 159
-0.324485 0.611606 4.53678 182 178 149
-0.292377 -0.508452 4.5297 189 184 164
-0.593877 3.60471 10.0032 135 129 105
-0.251145 -0.0721254 4.28621 179 173 147
-0.58221 3.56569 10.0537 139 133 111
-0.57882 3.58419 10.0128 134 128 104
-0.57882 3.58419 10.0128 134 128 104
-0.264418 -2.55618 4.5799 152 144 123
-0.574081 3.5956 10.0025 139 135 110
-0.553005 3.57535 10.0164 146 140 116
-0.547136 3.55463 10.0393 135 131 104
-0.530701 2.95968 9.93989 176 170 148
-0.519511 3.51904 10.0298 122 117 88
-0.210254 0.288685 4.24116 183 177 153
-0.466081 3.45044 10.0001 154 148 126
-0.450457 3.43032 10.0028 162 156 134
-0.215216 -2.63137 4.95172 152 145 126
-0.430378 3.43019 10.0263 167 161 139
-0.188954 -0.545996 4.5313 187 180 161
-0.41331 3.42168 10.0368 170 162 141
-0.183348 -0.500977 4.54128 189 184 164
-0.183348 -0.500977 4.54128 189 184 164
-0.202359 -2.67164 5.35625 127 122 100
-0.162319 -0.5686 4.54607 186 181 162
-0.0760407 -2.91125 6.71317 152 144 121
-0.00239587 -0.52911 4.55452 189 182 163
0.0927917 -2.53976 8.88565 171 164 146
0.0489528 -0.622882 4.5594 178 171 152
0.18723 3.35511 10.0453 45 46 41
0.0846985 0.00878634 4.14474 181 177 148
0.113516 0.045433 4.13134 183 177 151
0.115401 0.265162 3.842 184 178 152
0.115401 0.265162 3.842 184 178 152
0.131319 0.338379 3.84608 168 164 135
0.131319 0.338379 3.84608 168 164 135
0.377976 -2.54451 8.70586 122 118 89
0.182426 0.346446 3.80071 183 177 151
0.182998 0.353982 3.80117 183 177 151
0.233766 0.281479 3.83315 140 134 110
0.247094 0.0452179 3.86219 136 130 106
0.660888 3.75936 9.81813 130 121 88
0.686715 3.70977 10.0964 92 86 54
0.686715 3.70977 10.0964 92 86 54
0.678818 3.75121 9.80739 152 143 112
0.692938 3.71841 9.8052 154 149 119
0.269978 0.141725 3.78316 123 115 79
0.322677 0.692314 4.46355 123 115 78
0.738987 3.66553 10.0827 160 153 124
0.286559 0.335722 3.8631 124 116 80
0.286559 0.335722 3.8631 124 116 80
0.35923 0.992305 4.67709 166 160 128
0.79875 3.64378 10.0433 163 154 125
0.307207 0.157512 3.78298 129 121 85
0.79139 3.6393 9.65613 164 155 124
0.388093 1.05837 4.68563 167 158 125
0.821175 3.59103 9.63423 162 155 126
0.826565 3.6304 9.58124 160 153 124
0.336497 0.0426524 3.84855 170 161 130
0.758026 -2.39384 8.5107 110 101 68
0.434351 0.989832 4.66274 171 162 131
0.928963 3.54109 9.84 164 157 128
0.40466 -1.67802 4.20161 147 141 117
0.44955 0.994652 4.6594 169 160 129
0.949484 3.59373 9.60008 164 155 124
0.984849 3.34188 9.79705 165 159 127
0.984849 3.34188 9.79705 165 159 127
0.469757 0.992572 4.65994 169 160 129
0.390265 0.26762 3.86816 175 166 135
0.486686 0.812549 4.66719 173 164 135
1.03387 3.35867 9.85674 166 160 126
1.03742 3.34818 9.87693 169 158 126
1.04298 3.35622 9.86167 165 159 125
1.05169 2.82308 9.77421 171 162 131
1.08948 3.3153 9.86576 164 158 124
1.10036 3.19825 9.82795 165 156 125
1.10036 3.19825 9.82795 165 156 125
1.10036 3.19825 9.82795 165 156 125
0.440947 0.486964 3.87464 172 161 129
0.440947 0.486964 3.87464 172 161 129
0.515566 0.755343 4.48759 172 163 130
1.13395 3.08036 9.80089 169 160 129
1.13449 3.05411 9.77923 167 158 127
1.13217 2.98649 9.75767 169 160 129
0.596718 1.42913 5.13986 172 163 132
1.13337 3.00672 9.74993 170 161 130
1.1453 3.4924 9.82277 164 158 126
1.14601 3.01534 9.76314 170 161 132
1.15594 3.48507 9.82611 165 156 123
1.15168 3.02519 9.75784 170 161 132
1.16361 3.48887 9.81248 164 157 128
1.16346 3.03826 9.7418 168 159 126
1.16706 3.54097 9.74885 160 154 120
0.559324 0.908617 4.66067 174 165 134
1.18081 3.47193 9.81376 162 153 124
1.18081 3.47193 9.81376 162 153 124
1.17441 3.10465 9.76039 167 158 127
1.18493 3.36804 9.80159 164 158 126
0.466125 0.299992 3.84184 173 164 131
1.18933 3.32339 9.78638 168 159 126
1.19197 3.35486 9.78961 166 157 126
1.15815 3.671 9.45473 169 160 127
1.21601 3.31306 9.80424 166 157 124
1.2454 3.30681 9.83333 164 158 126
1.2522 3.28047 9.83287 164 155 122
1.19604 3.43296 9.37478 158 153 123
1.25411 3.30643 9.82272 165 156 123
0.510875 0.471696 3.877 173 164 133
0.508977 0.0510985 3.80802 174 165 134
1.25565 3.59397 9.39342 160 153 124
0.511663 0.114094 3.81825 176 167 136
0.511663 0.114094 3.81825 176 167 136
1.32339 2.92974 9.79598 166 160 126
0.522292 0.353564 3.85236 174 165 134
0.611645 0.75432 4.48817 172 163 132
1.3449 3.18336 9.85627 165 156 127
1.34556 3.184 9.85527 165 156 127
1.28146 3.4315 9.3745 157 152 120
1.36256 3.31112 9.83997 166 157 126
1.31607 3.45275 9.353 162 153 124
0.556513 0.419853 3.86496 172 163 130
0.555305 0.377623 3.85503 175 166 135
1.35286 3.41697 9.38047 164 157 128
0.567003 0.371098 3.85704 172 163 130
0.567003 0.371098 3.85704 172 163 130
0.583236 0.438765 3.87577 177 168 139
0.583236 0.438765 3.87577 177 168 139
0.600943 0.490765 3.88798 176 167 136
1.53823 3.57429 9.54156 163 154 123
0.654177 0.348084 3.87679 172 166 134
0.731482 0.659049 4.14974 188 182 156
0.736761 0.655132 4.14753 186 181 152
0.707563 0.0733836 3.82288 184 177 149
0.707563 0.0733836 3.82288 184 177 149
0.74734 0.228102 3.86946 188 181 153
0.832353 0.828902 4.25472 188 181 155
0.825699 0.651348 4.13246 189 182 154
0.807558 -0.507731 3.97956 147 141 115
0.867964 0.767273 4.16357 187 180 154
0.880091 0.606726 4.07395 187 179 156
0.857404 -0.413885 3.91927 195 188 169
0.845538 0.0381958 3.81302 181 174 146
0.894331 0.22484 3.88536 152 145 117
0.894331 0.22484 3.88536 152 145 117
0.91552 0.429027 3.96832 142 135 106
0.895604 0.141788 3.86194 123 116 90
0.93854 0.144858 3.85642 110 100 73
0.968611 0.451654 3.96555 176 165 143
0.998539 0.710294 4.06621 166 160 136
1.0115 0.653892 4.05828 149 139 112
0.988731 -0.401321 3.9045 195 186 169
0.988731 -0.401321 3.9045 195 186 169
1.04186 0.73123 4.07923 118 109 80
1.01398 0.333718 3.91084 53 50 35
1.00187 0.138596 3.85365 132 125 97
1.02497 0.327857 3.9117 87 77 50
1.01493 -0.00373467 3.86665 132 123 94
1.02003 0.134132 3.85583 133 128 98
1.52316 0.76179 5.07015 0 0 0
1.57455 1.01055 5.17021 0 0 0
1.58346 1.02539 5.16846 0 0 0
1.60877 0.946609 5.18313 0 0 0
1.61469 0.957663 5.18439 0 0 0
1.62162 0.968991 5.18511 0 0 0
1.62759 1.00205 5.20258 0 0 0
1.46309 0.540138 4.64349 0 0 0
1.60663 0.717368 5.08855 0 0 0
1.60663 0.717368 5.08855 0 0 0
1.63488 0.797582 5.16572 0 0 0
1.70259 1.10273 5.30894 0 0 0
1.63247 0.939708 5.08829 0 0 0
1.70398 1.13107 5.30107 0 0 0
1.7054 1.15025 5.28863 0 0 0
1.70757 1.16819 5.27725 0 0 0
1.66041 0.96211 5.0185 0 0 0
1.51628 0.402473 4.56576 0 0 0
1.51628 0.402473 4.56576 0 0 0
1.68959 1.04024 4.99826 0 0 0
1.69438 1.07299 4.98061 0 0 0
1.7261 0.977209 4.91063 0 0 0
1.7261 0.977209 4.91063 0 0 0
1.73461 0.984184 4.90967 0 0 0
3.33179 3.42034 9.41015 0 0 0
3.33179 3.42034 9.41015 0 0 0
1.73597 0.805702 4.88355 0 0 0
1.75226 0.981479 4.90911 0 0 0
1.82223 1.17984 5.09779 0 0 0
1.7604 0.932499 4.92325 0 0 0
1.75452 1.00213 4.90451 0 0 0
1.75823 0.965607 4.91155 0 0 0
3.36522 3.3827 9.36778 0 0 0
1.76782 0.978919 4.91533 0 0 0
1.85737 1.24276 5.15847 0 0 0
1.7732 0.961808 4.91818 0 0 0
1.78522 0.912117 4.93435 0 0 0
1.86609 1.23274 5.14793 0 0 0
1.78137 0.878068 4.89904 0 0 0
1.80882 1.06188 4.97403 0 0 0
1.85905 1.19366 5.09301 0 0 0
1.8146 1.07002 4.96909 0 0 0
1.83571 1.03365 4.97522 0 0 0
1.82494 0.918872 4.94416 0 0 0
3.57985 3.21959 9.69573 0 0 0
3.57985 3.21959 9.69573 0 0 0
3.42446 3.31389 9.25892 0 0 0
1.8161 0.868492 4.9109 0 0 0
3.42451 3.33843 9.25171 0 0 0
1.89152 1.18493 5.10675 0 0 0
1.8457 0.998905 4.97002 0 0 0
1.8457 0.998905 4.97002 0 0 0
1.82667 0.873495 4.9142 0 0 0
3.43467 3.31585 9.22638 0 0 0
3.44061 3.32052 9.24138 0 0 0
1.93399 1.3352 5.19257 0 0 0
3.45446 3.31822 9.22039 0 0 0
3.43182 3.40938 9.12198 0 0 0
1.8699 1.01126 4.95332 0 0 0
1.52288 -0.0978556 4.01661 0 0 0
1.94 1.15835 5.105 0 0 0
1.96578 1.11494 5.13487 0 0 0
1.8586 0.930997 4.85043 0 0 0
1.96766 1.10884 5.13063 0 0 0
1.62557 0.202614 4.21407 0 0 0
3.56279 3.30886 9.22339 0 0 0
1.98044 1.11066 5.12599 0 0 0
3.56806 3.2992 9.21927 0 0 0
3.57375 3.29634 9.21283 0 0 0
1.97943 1.1577 5.09795 0 0 0
2.04328 1.28301 5.20505 0 0 0
1.57514 -0.070042 4.00942 0 0 0
3.62273 3.27834 9.20427 0 0 0
2.05426 1.26398 5.19763 0 0 0
2.06181 1.27409 5.19876 0 0 0
1.56286 -0.305793 3.9326 0 0 0
2.06869 1.2662 5.20296 0 0 0
2.07198 1.29085 5.204 0 0 0
1.78679 0.634354 4.48049 0 0 0
1.90828 0.964909 4.78223 0 0 0
1.5703 -0.312981 3.93215 0 0 0
1.92118 0.969667 4.78709 0 0 0
1.93234 1.00393 4.80759 0 0 0
1.65327 0.21146 4.10374 0 0 0
1.65327 0.21146 4.10374 0 0 0
1.94307 1.00706 4.80544 0 0 0
1.60545 -0.147287 3.9668 0 0 0
1.59935 -0.305308 3.93383 0 0 0
1.66863 0.307023 4.09886 0 0 0
1.60185 -0.504444 3.93044 0 0 0
1.60185 -0.504444 3.93044 0 0 0
3.74987 3.27129 9.17911 0 0 0
1.63602 -0.00906581 3.9907 0 0 0
1.63077 -0.0647191 3.9762 0 0 0
3.81304 3.56449 9.23941 0 0 0
3.81304 3.56449 9.23941 0 0 0
1.99682 1.0011 4.80821 0 0 0
3.89033 4.30836 9.36128 0 0 0
3.81914 3.27279 9.1868 0 0 0
3.82475 3.25655 9.1925 0 0 0
1.64966 -0.353804 3.83747 0 0 0
1.66949 -0.0679167 3.85779 0 0 0
1.70888 -0.516805 3.9295 0 0 0
1.73367 -0.0303526 3.72613 0 0 0
1.74619 0.10775 3.74579 0 0 0
1.74384 0.0498851 3.73615 0 0 0
1.76602 0.226586 3.76657 0 0 0
1.76827 0.235058 3.7681 0 0 0
1.76827 0.235058 3.7681 0 0 0
1.75505 0.0522496 3.73286 0 0 0
1.76073 -0.0259465 3.72209 0 0 0
1.78142 0.217806 3.76003 0 0 0
1.7693 0.0466912 3.72837 0 0 0
1.77308 0.0666372 3.73311 0 0 0
1.77308 0.0666372 3.73311 0 0 0
1.79671 0.234742 3.76148 0 0 0
1.7815 0.0396044 3.72545 0 0 0
1.78292 -0.0918442 3.70938 0 0 0
1.7933 0.00799547 3.72164 0 0 0
1.81269 0.19176 3.75089 0 0 0
1.83892 0.368903 3.78127 0 0 0
1.81805 0.0458781 3.73252 0 0 0
1.81439 -0.060748 3.71255 0 0 0
1.82221 0.0300456 3.7282 0 0 0
1.87477 0.598486 3.82977 0 0 0
1.81665 -0.0787071 3.71024 0 0 0
1.81665 -0.0787071 3.71024 0 0 0
1.82639 -0.0296227 3.7174 0 0 0
1.82639 -0.0296227 3.7174 0 0 0
1.82442 -0.074387 3.71169 0 0 0
1.83374 0.0288636 3.72885 0 0 0
1.85259 0.275155 3.76536 0 0 0
1.82892 -0.081929 3.71027 0 0 0
1.82892 -0.081929 3.71027 0 0 0
1.83485 -0.0665251 3.71075 0 0 0
1.84227 -0.0288045 3.71976 0 0 0
1.85219 -0.0498766 3.71936 0 0 0
1.89428 0.51379 3.79942 0 0 0
1.85306 -0.0681764 3.71359 0 0 0
1.88549 0.373914 3.7786 0 0 0
1.85562 -0.0854835 3.71263 0 0 0
1.86451 -0.0592176 3.71738 0 0 0
1.86571 -0.0417491 3.71894 0 0 0
1.87893 0.0432677 3.73269 0 0 0
1.99417 0.724512 3.94716 0 0 0
1.88145 -0.140988 3.7064 0 0 0
1.89432 -0.0592039 3.71712 0 0 0
1.90005 -0.0502703 3.71746 0 0 0
2.36705 1.10405 4.62842 0 0 0
1.90558 -0.0580074 3.71796 0 0 0
1.90268 -0.113508 3.70991 0 0 0
1.90299 -0.135935 3.70608 0 0 0
1.90625 -0.106176 3.71155 0 0 0
2.3825 1.12963 4.63744 0 0 0
1.91022 -0.0487806 3.71798 0 0 0
2.38042 1.09086 4.63142 0 0 0
2.39396 1.24575 4.65706 0 0 0
1.9331 0.238076 3.76001 0 0 0
1.90978 -0.112112 3.71074 0 0 0
2.386 1.11295 4.63093 0 0 0
2.40197 1.26755 4.65892 0 0 0
1.92474 -0.048403 3.71756 0 0 0
1.96549 0.353708 3.77682 0 0 0
1.9454 -0.0487077 3.71326 0 0 0
1.98898 0.504496 3.79386 0 0 0
1.95529 0.00618136 3.72072 0 0 0
2.02408 -0.400071 3.85074 0 0 0
1.99189 0.434522 3.78514 0 0 0
1.95158 -0.105443 3.70746 0 0 0
1.96995 0.128398 3.74107 0 0 0
1.95969 -0.026188 3.71846 0 0 0
1.95428 -0.181729 3.70592 0 0 0
1.99055 0.311996 3.76653 0 0 0
1.98745 0.219733 3.75384 0 0 0
1.9872 0.211801 3.7497 0 0 0
1.96632 -0.114595 3.70629 0 0 0
1.97438 -0.0243333 3.71606 0 0 0
2.00063 0.253045 3.75944 0 0 0
1.97555 -0.046292 3.71209 0 0 0
2.02514 0.517735 3.7964 0 0 0
2.00613 0.239391 3.75605 0 0 0
1.98226 -0.0771262 3.71007 0 0 0
2.03499 0.543228 3.79617 0 0 0
2.00767 0.175048 3.7424 0 0 0
2.04419 0.579107 3.803 0 0 0
2.04189 0.470116 3.78944 0 0 0
2.03639 0.299841 3.76005 0 0 0
2.0465 0.403182 3.77853 0 0 0
2.04688 0.442781 3.77392 0 0 0
2.04275 0.313067 3.76267 0 0 0
2.04275 0.313067 3.76267 0 0 0
2.0462 0.300654 3.76271 0 0 0
2.11761 0.66591 3.89094 0 0 0
2.52224 1.22242 4.63282 0 0 0
2.01662 -0.128592 3.7 0 0 0
2.05327 0.292599 3.76331 0 0 0
2.08656 0.581463 3.8134 0 0 0
2.05853 0.27283 3.76288 0 0 0
2.06785 0.301624 3.76916 0 0 0
2.09445 0.549511 3.80286 0 0 0
2.05067 -0.0538781 3.72233 0 0 0
2.10781 0.560751 3.80694 0 0 0
2.1069 0.560928 3.804 0 0 0
2.1084 0.541437 3.80416 0 0 0
2.01353 -0.361713 3.55754 0 0 0
2.01833 -0.357363 3.55698 0 0 0
2.13336 0.892542 3.75136 0 0 0
1.99943 -0.8607 3.46383 0 0 0
2.03537 -0.509088 3.50058 0 0 0
2.17271 0.976079 3.73423 0 0 0
2.11757 0.373833 3.63868 0 0 0
2.17839 1.05052 3.74175 0 0 0
2.17463 0.820191 3.70713 0 0 0
2.17463 0.820191 3.70713 0 0 0
2.21134 1.02638 3.72934 0 0 0
2.21124 0.775376 3.69131 0 0 0
2.20326 0.868016 3.67162 0 0 0
2.21833 0.831259 3.67089 0 0 0
2.29056 1.04782 3.69937 0 0 0
2.26435 0.755977 3.65673 0 0 0
2.27385 0.835903 3.67171 0 0 0
2.26241 0.734761 3.65314 0 0 0
2.25537 0.663419 3.64174 0 0 0
2.2498 0.615659 3.63218 0 0 0
2.2682 0.752861 3.65267 0 0 0
2.17709 -0.19916 3.50575 0 0 0
2.26705 0.738046 3.65002 0 0 0
2.29205 1.05292 3.69024 0 0 0
2.26852 0.80794 3.65206 0 0 0
2.27002 0.771861 3.65408 0 0 0
2.27085 0.807692 3.65481 0 0 0
2.25946 0.642474 3.63648 0 0 0
2.206 0.0767529 3.54644 0 0 0
2.20691 0.0998146 3.54783 0 0 0
2.20736 0.0876357 3.54722 0 0 0
2.19613 -0.0186919 3.5281 0 0 0
2.19454 -0.0524708 3.52533 0 0 0
2.29444 0.998438 3.68201 0 0 0
2.30255 1.07823 3.69345 0 0 0
2.27596 0.778324 3.64968 0 0 0
2.26341 0.641846 3.62875 0 0 0
2.24613 0.457506 3.59952 0 0 0
2.14006 -0.667908 3.42834 0 0 0
2.12981 -0.747449 3.41087 0 0 0
2.12984 -0.788257 3.40915 0 0 0
2.2402 0.356561 3.58455 0 0 0
2.2402 0.356561 3.58455 0 0 0
2.20639 -0.00679082 3.52708 0 0 0
2.27553 0.671861 3.63208 0 0 0
2.15318 -0.581215 3.43586 0 0 0
2.13174 -0.80011 3.40159 0 0 0
2.13222 -0.811466 3.40132 0 0 0
2.29254 0.817864 3.65472 0 0 0
2.3174 1.01911 3.68397 0 0 0
2.3174 1.01911 3.68397 0 0 0
2.31147 0.87508 3.66363 0 0 0
2.29975 0.760498 3.64509 0 0 0
2.29975 0.760498 3.64509 0 0 0
2.14067 -0.855897 3.39189 0 0 0
2.26023 0.267227 3.56764 0 0 0
2.31421 0.78959 3.64886 0 0 0
2.31421 0.78959 3.64886 0 0 0
2.19357 -0.432642 3.45723 0 0 0
2.2755 0.377284 3.58435 0 0 0
2.28663 0.487593 3.60142 0 0 0
2.29794 0.599611 3.61836 0 0 0
2.33503 0.943227 3.66912 0 0 0
2.33503 0.943227 3.66912 0 0 0
2.32135 0.781203 3.64678 0 0 0
2.33794 0.951194 3.67238 0 0 0
2.30309 0.595607 3.61645 0 0 0
2.29868 0.515214 3.60774 0 0 0
2.29868 0.515214 3.60774 0 0 0
2.30042 0.533463 3.61021 0 0 0
2.34437 0.99315 3.67837 0 0 0
2.30169 0.515903 3.60927 0 0 0
2.28468 0.34221 3.58105 0 0 0
2.32462 0.7426 3.64001 0 0 0
2.32462 0.7426 3.64001 0 0 0
2.34412 0.926163 3.66745 0 0 0
2.34412 0.926163 3.66745 0 0 0
2.32628 0.718293 3.6379 0 0 0
2.24868 -0.0637863 3.51613 0 0 0
2.28863 0.313639 3.57641 0 0 0
2.29756 0.41281 3.59049 0 0 0
2.26608 0.0971234 3.54136 0 0 0
2.25315 -0.0363926 3.52081 0 0 0
2.3543 0.989511 3.67735 0 0 0
2.28612 0.266841 3.56991 0 0 0
2.1764 -0.812424 3.39771 0 0 0
2.3175 0.581475 3.61705 0 0 0
2.26873 0.0780758 3.5407 0 0 0
2.29781 0.395761 3.58608 0 0 0
2.32704 0.673291 3.63125 0 0 0
2.25268 -0.0655016 3.51386 0 0 0
2.32118 0.616119 3.62064 0 0 0
2.35755 0.976896 3.67696 0 0 0
2.24623 -0.142323 3.5028 0 0 0
2.25606 -0.0395391 3.51742 0 0 0
2.25606 -0.0395391 3.51742 0 0 0
2.31296 0.512162 3.60581 0 0 0
2.28094 0.177821 3.55534 0 0 0
2.29822 0.350566 3.58146 0 0 0
2.23011 -0.31135 3.47498 0 0 0
2.32428 0.612026 3.62054 0 0 0
2.30241 0.391686 3.58361 0 0 0
2.318 0.526517 3.60741 0 0 0
2.33218 0.668765 3.62857 0 0 0
2.32241 0.580242 3.6133 0 0 0
2.32241 0.580242 3.6133 0 0 0
2.34253 0.789806 3.64394 0 0 0
2.31534 0.477246 3.60067 0 0 0
2.35113 0.839388 3.65538 0 0 0
2.33399 0.688998 3.62978 0 0 0
2.34392 0.780734 3.64387 0 0 0
2.28827 0.19182 3.55706 0 0 0
2.21426 -0.547271 3.44053 0 0 0
2.31268 0.456435 3.59395 0 0 0
2.33101 0.613885 3.62116 0 0 0
2.25183 -0.169611 3.49747 0 0 0
2.28172 0.111535 3.54389 0 0 0
2.35518 0.862214 3.65775 0 0 0
2.28811 0.167239 3.55345 0 0 0
2.28811 0.167239 3.55345 0 0 0
2.22515 -0.44255 3.45589 0 0 0
2.30529 0.35512 3.57999 0 0 0
2.32691 0.577647 3.61105 0 0 0
2.25782 -0.139733 3.50396 0 0 0
2.25782 -0.139733 3.50396 0 0 0
2.3265 0.551597 3.61009 0 0 0
2.34833 0.779701 3.64302 0 0 0
2.34833 0.779701 3.64302 0 0 0
2.30378 0.318275 3.57362 0 0 0
2.26334 -0.121519 3.50544 0 0 0
2.35865 0.852912 3.65313 0 0 0
2.2887 0.118799 3.54409 0 0 0
2.37457 0.998269 3.67669 0 0 0
2.21747 -0.583438 3.43363 0 0 0
2.37396 1.00346 3.67622 0 0 0
2.21596 -0.598402 3.43105 0 0 0
2.36038 0.842312 3.65449 0 0 0
2.35963 0.826075 3.652 0 0 0
2.35963 0.826075 3.652 0 0 0
2.30917 0.314393 3.57269 0 0 0
2.35009 0.725545 3.63589 0 0 0
2.36136 0.831932 3.65229 0 0 0
2.36221 0.848991 3.6534 0 0 0
2.36221 0.848991 3.6534 0 0 0
2.31747 0.382744 3.58411 0 0 0
2.35178 0.737164 3.63701 0 0 0
2.37523 0.971416 3.67281 0 0 0
2.3649 0.859181 3.65566 0 0 0
2.21029 -0.683931 3.41689 0 0 0
2.34014 0.573238 3.61364 0 0 0
2.33497 0.523063 3.60559 0 0 0
2.33755 0.551223 3.60914 0 0 0
2.22486 -0.578096 3.43354 0 0 0
2.3428 0.599558 3.61516 0 0 0
2.3428 0.599558 3.61516 0 0 0
2.2827 -0.00788874 3.52192 0 0 0
2.38583 1.03028 3.67935 0 0 0
2.38492 1.00691 3.6778 0 0 0
2.36276 0.775969 3.64325 0 0 0
2.36276 0.775969 3.64325 0 0 0
2.21803 -0.664701 3.41918 0 0 0
2.34754 0.624852 3.61913 0 0 0
2.38627 1.02542 3.67887 0 0 0
2.38159 0.965927 3.6713 0 0 0
2.38114 0.96068 3.67028 0 0 0
2.39431 1.09626 3.68853 0 0 0
2.21412 -0.720934 3.41038 0 0 0
2.21412 -0.720934 3.41038 0 0 0
2.33655 0.464046 3.59588 0 0 0
2.34874 0.5974 3.61456 0 0 0
2.34874 0.5974 3.61456 0 0 0
2.37419 0.849769 3.65352 0 0 0
2.36765 0.780337 3.64302 0 0 0
2.35257 0.62195 3.61917 0 0 0
2.3099 0.182163 3.55284 0 0 0
2.38622 0.95992 3.66961 0 0 0
2.36035 0.697298 3.62963 0 0 0
2.36518 0.729697 3.63565 0 0 0
2.39446 1.02703 3.67924 0 0 0
2.3945 1.03195 3.67922 0 0 0
2.3945 1.03195 3.67922 0 0 0
2.37342 0.800452 3.64639 0 0 0
2.37867 0.845426 3.65325 0 0 0
2.25861 -0.336295 3.46849 0 0 0
2.35149 0.572766 3.61113 0 0 0
2.35149 0.572766 3.61113 0 0 0
2.37354 0.785906 3.64382 0 0 0
2.37264 0.779188 3.64225 0 0 0
2.36457 0.694093 3.62955 0 0 0
2.2919 -0.0381047 3.51638 0 0 0
2.36376 0.654888 3.6256 0 0 0
2.36376 0.654888 3.6256 0 0 0
2.31505 0.178615 3.55109 0 0 0
2.30208 0.0087957 3.52562 0 0 0
2.30208 0.0087957 3.52562 0 0 0
2.32681 0.261083 3.56307 0 0 0
2.3382 0.36121 3.57994 0 0 0
2.23208 -0.68579 3.41542 0 0 0
2.2332 -0.673196 3.41558 0 0 0
2.4038 1.00351 3.67487 0 0 0
2.34566 0.395897 3.58484 0 0 0
2.39877 0.930667 3.6629 0 0 0
2.39265 0.844442 3.65201 0 0 0
2.38339 0.723759 3.63302 0 0 0
2.36627 0.551992 3.60598 0 0 0
2.40292 0.928237 3.66166 0 0 0
2.40292 0.928237 3.66166 0 0 0
2.41137 1.02432 3.67456 0 0 0
2.36668 0.543055 3.60529 0 0 0
2.33556 0.243387 3.55757 0 0 0
2.39867 0.856412 3.65152 0 0 0
2.38164 0.677736 3.62538 0 0 0
2.29825 -0.154053 3.49531 0 0 0
2.40106 0.841975 3.6514 0 0 0
2.40106 0.841975 3.6514 0 0 0
2.37474 0.578832 3.6101 0 0 0
2.4111 0.93197 3.6649 0 0 0
2.37317 0.549747 3.60593 0 0 0
2.35695 0.36782 3.57678 0 0 0
2.35695 0.36782 3.57678 0 0 0
2.30372 -0.157093 3.49541 0 0 0
2.39242 0.702901 3.62992 0 0 0
2.38151 0.597853 3.6135 0 0 0
2.35635 0.350682 3.57481 0 0 0
2.23206 -0.86293 3.38612 0 0 0
2.39254 0.695778 3.6292 0 0 0
2.42284 1.02587 3.67557 0 0 0
2.25026 -0.685369 3.41131 0 0 0
2.25026 -0.685369 3.41131 0 0 0
2.41767 0.960478 3.66509 0 0 0
2.38317 0.603063 3.61241 0 0 0
2.31946 -0.0377517 3.51465 0 0 0
2.32756 0.0369768 3.52685 0 0 0
2.38655 0.608709 3.61366 0 0 0
2.42082 0.94894 3.66544 0 0 0
2.43093 1.0537 3.6797 0 0 0
2.4237 0.956038 3.66729 0 0 0
2.42113 0.932536 3.66264 0 0 0
2.41526 0.870089 3.65259 0 0 0
2.37393 0.448179 3.58912 0 0 0
2.37337 0.427972 3.58618 0 0 0
2.3557 0.25375 3.55918 0 0 0
2.38716 0.53815 3.60414 0 0 0
2.38907 0.555746 3.60708 0 0 0
2.34181 0.10101 3.53539 0 0 0
2.42201 0.884091 3.65618 0 0 0
2.42201 0.884091 3.65618 0 0 0
2.36925 0.361061 3.57584 0 0 0
2.29113 -0.386988 3.45788 0 0 0
2.29113 -0.386988 3.45788 0 0 0
2.31227 -0.180133 3.48969 0 0 0
2.31227 -0.180133 3.48969 0 0 0
2.31227 -0.180133 3.48969 0 0 0
2.39493 0.617072 3.61351 0 0 0
2.38625 0.525277 3.60038 0 0 0
2.35411 0.197988 3.55116 0 0 0
2.3826 0.466857 3.59261 0 0 0
2.40991 0.742416 3.63333 0 0 0
2.44074 1.05361 3.67861 0 0 0
2.36078 0.24816 3.5581 0 0 0
2.36078 0.24816 3.5581 0 0 0
2.36384 0.266726 3.55998 0 0 0
2.2829 -0.511903 3.43785 0 0 0
2.3908 0.520354 3.59975 0 0 0
2.3908 0.520354 3.59975 0 0 0
2.43505 0.946633 3.66456 0 0 0
2.44156 1.01241 3.6732 0 0 0
2.35843 0.171174 3.54683 0 0 0
2.36486 0.243335 3.55617 0 0 0
2.3656 0.237691 3.55701 0 0 0
2.3656 0.237691 3.55701 0 0 0
2.35477 0.132273 3.54061 0 0 0
2.35122 0.0982887 3.53335 0 0 0
2.37173 0.28354 3.56154 0 0 0
2.37173 0.28354 3.56154 0 0 0
2.43838 0.938561 3.66132 0 0 0
2.37829 0.32938 3.56979 0 0 0
2.35555 0.104827 3.53532 0 0 0
2.35555 0.104827 3.53532 0 0 0
2.39584 0.503063 3.59576 0 0 0
2.39584 0.503063 3.59576 0 0 0
2.2895 -0.516569 3.4354 0 0 0
2.2895 -0.516569 3.4354 0 0 0
2.44657 1.01819 3.67088 0 0 0
2.41415 0.651875 3.61853 0 0 0
2.45558 1.05147 3.67632 0 0 0
2.34838 -0.0126585 3.51563 0 0 0
2.34838 -0.0126585 3.51563 0 0 0
2.41697 0.647658 3.61711 0 0 0
2.3348 -0.14766 3.49395 0 0 0
2.35225 0.0042136 3.5167 0 0 0
2.39098 0.349881 3.573 0 0 0
2.3743 0.190225 3.54819 0 0 0
2.41814 0.610861 3.61352 0 0 0
2.45858 1.02863 3.67295 0 0 0
2.382 0.268239 3.55885 0 0 0
2.43226 0.743624 3.63315 0 0 0
2.43226 0.743624 3.63315 0 0 0
2.28138 -0.731054 3.40331 0 0 0
2.43185 0.690387 3.6257 0 0 0
2.3812 0.209686 3.54982 0 0 0
2.43738 0.758383 3.63329 0 0 0
2.42908 0.66736 3.62077 0 0 0
2.27949 -0.751638 3.39794 0 0 0
2.36103 0.00581251 3.51826 0 0 0
2.41022 0.468883 3.59002 0 0 0
2.41571 0.51471 3.597 0 0 0
2.34469 -0.165854 3.49095 0 0 0
2.42819 0.635251 3.61385 0 0 0
2.28818 -0.715592 3.40495 0 0 0
2.35428 -0.0859761 3.50234 0 0 0
2.32107 -0.392412 3.45296 0 0 0
2.34958 -0.140295 3.49369 0 0 0
2.42147 0.55285 3.6004 0 0 0
2.40986 0.41578 3.58219 0 0 0
2.40986 0.41578 3.58219 0 0 0
2.44966 0.803401 3.64111 0 0 0
2.38127 0.151203 3.53999 0 0 0
2.40223 0.349532 3.56961 0 0 0
2.40223 0.349532 3.56961 0 0 0
2.36081 -0.0576173 3.50638 0 0 0
2.36081 -0.0576173 3.50638 0 0 0
2.44479 0.757872 3.63062 0 0 0
2.30487 -0.62075 3.41898 0 0 0
2.4382 0.643896 3.61574 0 0 0
2.34926 -0.206517 3.48423 0 0 0
2.33556 -0.336567 3.4624 0 0 0
2.36464 -0.0515338 3.50497 0 0 0
2.43338 0.593658 3.60657 0 0 0
2.31521 -0.539182 3.43118 0 0 0
2.38871 0.147892 3.53884 0 0 0
2.43975 0.644747 3.6139 0 0 0
2.43203 0.554073 3.60174 0 0 0
2.40336 0.269933 3.55828 0 0 0
2.40336 0.269933 3.55828 0 0 0
2.3566 -0.160092 3.4893 0 0 0
2.30628 -0.660821 3.41343 0 0 0
2.36257 -0.127112 3.49631 0 0 0
2.36257 -0.127112 3.49631 0 0 0
2.45363 0.743166 3.63065 0 0 0
2.45432 0.738631 3.62794 0 0 0
2.41392 0.32838 3.56695 0 0 0
2.36173 -0.165471 3.48906 0 0 0
2.32356 -0.543493 3.43152 0 0 0
2.32356 -0.543493 3.43152 0 0 0
2.47106 0.886411 3.65022 0 0 0
2.4717 0.87521 3.64992 0 0 0
2.35983 -0.216017 3.48111 0 0 0
2.35983 -0.216017 3.48111 0 0 0
2.42678 0.413423 3.57864 0 0 0
2.4772 0.873265 3.65111 0 0 0
2.43131 0.43788 3.58336 0 0 0
2.48304 0.965213 3.65859 0 0 0
2.45438 0.645222 3.61463 0 0 0
2.45306 0.633136 3.61134 0 0 0
2.4318 0.409639 3.57857 0 0 0
2.47664 0.848538 3.64403 0 0 0
2.49042 0.962667 3.66085 0 0 0
2.35523 -0.33678 3.45987 0 0 0
2.35523 -0.33678 3.45987 0 0 0
2.42088 0.272172 3.55585 0 0 0
2.46008 0.640939 3.61308 0 0 0
2.48451 0.84578 3.64431 0 0 0
2.4934 0.941166 3.65724 0 0 0
2.50013 1.00229 3.66642 0 0 0
2.46232 0.629732 3.61007 0 0 0
2.43415 0.329724 3.56507 0 0 0
2.36463 -0.326541 3.4631 0 0 0
2.46502 0.634747 3.60992 0 0 0
2.37578 -0.221612 3.47864 0 0 0
2.45667 0.543005 3.59706 0 0 0
2.47069 0.654731 3.61453 0 0 0
2.47752 0.713514 3.62429 0 0 0
2.49448 0.881228 3.64924 0 0 0
2.33179 -0.670721 3.40848 0 0 0
2.46307 0.542957 3.59646 0 0 0
2.40608 0.00609723 3.51234 0 0 0
2.37862 -0.263584 3.47189 0 0 0
2.4719 0.607064 3.60771 0 0 0
2.34016 -0.612794 3.4154 0 0 0
2.45905 0.48584 3.58777 0 0 0
2.44225 0.307032 3.56272 0 0 0
2.44225 0.307032 3.56272 0 0 0
2.50317 0.882864 3.64753 0 0 0
2.43829 0.257952 3.5527 0 0 0
2.47474 0.602666 3.60562 0 0 0
2.47474 0.602666 3.60562 0 0 0
2.4427 0.289809 3.55834 0 0 0
2.4106 -0.00931159 3.51096 0 0 0
2.50548 0.889172 3.64877 0 0 0
2.41083 0.00281022 3.5106 0 0 0
2.34603 -0.618034 3.41589 0 0 0
2.39523 -0.161919 3.48657 0 0 0
2.39523 -0.161919 3.48657 0 0 0
2.38819 -0.221426 3.476 0 0 0
2.3249 -0.828645 3.38244 0 0 0
2.35277 -0.585283 3.42057 0 0 0
2.36131 -0.508347 3.43176 0 0 0
2.32912 -0.8208 3.38475 0 0 0
2.49608 0.731369 3.62697 0 0 0
2.39218 -0.237175 3.47527 0 0 0
2.48255 0.605849 3.60601 0 0 0
2.38735 -0.288067 3.46586 0 0 0
2.39439 -0.224778 3.47565 0 0 0
2.39439 -0.224778 3.47565 0 0 0
2.47633 0.531157 3.59384 0 0 0
2.49154 0.674213 3.61569 0 0 0
2.5304 1.04839 3.67199 0 0 0
2.44862 0.257028 3.55222 0 0 0
2.38953 -0.281627 3.46608 0 0 0
2.48748 0.618486 3.60717 0 0 0
2.51287 0.860944 3.64287 0 0 0
2.51287 0.860944 3.64287 0 0 0
2.44268 0.168591 3.53856 0 0 0
2.44268 0.168591 3.53856 0 0 0
2.47011 0.44323 3.57788 0 0 0
2.47011 0.44323 3.57788 0 0 0
2.42596 0.0116401 3.51258 0 0 0
2.33372 -0.832652 3.37841 0 0 0
2.35056 -0.705845 3.40163 0 0 0
2.46129 0.333133 3.5621 0 0 0
2.35104 -0.694268 3.40185 0 0 0
2.39693 -0.268421 3.46815 0 0 0
2.49278 0.614783 3.60647 0 0 0
2.39257 -0.308966 3.46084 0 0 0
2.51786 0.857503 3.64219 0 0 0
2.46287 0.323419 3.5614 0 0 0
2.50928 0.732252 3.62766 0 0 0
2.50393 0.686688 3.61913 0 0 0
2.38331 -0.420636 3.44487 0 0 0
2.38331 -0.420636 3.44487 0 0 0
2.49163 0.579513 3.60118 0 0 0
2.52704 0.906523 3.64988 0 0 0
2.40166 -0.273965 3.46726 0 0 0
2.34376 -0.823424 3.38267 0 0 0
2.34376 -0.823424 3.38267 0 0 0
2.54189 1.03339 3.66743 0 0 0
2.47849 0.421086 3.57563 0 0 0
2.36188 -0.645751 3.40743 0 0 0
2.3454 -0.814234 3.38323 0 0 0
2.38576 -0.432343 3.44101 0 0 0
2.42173 -0.112464 3.49121 0 0 0
2.36077 -0.682285 3.40201 0 0 0
2.35286 -0.764673 3.39025 0 0 0
2.54217 1.00661 3.66288 0 0 0
2.54217 1.00661 3.66288 0 0 0
2.40673 -0.269872 3.46644 0 0 0
2.40673 -0.269872 3.46644 0 0 0
2.53889 0.95794 3.65626 0 0 0
2.53889 0.95794 3.65626 0 0 0
2.42075 -0.155848 3.48594 0 0 0
2.51379 0.702474 3.6194 0 0 0
2.51379 0.702474 3.6194 0 0 0
2.50243 0.595074 3.60254 0 0 0
2.52399 0.79719 3.6334 0 0 0
2.37165 -0.610171 3.41405 0 0 0
2.4735 0.323492 3.56035 0 0 0
2.4735 0.323492 3.56035 0 0 0
2.45459 0.144913 3.53265 0 0 0
2.45459 0.144913 3.53265 0 0 0
2.47158 0.293193 3.55545 0 0 0
2.51936 0.726433 3.62292 0 0 0
2.48614 0.422515 3.57502 0 0 0
2.50182 0.565026 3.59673 0 0 0
2.4229 -0.159825 3.48303 0 0 0
2.37365 -0.61325 3.41159 0 0 0
2.35667 -0.770607 3.38735 0 0 0
2.52932 0.841733 3.63377 0 0 0
2.46746 0.220504 3.54402 0 0 0
2.51178 0.616452 3.60493 0 0 0
2.48469 0.35114 3.56442 0 0 0
2.48539 0.356472 3.56443 0 0 0
2.45559 0.0729994 3.52156 0 0 0
2.55495 1.00821 3.66251 0 0 0
2.49342 0.418367 3.57399 0 0 0
2.53992 0.840724 3.64019 0 0 0
2.45979 0.0917642 3.52255 0 0 0
2.39846 -0.479184 3.43435 0 0 0
2.47075 0.168057 3.53615 0 0 0
2.51152 0.527136 3.59079 0 0 0
2.41561 -0.337798 3.45305 0 0 0
2.41769 -0.332657 3.45555 0 0 0
2.41356 -0.376473 3.44874 0 0 0
2.47332 0.164579 3.53297 0 0 0
2.4979 0.379258 3.56615 0 0 0
2.48685 0.251557 3.54637 0 0 0
2.55992 0.926784 3.64926 0 0 0
2.53158 0.651963 3.60865 0 0 0
2.42418 -0.328627 3.4547 0 0 0
2.52235 0.543634 3.59323 0 0 0
2.52235 0.543634 3.59323 0 0 0
2.44122 -0.200554 3.47667 0 0 0
2.44122 -0.200554 3.47667 0 0 0
2.54023 0.696468 3.61578 0 0 0
2.55436 0.824125 3.6338 0 0 0
2.511 0.41046 3.57178 0 0 0
2.37554 -0.827657 3.37878 0 0 0
2.53952 0.657179 3.60991 0 0 0
2.53952 0.657179 3.60991 0 0 0
2.4514 -0.136923 3.48459 0 0 0
2.4514 -0.136923 3.48459 0 0 0
2.5543 0.795047 3.63025 0 0 0
2.42218 -0.42444 3.44055 0 0 0
2.42218 -0.42444 3.44055 0 0 0
2.50207 0.300527 3.55407 0 0 0
2.50207 0.300527 3.55407 0 0 0
2.5423 0.675143 3.61138 0 0 0
2.50831 0.339691 3.55945 0 0 0
2.49704 0.250033 3.54395 0 0 0
2.53805 0.602376 3.60114 0 0 0
2.40571 -0.603037 3.41285 0 0 0
2.40571 -0.603037 3.41285 0 0 0
2.38335 -0.817666 3.3801 0 0 0
2.57619 0.962726 3.65344 0 0 0
2.45865 -0.132362 3.48618 0 0 0
2.57998 0.985178 3.65592 0 0 0
2.52207 0.434813 3.57287 0 0 0
2.45048 -0.228274 3.47122 0 0 0
2.5088 0.297067 3.55323 0 0 0
2.5088 0.297067 3.55323 0 0 0
2.53729 0.556661 3.59231 0 0 0
2.57401 0.886443 3.64343 0 0 0
2.4627 -0.1359 3.48395 0 0 0
2.4627 -0.1359 3.48395 0 0 0
2.53643 0.529597 3.58762 0 0 0
2.53582 0.529724 3.58684 0 0 0
2.39023 -0.808409 3.38071 0 0 0
2.53662 0.515677 3.58744 0 0 0
2.45332 -0.232898 3.469 0 0 0
2.53633 0.524975 3.58587 0 0 0
2.58357 0.946528 3.65091 0 0 0
2.49692 0.128657 3.52764 0 0 0
2.5289 0.418768 3.57037 0 0 0
2.58963 0.995706 3.65593 0 0 0
2.58966 0.965504 3.654 0 0 0
2.45256 -0.286846 3.46041 0 0 0
2.45256 -0.286846 3.46041 0 0 0
2.50017 0.124585 3.526 0 0 0
2.53628 0.449975 3.57581 0 0 0
2.49471 0.0619121 3.51681 0 0 0
2.49471 0.0619121 3.51681 0 0 0
2.50276 0.135833 3.52653 0 0 0
2.5927 0.976381 3.65308 0 0 0
2.5308 0.374273 3.56348 0 0 0
2.5308 0.374273 3.56348 0 0 0
2.58182 0.835471 3.63394 0 0 0
2.41771 -0.647646 3.40275 0 0 0
2.41771 -0.647646 3.40275 0 0 0
2.54825 0.512767 3.58577 0 0 0
2.54825 0.512767 3.58577 0 0 0
2.5273 0.324357 3.55602 0 0 0
2.53397 0.395729 3.56568 0 0 0
2.4911 -0.00124402 3.50467 0 0 0
2.59975 0.995608 3.65503 0 0 0
2.48196 -0.0993662 3.48911 0 0 0
2.566 0.646512 3.60548 0 0 0
2.40842 -0.78611 3.38214 0 0 0
2.40842 -0.78611 3.38214 0 0 0
2.59067 0.848814 3.63385 0 0 0
2.53953 0.374789 3.56169 0 0 0
2.53953 0.374789 3.56169 0 0 0
2.50206 0.0277342 3.50899 0 0 0
2.57076 0.642906 3.60458 0 0 0
2.59966 0.904207 3.64389 0 0 0
2.44929 -0.452685 3.43247 0 0 0
2.50611 0.0439672 3.51226 0 0 0
2.47851 -0.207757 3.47316 0 0 0
2.55554 0.492637 3.58044 0 0 0
2.55067 0.419693 3.5709 0 0 0
2.58342 0.746542 3.61692 0 0 0
2.58342 0.746542 3.61692 0 0 0
2.55871 0.513006 3.58167 0 0 0
2.42453 -0.693385 3.39379 0 0 0
2.59188 0.79285 3.62837 0 0 0
2.50144 -0.0225686 3.50077 0 0 0
2.50454 0.00665454 3.50499 0 0 0
2.59468 0.818796 3.63021 0 0 0
2.45266 -0.456811 3.43156 0 0 0
2.52965 0.227102 3.53858 0 0 0
2.60263 0.887897 3.63961 0 0 0
2.60193 0.860553 3.63484 0 0 0
2.45822 -0.442836 3.43375 0 0 0
2.51834 0.0664524 3.51515 0 0 0
2.58381 0.64891 3.60509 0 0 0
2.59541 0.713341 3.61733 0 0 0
2.57657 0.563096 3.59024 0 0 0
2.57657 0.563096 3.59024 0 0 0
2.51943 0.0444581 3.50975 0 0 0
2.59676 0.719856 3.61578 0 0 0
2.43551 -0.712741 3.39113 0 0 0
2.61127 0.862338 3.63515 0 0 0
2.61127 0.862338 3.63515 0 0 0
2.62971 1.03099 3.65993 0 0 0
2.6187 0.942155 3.64428 0 0 0
2.6187 0.942155 3.64428 0 0 0
2.60348 0.77131 3.61908 0 0 0
2.42388 -0.840728 3.36887 0 0 0
2.63167 1.01671 3.65591 0 0 0
2.63167 1.01671 3.65591 0 0 0
2.55963 0.355847 3.55608 0 0 0
2.55963 0.355847 3.55608 0 0 0
2.46653 -0.507127 3.42303 0 0 0
2.49606 -0.252721 3.46335 0 0 0
2.56191 0.318634 3.55144 0 0 0
2.62378 0.871008 3.63479 0 0 0
2.63065 0.934771 3.64342 0 0 0
2.61487 0.764184 3.62009 0 0 0
2.61487 0.764184 3.62009 0 0 0
2.55587 0.19503 3.53547 0 0 0
2.50677 -0.240992 3.46546 0 0 0
2.57631 0.375735 3.56071 0 0 0
2.52463 -0.0791741 3.48942 0 0 0
2.62599 0.867416 3.62904 0 0 0
2.55495 0.1766 3.53027 0 0 0
2.55495 0.1766 3.53027 0 0 0
2.48352 -0.449472 3.43083 0 0 0
2.48352 -0.449472 3.43083 0 0 0
2.46912 -0.578654 3.41044 0 0 0
2.55338 0.153815 3.5261 0 0 0
2.48833 -0.427524 3.43332 0 0 0
2.64036 0.933481 3.64213 0 0 0
2.49139 -0.41962 3.43547 0 0 0
2.49139 -0.41962 3.43547 0 0 0
2.49139 -0.41962 3.43547 0 0 0
2.51699 -0.202056 3.4701 0 0 0
2.49481 -0.393886 3.43834 0 0 0
2.57669 0.312424 3.55004 0 0 0
2.47523 -0.582354 3.40868 0 0 0
2.55882 0.139664 3.52307 0 0 0
2.55882 0.139664 3.52307 0 0 0
2.62005 0.67732 3.60605 0 0 0
2.62005 0.67732 3.60605 0 0 0
2.52106 -0.206929 3.46804 0 0 0
2.63366 0.751494 3.61545 0 0 0
2.63366 0.751494 3.61545 0 0 0
2.56549 0.143109 3.52193 0 0 0
2.60126 0.435613 3.56803 0 0 0
2.65837 0.988168 3.64608 0 0 0
2.62775 0.661892 3.60296 0 0 0
2.64763 0.831785 3.62862 0 0 0
2.56234 0.0686753 3.51145 0 0 0
2.58415 0.267012 3.54054 0 0 0
2.64932 0.845057 3.62901 0 0 0
2.64932 0.845057 3.62901 0 0 0
2.65215 0.850625 3.62953 0 0 0
2.46424 -0.831602 3.37086 0 0 0
2.6107 0.448372 3.56993 0 0 0
2.66241 0.918049 3.64056 0 0 0
2.66962 1.01362 3.64952 0 0 0
2.53696 -0.207277 3.46822 0 0 0
2.67323 1.00703 3.65095 0 0 0
2.67323 1.00703 3.65095 0 0 0
2.62696 0.572433 3.58774 0 0 0
2.66569 0.91534 3.6388 0 0 0
2.60873 0.38561 3.55984 0 0 0
2.61427 0.44532 3.56658 0 0 0
2.57831 0.121284 3.51781 0 0 0
2.63607 0.630195 3.59686 0 0 0
2.59422 0.244738 3.53761 0 0 0
2.64046 0.656371 3.59984 0 0 0
2.67498 0.976536 3.64653 0 0 0
2.52289 -0.381572 3.43918 0 0 0
2.60144 0.304571 3.54614 0 0 0
2.66689 0.866343 3.6341 0 0 0
2.60371 0.314039 3.54811 0 0 0
2.58796 0.179761 3.52677 0 0 0
2.52081 -0.412488 3.43454 0 0 0
2.52081 -0.412488 3.43454 0 0 0
2.56726 -0.013572 3.49678 0 0 0
2.61974 0.435353 3.5657 0 0 0
2.59444 0.215841 3.53125 0 0 0
2.59444 0.215841 3.53125 0 0 0
2.66433 0.831161 3.62479 0 0 0
2.66056 0.788026 3.61933 0 0 0
2.5552 -0.171275 3.47272 0 0 0
2.48284 -0.797821 3.37371 0 0 0
2.65143 0.663506 3.60163 0 0 0
2.62318 0.405819 3.56079 0 0 0
2.54068 -0.315672 3.44897 0 0 0
2.65443 0.670273 3.60214 0 0 0
2.52621 -0.457706 3.42629 0 0 0
2.6578 0.667678 3.60059 0 0 0
2.58332 -0.00169613 3.49672 0 0 0
2.61309 0.234101 3.53464 0 0 0
2.57881 -0.0701646 3.48677 0 0 0
2.57335 -0.114552 3.47913 0 0 0
2.57335 -0.114552 3.47913 0 0 0
2.50012 -0.760915 3.37923 0 0 0
2.70081 1.00089 3.64852 0 0 0
2.70081 1.00089 3.64852 0 0 0
2.56062 -0.246129 3.45758 0 0 0
2.6483 0.514129 3.5756 0 0 0
2.69179 0.901463 3.63435 0 0 0
2.66083 0.610027 3.59036 0 0 0
2.60269 0.0828717 3.51022 0 0 0
2.60269 0.0828717 3.51022 0 0 0
2.65175 0.503452 3.57543 0 0 0
2.65175 0.503452 3.57543 0 0 0
2.66817 0.647504 3.59677 0 0 0
2.66817 0.647504 3.59677 0 0 0
2.66104 0.587262 3.58669 0 0 0
2.65581 0.538321 3.57927 0 0 0
2.70459 0.976103 3.64376 0 0 0
2.69693 0.898656 3.63334 0 0 0
2.68148 0.764584 3.61186 0 0 0
2.68148 0.764584 3.61186 0 0 0
2.67133 0.659162 3.59799 0 0 0
2.69298 0.853099 3.62672 0 0 0
2.69298 0.853099 3.62672 0 0 0
2.69298 0.853099 3.62672 0 0 0
2.60879 0.0949754 3.51289 0 0 0
2.66375 0.576244 3.58511 0 0 0
2.6937 0.838139 3.62525 0 0 0
2.69553 0.8654 3.62737 0 0 0
2.69553 0.8654 3.62737 0 0 0
2.61945 0.168933 3.52334 0 0 0
2.52304 -0.651815 3.39372 0 0 0
2.71032 0.96738 3.64375 0 0 0
2.63301 0.260203 3.53642 0 0 0
2.63301 0.260203 3.53642 0 0 0
2.58442 -0.154048 3.47088 0 0 0
2.68641 0.708284 3.60578 0 0 0
2.66952 0.568176 3.58258 0 0 0
2.7114 0.934244 3.63734 0 0 0
2.7114 0.934244 3.63734 0 0 0
2.55669 -0.407458 3.42939 0 0 0
2.60372 -0.0302384 3.49274 0 0 0
2.65154 0.397879 3.55673 0 0 0
2.7196 0.98683 3.64356 0 0 0
2.7083 0.863729 3.6275 0 0 0
2.7201 0.972327 3.64249 0 0 0
2.62394 0.106871 3.51363 0 0 0
2.62394 0.106871 3.51363 0 0 0
2.71594 0.931356 3.63607 0 0 0
2.72218 1.00556 3.64348 0 0 0
2.69557 0.701707 3.60339 0 0 0
2.69557 0.701707 3.60339 0 0 0
2.67765 0.533731 3.57826 0 0 0
2.72786 0.99259 3.64511 0 0 0
2.66436 0.422859 3.55981 0 0 0
2.52312 -0.797088 3.37056 0 0 0
2.59276 -0.219707 3.46139 0 0 0
2.5728 -0.396424 3.43433 0 0 0
2.71802 0.873846 3.62658 0 0 0
2.65426 0.301416 3.54122 0 0 0
2.70227 0.701264 3.60352 0 0 0
2.73115 0.986878 3.64143 0 0 0
2.68254 0.522671 3.57508 0 0 0
2.57731 -0.398677 3.43363 0 0 0
2.71927 0.849082 3.62304 0 0 0
2.71214 0.77299 3.61156 0 0 0
2.65413 0.25911 3.53436 0 0 0
2.55109 -0.627417 3.3969 0 0 0
2.70772 0.737722 3.60445 0 0 0
2.72525 0.875846 3.62754 0 0 0
2.62542 -0.00804036 3.49447 0 0 0
2.74397 1.03056 3.65024 0 0 0
2.56959 -0.473585 3.41794 0 0 0
2.74293 1.01796 3.64739 0 0 0
2.57964 -0.401135 3.42961 0 0 0
2.7136 0.734894 3.60696 0 0 0
2.55479 -0.613408 3.39618 0 0 0
2.71166 0.690118 3.60277 0 0 0
2.66099 0.26865 3.5351 0 0 0
2.74875 1.02548 3.64856 0 0 0
2.74774 1.01415 3.64595 0 0 0
2.59795 -0.301331 3.44681 0 0 0
2.59795 -0.301331 3.44681 0 0 0
2.55698 -0.65651 3.39083 0 0 0
2.68581 0.438379 3.56045 0 0 0
2.6592 0.207496 3.52427 0 0 0
2.75301 1.02058 3.64741 0 0 0
2.73313 0.82379 3.61868 0 0 0
2.60021 -0.322772 3.44251 0 0 0
2.57067 -0.573604 3.40258 0 0 0
2.60318 -0.305867 3.44507 0 0 0
2.60318 -0.305867 3.44507 0 0 0
2.74164 0.911545 3.62843 0 0 0
2.71755 0.681819 3.59611 0 0 0
2.53766 -0.849624 3.35711 0 0 0
2.5634 -0.65756 3.38953 0 0 0
2.5634 -0.65756 3.38953 0 0 0
2.70014 0.494729 3.57004 0 0 0
2.72555 0.711929 3.60117 0 0 0
2.72555 0.711929 3.60117 0 0 0
2.75377 0.957074 3.63804 0 0 0
2.60739 -0.310189 3.44405 0 0 0
2.641 -0.0379153 3.48792 0 0 0
2.60524 -0.327438 3.44108 0 0 0
2.75521 0.972847 3.63841 0 0 0
2.72465 0.694141 3.59802 0 0 0
2.72373 0.675873 3.59643 0 0 0
2.58399 -0.530638 3.40861 0 0 0
2.71831 0.602775 3.58495 0 0 0
2.75782 0.953988 3.63647 0 0 0
2.72595 0.666952 3.59424 0 0 0
2.73033 0.692587 3.5986 0 0 0
2.74945 0.866737 3.62364 0 0 0
2.75246 0.891655 3.62695 0 0 0
2.60556 -0.357099 3.43246 0 0 0
2.74395 0.80454 3.61405 0 0 0
2.76702 1.00113 3.6424 0 0 0
2.77102 1.02528 3.64717 0 0 0
2.77102 1.02528 3.64717 0 0 0
2.58877 -0.535273 3.40661 0 0 0
2.70468 0.444067 3.55878 0 0 0
2.70468 0.444067 3.55878 0 0 0
2.70052 0.401185 3.55313 0 0 0
2.74919 0.801057 3.61441 0 0 0
2.67922 0.203762 3.52218 0 0 0
2.7665 0.946099 3.63632 0 0 0
2.75631 0.865555 3.62265 0 0 0
2.59987 -0.468238 3.41664 0 0 0
2.71858 0.527069 3.57281 0 0 0
2.58869 -0.575293 3.40146 0 0 0
2.76702 0.942136 3.63535 0 0 0
2.76702 0.942136 3.63535 0 0 0
2.64877 -0.0730777 3.47959 0 0 0
2.58891 -0.584683 3.39986 0 0 0
2.67409 0.121419 3.51115 0 0 0
2.59689 -0.515686 3.40748 0 0 0
2.76444 0.884216 3.62593 0 0 0
2.74254 0.68406 3.59617 0 0 0
2.59939 -0.542536 3.40654 0 0 0
2.78137 1.03191 3.64423 0 0 0
2.70425 0.347508 3.54236 0 0 0
2.70425 0.347508 3.54236 0 0 0
2.76393 0.838283 3.61978 0 0 0
2.58851 -0.663824 3.38676 0 0 0
2.7123 0.378672 3.54787 0 0 0
2.7123 0.378672 3.54787 0 0 0
2.69502 0.216617 3.5235 0 0 0
2.66125 -0.0734786 3.4786 0 0 0
2.679 0.0571841 3.50053 0 0 0
2.78097 0.906521 3.62888 0 0 0
2.7877 0.980629 3.63615 0 0 0
2.77905 0.900953 3.62472 0 0 0
2.78527 0.944797 3.63223 0 0 0
2.78081 0.895076 3.6256 0 0 0
2.717 0.33769 3.54164 0 0 0
2.66454 -0.128096 3.46926 0 0 0
2.66454 -0.128096 3.46926 0 0 0
2.71203 0.254408 3.5282 0 0 0
2.69375 0.0840877 3.50365 0 0 0
2.72295 0.332714 3.54146 0 0 0
2.80241 1.03305 3.64465 0 0 0
2.78443 0.871075 3.62052 0 0 0
2.79043 0.908437 3.62702 0 0 0
2.79373 0.92733 3.62942 0 0 0
2.68947 0.0178349 3.49378 0 0 0
2.75842 0.62135 3.58284 0 0 0
2.75842 0.62135 3.58284 0 0 0
2.64891 -0.319049 3.43914 0 0 0
2.8037 0.98309 3.63855 0 0 0
2.7732 0.712725 3.59939 0 0 0
2.76017 0.61234 3.58239 0 0 0
2.78314 0.815041 3.61133 0 0 0
2.78314 0.815041 3.61133 0 0 0
2.70113 0.106116 3.50496 0 0 0
2.7295 0.332822 3.54167 0 0 0
2.78927 0.862649 3.61926 0 0 0
2.73017 0.352593 3.54235 0 0 0
2.66016 -0.250502 3.45082 0 0 0
2.66016 -0.250502 3.45082 0 0 0
2.5903 -0.841288 3.3577 0 0 0
2.7936 0.858613 3.62 0 0 0
2.65418 -0.313882 3.4387 0 0 0
2.73754 0.364109 3.54417 0 0 0
2.79307 0.817032 3.61218 0 0 0
2.67706 -0.167937 3.46202 0 0 0
2.67706 -0.167937 3.46202 0 0 0
2.80498 0.924954 3.62689 0 0 0
2.59644 -0.868253 3.35371 0 0 0
2.78742 0.718308 3.59914 0 0 0
