ply
format ascii 1.0 
element vertex 1446
property float32 x 
property float32 y 
property float32 z
property uchar red  
property uchar green
property uchar blue
element face 0
property list uchar int vertex_indices
end_header
2.69907 0.698762 3.60423 0 0 0
2.68108 0.53089 3.57902 0 0 0
2.73134 0.989459 3.64594 0 0 0
2.66774 0.42009 3.56052 0 0 0
2.52599 -0.798875 3.37076 0 0 0
2.59575 -0.221955 3.46156 0 0 0
2.57569 -0.39853 3.43449 0 0 0
2.72159 0.870804 3.6275 0 0 0
2.65759 0.298729 3.54188 0 0 0
2.70577 0.69832 3.60436 0 0 0
2.73477 0.983778 3.6424 0 0 0
2.68577 0.519829 3.57567 0 0 0
2.58029 -0.400795 3.43386 0 0 0
2.72322 0.846107 3.62464 0 0 0
2.71559 0.769999 3.61238 0 0 0
2.65741 0.256456 3.53494 0 0 0
2.55403 -0.629361 3.39716 0 0 0
2.71124 0.73476 3.6053 0 0 0
2.72808 0.872664 3.62742 0 0 0
2.6276 -0.0103813 3.4938 0 0 0
2.74715 1.02731 3.65055 0 0 0
2.57259 -0.475664 3.41827 0 0 0
2.74666 1.01487 3.64851 0 0 0
2.58329 -0.403457 3.43081 0 0 0
2.71712 0.73193 3.60782 0 0 0
2.55774 -0.615363 3.39645 0 0 0
2.71516 0.687178 3.6036 0 0 0
2.66463 0.265976 3.53616 0 0 0
2.75236 1.02235 3.64952 0 0 0
2.75138 1.01104 3.64693 0 0 0
2.60097 -0.303515 3.44705 0 0 0
2.60097 -0.303515 3.44705 0 0 0
2.55991 -0.658426 3.39109 0 0 0
2.68921 0.435602 3.56117 0 0 0
2.66364 0.204819 3.52626 0 0 0
2.75666 1.01746 3.64839 0 0 0
2.73704 0.820826 3.61997 0 0 0
2.60282 -0.324915 3.44254 0 0 0
2.57363 -0.575594 3.40287 0 0 0
2.60626 -0.308089 3.44547 0 0 0
2.60672 -0.308193 3.44603 0 0 0
2.74524 0.908485 3.62936 0 0 0
2.72106 0.678896 3.59705 0 0 0
2.54051 -0.851357 3.35729 0 0 0
2.56634 -0.659474 3.38978 0 0 0
2.56634 -0.659474 3.38978 0 0 0
2.70357 0.491914 3.57078 0 0 0
2.72903 0.708984 3.60207 0 0 0
2.72907 0.70898 3.60201 0 0 0
2.7589 0.95424 3.64057 0 0 0
2.61047 -0.312407 3.44444 0 0 0
2.64384 -0.0402836 3.48783 0 0 0
2.60817 -0.32965 3.4415 0 0 0
2.75884 0.969753 3.63937 0 0 0
2.72899 0.691296 3.59992 0 0 0
2.72716 0.672942 3.59722 0 0 0
2.58729 -0.532781 3.40937 0 0 0
2.722 0.599908 3.58598 0 0 0
2.76077 0.950769 3.63656 0 0 0
2.72976 0.664063 3.59548 0 0 0
2.73384 0.689649 3.59943 0 0 0
2.75333 0.863702 3.62536 0 0 0
2.75606 0.888604 3.62787 0 0 0
2.61001 -0.359644 3.43465 0 0 0
2.74751 0.801537 3.61493 0 0 0
2.77067 0.998022 3.64337 0 0 0
2.77468 1.02216 3.64815 0 0 0
2.77468 1.02216 3.64815 0 0 0
2.59176 -0.537296 3.40691 0 0 0
2.70808 0.441287 3.5595 0 0 0
2.70808 0.441287 3.5595 0 0 0
2.70361 0.398428 3.55359 0 0 0
2.75262 0.798027 3.61501 0 0 0
2.68252 0.201147 3.52279 0 0 0
2.77013 0.943016 3.63726 0 0 0
2.75848 0.862313 3.62205 0 0 0
2.60351 -0.470481 3.41766 0 0 0
2.72202 0.524234 3.57356 0 0 0
2.59166 -0.57728 3.40174 0 0 0
2.76935 0.938836 3.63487 0 0 0
2.77065 0.939056 3.63628 0 0 0
2.65213 -0.0755238 3.48038 0 0 0
2.59188 -0.586662 3.40013 0 0 0
2.67736 0.118874 3.51159 0 0 0
2.59989 -0.517724 3.40779 0 0 0
2.76804 0.881168 3.62684 0 0 0
2.74606 0.681128 3.59699 0 0 0
2.60204 -0.544476 3.40653 0 0 0
2.78566 1.02898 3.64631 0 0 0
2.70762 0.344793 3.54303 0 0 0
2.70762 0.344793 3.54303 0 0 0
2.76716 0.835177 3.61997 0 0 0
2.59101 -0.665575 3.38648 0 0 0
2.71569 0.375936 3.54856 0 0 0
2.71564 0.375933 3.54868 0 0 0
2.69833 0.213993 3.52411 0 0 0
2.66444 -0.075886 3.47909 0 0 0
2.68224 0.0546754 3.50107 0 0 0
2.78409 0.903373 3.62919 0 0 0
2.79135 0.977532 3.63711 0 0 0
2.78267 0.897898 3.62564 0 0 0
2.78871 0.9417 3.63308 0 0 0
2.78442 0.892023 3.62651 0 0 0
2.72048 0.334982 3.54238 0 0 0
2.66771 -0.13046 3.46972 0 0 0
2.66771 -0.13046 3.46972 0 0 0
2.71536 0.251757 3.52882 0 0 0
2.69701 0.0815597 3.5042 0 0 0
2.72599 0.330018 3.5415 0 0 0
2.80609 1.02992 3.64563 0 0 0
2.78917 0.86823 3.62287 0 0 0
2.79406 0.905376 3.62794 0 0 0
2.79718 0.924225 3.63011 0 0 0
2.69161 0.0154797 3.493 0 0 0
2.76192 0.618458 3.58363 0 0 0
2.76192 0.618458 3.58363 0 0 0
2.65184 -0.321189 3.43918 0 0 0
2.80736 0.979988 3.6395 0 0 0
2.77674 0.709774 3.60022 0 0 0
2.76367 0.609453 3.58318 0 0 0
2.78672 0.812034 3.6122 0 0 0
2.78672 0.812034 3.6122 0 0 0
2.7045 0.103559 3.50571 0 0 0
2.73175 0.330132 3.54078 0 0 0
2.79288 0.859614 3.62016 0 0 0
2.73355 0.349875 3.54302 0 0 0
2.66328 -0.252767 3.45123 0 0 0
2.66328 -0.252767 3.45123 0 0 0
2.59381 -0.843288 3.35863 0 0 0
2.79626 0.855435 3.6198 0 0 0
2.65727 -0.316087 3.43905 0 0 0
2.74093 0.361383 3.54485 0 0 0
2.79734 0.814118 3.61383 0 0 0
2.68003 -0.170232 3.46222 0 0 0
2.68022 -0.170268 3.46247 0 0 0
2.80862 0.921885 3.62782 0 0 0
2.59761 -0.869206 3.35173 0 0 0
2.79137 0.71538 3.60017 0 0 0
2.80287 0.809873 3.61341 0 0 0
2.72582 0.148869 3.51326 0 0 0
2.63622 -0.59086 3.39663 0 0 0
2.82269 0.987473 3.63687 0 0 0
2.82269 0.987473 3.63687 0 0 0
2.75019 0.338743 3.541 0 0 0
2.70616 -0.0312706 3.48352 0 0 0
2.76414 0.458313 3.55799 0 0 0
2.76414 0.458313 3.55799 0 0 0
2.82934 1.01681 3.64154 0 0 0
2.83168 1.02489 3.64249 0 0 0
2.63952 -0.593494 3.39268 0 0 0
2.74164 0.227299 3.52299 0 0 0
2.66761 -0.380508 3.42617 0 0 0
2.67932 -0.29819 3.44118 0 0 0
2.82462 0.910474 3.62686 0 0 0
2.83518 1.01273 3.64033 0 0 0
2.71964 0.0190051 3.49082 0 0 0
2.83871 1.02005 3.64265 0 0 0
2.74932 0.22237 3.52211 0 0 0
2.74149 0.158789 3.51088 0 0 0
2.76707 0.369229 3.54339 0 0 0
2.63312 -0.740154 3.37135 0 0 0
2.80168 0.647204 3.58592 0 0 0
2.80923 0.693036 3.59451 0 0 0
2.8314 0.88075 3.62063 0 0 0
2.70161 -0.212464 3.45438 0 0 0
2.785 0.484782 3.56088 0 0 0
2.75319 0.218595 3.51964 0 0 0
2.8049 0.642657 3.5854 0 0 0
2.8049 0.642657 3.5854 0 0 0
2.82718 0.830921 3.61302 0 0 0
2.63758 -0.744213 3.36966 0 0 0
2.83824 0.891258 3.62148 0 0 0
2.79231 0.490464 3.56167 0 0 0
2.83129 0.814569 3.61121 0 0 0
2.84174 0.887261 3.62076 0 0 0
2.85055 0.959308 3.63157 0 0 0
2.85055 0.959308 3.63157 0 0 0
2.68701 -0.411785 3.42045 0 0 0
2.70132 -0.305763 3.43786 0 0 0
2.80398 0.549722 3.56894 0 0 0
2.80442 0.549744 3.56928 0 0 0
2.8404 0.840965 3.61361 0 0 0
2.86164 1.02523 3.64021 0 0 0
2.77794 0.308763 3.5337 0 0 0
2.80007 0.485752 3.5606 0 0 0
2.77026 0.223117 3.52246 0 0 0
2.64509 -0.792996 3.36354 0 0 0
2.84034 0.833845 3.61212 0 0 0
2.83985 0.83376 3.61143 0 0 0
2.83842 0.807749 3.60777 0 0 0
2.84791 0.848576 3.6139 0 0 0
2.72085 -0.204442 3.45201 0 0 0
2.80447 0.469422 3.55795 0 0 0
2.81669 0.573373 3.57176 0 0 0
2.82542 0.630285 3.58254 0 0 0
2.81156 0.496058 3.56176 0 0 0
2.81156 0.496058 3.56176 0 0 0
2.76204 0.0871278 3.49861 0 0 0
2.8298 0.657822 3.58461 0 0 0
2.81413 0.501667 3.55936 0 0 0
2.84783 0.771454 3.60173 0 0 0
2.81803 0.522298 3.56338 0 0 0
2.69016 -0.53675 3.40048 0 0 0
2.86798 0.916969 3.62402 0 0 0
2.8684 0.917042 3.62451 0 0 0
2.79416 0.275718 3.52773 0 0 0
2.86796 0.880109 3.61918 0 0 0
2.8482 0.703057 3.59045 0 0 0
2.86838 0.861939 3.61355 0 0 0
2.84487 0.647811 3.58349 0 0 0
2.84487 0.647811 3.58349 0 0 0
2.88617 1.00916 3.63437 0 0 0
2.88666 1.00926 3.6349 0 0 0
2.86436 0.79632 3.60471 0 0 0
2.86302 0.771059 3.60149 0 0 0
2.77514 0.0519795 3.48955 0 0 0
2.81904 0.393817 3.54251 0 0 0
2.68891 -0.668952 3.37718 0 0 0
2.87089 0.795249 3.60439 0 0 0
2.73005 -0.353194 3.42686 0 0 0
2.8382 0.525504 3.56241 0 0 0
2.8324 0.471632 3.55322 0 0 0
2.69181 -0.673251 3.37586 0 0 0
2.6925 -0.743777 3.36797 0 0 0
2.82258 0.31687 3.53011 0 0 0
2.67877 -0.851041 3.34989 0 0 0
2.76542 -0.17216 3.45292 0 0 0
2.88314 0.788445 3.60018 0 0 0
2.87703 0.723634 3.58804 0 0 0
2.91007 0.962541 3.62532 0 0 0
2.73093 -0.501742 3.40118 0 0 0
2.82593 0.23943 3.51763 0 0 0
2.84207 0.370935 3.53713 0 0 0
2.89336 0.801997 3.60129 0 0 0
2.89336 0.801997 3.60129 0 0 0
2.80195 0.036338 3.48663 0 0 0
2.7763 -0.172394 3.453 0 0 0
2.83883 0.328491 3.53073 0 0 0
2.91432 0.935925 3.62377 0 0 0
2.81179 0.0915423 3.49644 0 0 0
2.81224 0.0914457 3.49698 0 0 0
2.74239 -0.454355 3.40969 0 0 0
2.89886 0.797089 3.60175 0 0 0
2.88906 0.698625 3.5885 0 0 0
2.91038 0.872583 3.61479 0 0 0
2.90668 0.825883 3.60615 0 0 0
2.90668 0.825883 3.60615 0 0 0
2.91489 0.868685 3.61322 0 0 0
2.90598 0.792712 3.6018 0 0 0
2.9067 0.769815 3.59831 0 0 0
2.71616 -0.765711 3.36136 0 0 0
2.93232 0.983414 3.6285 0 0 0
2.72019 -0.770999 3.35945 0 0 0
2.93079 0.926987 3.61881 0 0 0
2.92859 0.872803 3.6137 0 0 0
2.72538 -0.751577 3.3616 0 0 0
2.93025 0.870167 3.6105 0 0 0
2.88646 0.508164 3.55627 0 0 0
2.72613 -0.775361 3.35784 0 0 0
2.73552 -0.717689 3.36525 0 0 0
2.90614 0.611458 3.57102 0 0 0
2.72694 -0.824559 3.35007 0 0 0
2.89877 0.543204 3.56088 0 0 0
2.92794 0.760258 3.59509 0 0 0
2.84192 0.0763555 3.48833 0 0 0
2.77279 -0.468704 3.40291 0 0 0
2.88735 0.42 3.54127 0 0 0
2.88735 0.42 3.54127 0 0 0
2.96096 1.00958 3.63019 0 0 0
2.95416 0.954382 3.62125 0 0 0
2.9182 0.650059 3.57646 0 0 0
2.94556 0.882903 3.61041 0 0 0
2.95612 0.970863 3.6218 0 0 0
2.91682 0.63896 3.57347 0 0 0
2.96373 1.01655 3.62985 0 0 0
2.90253 0.500396 3.55288 0 0 0
2.86234 0.17286 3.5034 0 0 0
2.96014 0.950271 3.62034 0 0 0
2.95324 0.880377 3.61037 0 0 0
2.77316 -0.572668 3.3865 0 0 0
2.95051 0.829322 3.60271 0 0 0
2.83411 -0.103982 3.45915 0 0 0
2.97472 1.01663 3.62978 0 0 0
2.92782 0.620606 3.57233 0 0 0
2.92782 0.620606 3.57233 0 0 0
2.85058 0.0117267 3.47791 0 0 0
2.95444 0.836549 3.602 0 0 0
2.97548 1.00497 3.6273 0 0 0
2.97548 1.00497 3.6273 0 0 0
2.88976 0.28279 3.51886 0 0 0
2.96287 0.878867 3.60745 0 0 0
2.91919 0.507903 3.55345 0 0 0
2.87544 0.150684 3.49775 0 0 0
2.96021 0.802882 3.59741 0 0 0
2.74564 -0.903291 3.33606 0 0 0
2.9661 0.856894 3.6042 0 0 0
2.97659 0.933631 3.61521 0 0 0
2.86468 0.0228637 3.47841 0 0 0
2.96359 0.812018 3.59814 0 0 0
2.96932 0.848018 3.60369 0 0 0
2.96932 0.848018 3.60369 0 0 0
2.95681 0.744982 3.58779 0 0 0
2.97862 0.930492 3.61429 0 0 0
2.9538 0.714523 3.5838 0 0 0
2.89966 0.229222 3.50939 0 0 0
2.779 -0.710705 3.36179 0 0 0
2.97644 0.818851 3.59884 0 0 0
2.97644 0.818851 3.59884 0 0 0
2.89161 0.144495 3.49616 0 0 0
2.90265 0.22566 3.5076 0 0 0
2.78365 -0.705408 3.36308 0 0 0
2.99945 0.987667 3.62352 0 0 0
2.99945 0.987667 3.62352 0 0 0
2.81757 -0.475791 3.39852 0 0 0
2.98458 0.832699 3.59826 0 0 0
3.00424 0.983117 3.62128 0 0 0
3.00424 0.983117 3.62128 0 0 0
2.8034 -0.60408 3.37783 0 0 0
2.90594 0.185888 3.50113 0 0 0
2.96125 0.601681 3.56308 0 0 0
2.85743 -0.228407 3.4365 0 0 0
2.85743 -0.228407 3.4365 0 0 0
2.99451 0.830306 3.59958 0 0 0
2.99451 0.830306 3.59958 0 0 0
2.79762 -0.716221 3.35844 0 0 0
2.90305 0.0622986 3.48319 0 0 0
2.99186 0.770324 3.5893 0 0 0
3.01694 0.911781 3.61052 0 0 0
2.96215 0.471129 3.54333 0 0 0
3.02734 0.972415 3.61848 0 0 0
3.01481 0.859338 3.60009 0 0 0
2.99198 0.660258 3.5707 0 0 0
2.96561 0.419345 3.53556 0 0 0
2.98968 0.601989 3.56277 0 0 0
3.02213 0.849515 3.59892 0 0 0
2.88726 -0.210451 3.43714 0 0 0
2.83638 -0.608086 3.37476 0 0 0
3.02178 0.801591 3.59156 0 0 0
2.91792 -0.0357761 3.46439 0 0 0
3.03927 0.911413 3.60612 0 0 0
3.02691 0.798065 3.59058 0 0 0
2.97902 0.407407 3.5308 0 0 0
2.85558 -0.565309 3.38063 0 0 0
2.81427 -0.873099 3.3312 0 0 0
3.0188 0.676631 3.57275 0 0 0
2.91583 -0.123329 3.45049 0 0 0
3.06031 0.975412 3.61455 0 0 0
2.87253 -0.533027 3.38425 0 0 0
3.0334 0.636246 3.56406 0 0 0
3.05293 0.74867 3.58071 0 0 0
2.89823 -0.424842 3.39874 0 0 0
2.89918 -0.425066 3.39976 0 0 0
2.87572 -0.622184 3.36998 0 0 0
2.96799 0.0425046 3.47253 0 0 0
2.89504 -0.567388 3.3768 0 0 0
3.08678 0.882147 3.59967 0 0 0
3.09775 0.963593 3.61072 0 0 0
3.07974 0.794557 3.58459 0 0 0
3.07974 0.794557 3.58459 0 0 0
3.10648 1.00482 3.61502 0 0 0
2.88273 -0.729803 3.35154 0 0 0
3.08764 0.82288 3.58971 0 0 0
3.11237 0.975955 3.61169 0 0 0
3.11471 0.925632 3.60174 0 0 0
3.10524 0.856755 3.58809 0 0 0
2.91748 -0.606363 3.36858 0 0 0
3.10942 0.804044 3.58443 0 0 0
3.0131 -0.00977772 3.46146 0 0 0
3.05609 0.282355 3.50559 0 0 0
2.9395 -0.597361 3.36928 0 0 0
2.89969 -0.907796 3.32089 0 0 0
2.90081 -0.914664 3.31872 0 0 0
2.91578 -0.91296 3.31766 0 0 0
2.95484 -0.6474 3.35905 0 0 0
2.95812 -0.878127 3.32141 0 0 0
2.95523 -0.894878 3.31717 0 0 0
2.9645 -0.87041 3.31862 0 0 0
-8.64805 -3.20671 8.68673 123 119 107
-8.51846 -1.75819 8.94805 81 75 63
-13.34 -8.62237 12.9612 69 65 56
-13.34 -8.62237 12.9612 69 65 56
-13.3699 -7.20655 13.3299 66 63 48
-13.4404 -8.72568 13.2056 73 69 60
-9.16503 -0.0973076 10.2847 142 137 117
-8.59004 -1.50333 9.35752 132 127 108
-8.797 -1.4267 9.60484 130 125 106
-13.3755 -7.0543 13.7624 109 104 84
-13.3681 -7.13314 13.8008 93 90 73
-13.36 -7.33975 13.7636 83 78 59
-13.3409 -7.13449 13.8094 92 87 68
-13.2514 -7.18723 13.8841 72 67 48
-13.2514 -7.18723 13.8841 72 67 48
-13.227 -7.15587 13.8737 85 79 63
-8.6119 -1.27085 9.72365 138 132 116
-8.60111 -1.39623 9.80158 154 152 131
-8.45651 -1.56583 9.66543 149 144 125
-13.0078 -9.76416 13.92 180 179 175
-13.1972 -8.8514 14.4848 162 159 154
-13.1751 -8.87783 14.5261 156 156 154
-13.0548 -8.81836 14.426 151 150 146
-13.1017 -9.10555 14.5356 202 201 206
-13.1653 -8.76387 14.7192 195 192 183
-13.271 -8.77922 14.8872 210 209 205
-13.0984 -8.97 14.7555 172 171 167
-13.0932 -9.01451 14.8111 167 167 167
-13.1387 -9.08349 14.9095 215 214 219
-12.9403 -9.44689 14.6891 195 192 187
-13.0967 -8.23477 15.1613 212 212 214
-12.9558 -9.35182 14.9174 177 176 171
-7.54863 -1.9517 9.52328 131 125 101
-7.53354 -1.95509 9.54034 114 111 92
-7.54307 -1.66953 9.63694 141 136 114
-12.8144 -8.78675 15.7125 184 183 178
-12.7781 -8.7825 15.7463 182 183 178
-3.93944 0.582922 5.5574 124 119 97
-3.80676 0.53107 5.46746 123 119 92
-3.73937 0.296151 5.36787 129 123 97
-3.754 0.568501 5.52348 124 120 95
-3.74205 0.463443 5.49004 123 119 94
-3.68817 0.361869 5.40342 76 72 45
-3.70379 0.519415 5.52322 124 119 97
-3.71789 0.569631 5.5885 126 120 94
-3.64134 0.282039 5.43066 127 122 100
-3.73256 0.608008 5.67873 123 122 94
-3.70267 0.607144 5.70507 130 125 103
-3.93084 -2.35169 5.43549 213 212 217
-3.072 -2.42446 4.22071 242 242 240
-3.3182 -2.45839 4.62339 253 253 253
-3.49688 0.239647 5.49626 145 140 118
-3.02601 -2.47297 4.18992 92 88 79
-3.02615 -2.47329 4.19019 92 88 79
-3.31079 -2.47438 4.65263 136 128 109
-3.01223 -2.47739 4.18225 92 89 82
-3.29519 -2.47669 4.67225 140 136 127
-3.49968 0.634425 5.68601 89 83 51
-2.97296 -2.49442 4.20843 80 76 64
-3.50965 -2.55924 5.10962 140 134 120
-3.22189 -2.54359 4.65044 127 123 112
-3.49635 -2.57986 5.10777 138 134 122
-3.22294 -2.51458 4.68194 117 113 101
-3.48009 -2.57179 5.10602 142 136 124
-3.22315 -2.49992 4.71103 127 123 112
-3.22457 -2.50138 4.7127 127 123 112
-3.2111 -2.51086 4.70182 98 94 83
-3.18517 -2.56171 4.65524 124 118 106
-3.21002 -2.51034 4.72401 124 120 108
-3.31108 0.338248 5.52287 95 89 55
-3.51702 -2.53651 5.28961 144 137 121
-4.84462 -2.59172 7.6613 158 151 133
-4.84998 -2.57723 7.69321 133 128 106
-3.88666 -2.67331 6.07949 150 143 125
-4.82027 -2.51339 7.72669 104 101 84
-4.82027 -2.51339 7.72669 104 101 84
-2.99991 -2.51966 4.61443 122 117 98
-4.7923 -2.55977 7.76591 135 130 110
-2.96278 -2.53508 4.58641 94 89 69
-2.94991 -2.53692 4.58726 94 88 66
-2.95835 -2.51993 4.61124 124 117 99
-4.09507 -2.68538 6.57311 152 145 126
-4.49118 -2.74982 7.36268 154 147 128
-4.62312 -2.7741 7.58845 154 147 128
-2.55371 0.426472 4.62522 164 161 142
-4.64168 -2.77161 7.6587 154 147 128
-4.63557 -2.76706 7.68996 157 150 132
-4.29222 -2.74491 7.11608 152 145 126
-4.29222 -2.74491 7.11608 152 145 126
-4.66526 -2.74933 7.79864 159 152 133
-2.49484 0.350675 4.57918 166 161 142
-2.49941 0.357516 4.60544 167 162 142
-4.63071 -2.75944 7.81185 159 152 134
-2.52275 0.469781 4.68479 166 161 142
-2.46247 0.313423 4.56122 164 161 142
-2.51663 0.490792 4.70378 166 161 142
-4.24523 -2.76449 7.15865 155 150 131
-2.83168 -2.63211 4.59644 121 115 93
-2.42765 0.290465 4.57965 164 161 142
-3.04074 -2.63708 5.08191 133 127 103
-3.03956 -2.63569 5.0811 133 125 102
-2.46849 0.495949 4.73749 165 162 145
-4.37413 -2.83874 7.58459 158 151 133
-2.80614 -2.56378 4.69902 127 119 98
-4.39018 -2.84968 7.64016 157 152 133
-4.78274 -2.60543 8.4573 164 157 139
-4.76183 -2.61047 8.41997 161 156 137
-2.42904 0.332921 4.65891 164 161 142
-4.77982 -2.61694 8.46992 164 157 138
-3.01371 -2.60558 5.155 133 126 107
-4.76802 -2.61411 8.53126 162 157 138
-2.99253 -2.62112 5.15098 128 122 98
-4.74432 -2.65732 8.5089 158 155 136
-9.441 -10.6856 15.8224 133 128 106
-3.21811 -2.68714 5.6039 145 138 120
-3.20281 -2.67992 5.59756 147 140 121
-3.42686 -2.76708 6.04776 149 142 124
-4.58165 -2.75061 8.37089 161 154 135
-3.39394 -2.78435 6.05337 149 142 124
-3.60395 -2.77577 6.61797 154 147 128
-2.31058 0.287793 4.73585 145 140 111
-4.74892 2.91111 10.3913 114 109 79
-4.74276 2.91956 10.4065 114 107 79
-4.66903 2.14068 10.2625 106 97 66
-2.22097 0.263845 4.79343 145 140 110
-2.2077 0.26303 4.80226 144 138 106
-4.09332 3.28103 10.33 137 133 108
-4.08705 3.25518 10.3343 135 129 103
-3.39599 -2.98902 7.40962 144 137 118
-3.39356 -2.96371 7.41559 145 140 118
-3.99176 0.419059 9.90353 165 159 133
-1.87078 -0.152402 4.88545 126 120 94
-2.12573 -2.39209 5.38653 150 145 125
-1.6613 -2.25516 4.22863 81 74 48
-1.60285 -2.24493 4.07025 100 97 80
-1.64436 -0.0340144 4.75288 136 127 96
-1.64445 -0.0339127 4.7527 136 127 96
-2.33178 -2.5937 6.11958 143 136 118
-1.63297 0.345519 4.88068 147 137 110
-1.59285 0.0968621 4.74028 150 140 113
-1.61439 0.358236 4.8997 160 153 127
-1.61439 0.358236 4.8997 160 153 127
-1.52796 0.260898 4.72707 135 128 100
-1.53465 0.0974604 4.7156 172 162 135
-2.96226 -2.85228 8.33091 168 161 145
-2.94993 -2.77794 8.35453 167 160 144
-2.06756 -2.6034 5.8853 153 146 128
-1.47209 -0.0366904 4.6595 185 179 157
-1.4264 0.0988792 4.69464 170 162 139
-1.45153 -2.41087 4.29766 118 111 92
-1.35215 0.144528 4.64435 134 125 96
-1.63607 -2.52492 4.98629 139 133 109
-1.27404 0.239756 4.6649 122 112 77
-1.27404 0.239756 4.6649 122 112 77
-2.5914 0.618245 9.83227 189 182 154
-2.47169 0.947005 9.89457 117 108 75
-2.45352 0.951779 9.88908 111 101 66
-1.16214 0.599732 4.84596 171 164 136
-1.1168 0.799884 4.74099 155 148 119
-1.37014 -2.59039 5.47944 159 154 135
-1.79414 -2.85995 7.43215 180 171 154
-1.7935 -2.88417 7.43061 177 170 154
-1.95615 1.59936 9.9372 90 85 55
-1.89566 1.5835 9.93106 94 87 59
-1.76323 2.09645 10.0305 91 79 53
-0.9536 -2.48032 4.53615 92 87 58
-0.93623 -2.48408 4.54649 96 91 62
-0.734956 0.0594317 4.23207 174 168 142
-0.724714 0.051985 4.21313 174 168 142
-1.64007 2.80692 10.1272 124 116 80
-1.62264 2.8225 10.1129 124 115 82
-1.6147 2.81086 10.1177 125 117 81
-0.900567 -2.49494 4.57478 89 82 53
-0.900567 -2.49494 4.57478 89 82 53
-0.665845 0.0829066 4.2792 175 171 144
-0.665845 0.0829066 4.2792 175 171 144
-0.678343 0.773947 4.58445 125 116 77
-1.22592 -2.82984 7.02935 167 162 143
-0.812882 -2.53648 4.62468 90 83 55
-0.795043 -2.51328 4.52074 135 128 102
-0.820582 -2.52442 4.71988 150 140 113
-0.603721 0.572971 4.28708 163 156 130
-0.82109 -2.52518 4.7587 131 124 96
-0.616826 0.0346241 4.25958 175 169 143
-0.803028 -2.53945 4.70256 143 135 116
-0.605947 0.79111 4.63458 138 129 96
-0.603169 0.793279 4.61881 138 129 96
-0.582282 0.711691 4.56644 160 152 129
-0.575231 0.937554 4.82454 182 175 149
-1.24022 1.50411 9.8823 178 171 153
-1.24022 1.50411 9.8823 178 171 153
-1.23289 1.45284 9.91923 169 164 145
-0.483538 0.013391 4.23254 175 170 141
-1.09653 2.8102 10.054 131 121 85
-0.471093 -0.0434182 4.19205 175 169 145
-0.451607 0.240108 4.13047 177 171 145
-0.875462 1.71269 8.86179 174 168 146
-0.962193 2.01424 9.739 176 168 145
-0.423274 0.829355 4.55833 179 173 147
-0.416847 0.728058 4.53241 160 158 133
-0.902317 2.50973 9.82663 113 106 77
-0.393626 -0.13353 4.19015 177 171 147
-0.361209 -0.153811 4.21625 176 170 146
-0.797512 2.95291 9.94531 136 130 108
-0.797512 2.95291 9.94531 136 130 108
-0.363685 1.03667 4.82769 104 99 77
-0.743141 2.94601 9.94015 147 141 117
-0.61394 -3.00229 7.36409 170 163 145
-0.619467 2.01267 9.79114 168 162 140
-0.623965 1.7444 9.74305 173 168 149
-0.623965 1.7444 9.74305 173 168 149
-0.615403 2.06606 9.80447 170 163 144
-0.613503 2.00067 9.79253 167 161 139
-0.618657 1.71809 9.73523 171 164 145
-0.604911 1.98535 9.78674 169 163 141
-0.602189 2.00055 9.77632 166 159 140
-0.602189 2.00055 9.77632 166 159 140
-0.596748 2.01749 9.78967 164 157 138
-0.579765 -2.94625 7.44301 171 164 146
-0.510851 -2.82739 6.57269 168 161 142
-0.51538 1.75361 9.78642 159 155 128
-0.265521 -2.55004 4.59192 136 130 108
-0.180885 -2.65682 5.06015 153 143 116
-0.0800694 0.691501 4.64365 181 175 151
-0.0800694 0.691501 4.64365 181 175 151
-0.18223 -2.69281 5.33371 145 138 112
-0.0933792 -2.9061 6.69268 162 156 134
0.0793714 1.36075 4.99273 37 38 33
0.0793714 1.36075 4.99273 37 38 33
0.146469 1.34008 4.82649 28 30 25
0.134061 0.335608 3.84615 180 174 150
0.227546 1.54894 5.14167 47 47 45
0.391303 1.05278 4.6735 169 167 146
0.415056 1.08527 4.67481 128 124 99
0.805775 2.9748 9.94862 55 56 51
0.812404 2.9574 9.93976 51 50 45
0.490276 1.10311 4.72003 165 166 148
0.611312 -2.0052 5.97119 170 163 145
0.996034 2.46329 9.7264 50 51 46
0.996034 2.46329 9.7264 50 51 46
0.996244 2.44581 9.71583 52 53 48
0.463346 -1.72531 4.11409 145 139 115
1.01788 2.47367 9.71435 50 51 46
1.01815 2.43762 9.71772 48 48 46
0.452123 0.406285 3.88059 181 175 149
0.452123 0.406285 3.88059 181 175 149
1.02667 2.46525 9.71953 49 51 46
1.03614 2.42859 9.71085 51 51 49
0.476432 0.575582 3.90913 174 168 142
1.08986 2.5322 9.68325 44 44 42
1.09428 2.54817 9.68168 36 36 34
0.500402 0.539266 3.86282 183 179 154
1.17528 3.01631 9.73673 112 110 97
1.17528 3.01631 9.73673 112 110 97
1.18849 3.15457 9.76613 92 87 58
1.19768 2.9805 9.78151 60 58 43
1.1935 2.60971 9.69985 81 79 64
0.528597 0.39745 3.86282 182 176 150
0.556864 0.497366 3.88324 184 178 154
1.31305 2.29964 9.69514 169 163 139
0.570152 0.0547886 3.8046 179 173 149
1.32122 2.2968 9.70236 168 162 138
1.33577 2.91727 9.80239 156 152 125
0.676561 0.907114 4.60708 179 174 145
0.668926 0.823794 4.53914 180 175 146
0.5909 0.53458 3.92082 182 176 150
0.595982 0.430774 3.87539 181 175 149
0.719946 0.0412441 3.81468 119 110 81
0.719946 0.0412441 3.81468 119 110 81
1.15539 1.18111 5.74395 167 158 129
1.18751 1.05966 5.61036 168 159 128
0.935385 0.930397 4.17907 170 161 132
0.984195 0.13934 3.85344 171 162 133
1.3394 0.992858 5.32947 169 162 133
1.35519 0.972658 5.29947 172 163 134
1.393 0.948073 5.26713 166 155 127
1.4182 1.04514 5.16904 168 159 130
1.42475 1.03425 5.16995 167 158 129
1.57194 0.879252 5.24721 0 0 0
2.83514 1.46884 9.58993 0 0 0
2.83514 1.46884 9.58993 0 0 0
1.57798 0.772922 5.08589 0 0 0
1.6127 0.919233 5.15545 0 0 0
1.63024 0.974848 5.1878 0 0 0
1.71541 1.15376 5.28176 0 0 0
1.72869 1.09675 5.28829 0 0 0
1.67623 0.856298 5.08294 0 0 0
1.67623 0.856298 5.08294 0 0 0
1.73739 1.08665 5.28092 0 0 0
1.73805 1.15414 5.27102 0 0 0
1.73936 1.13561 5.272 0 0 0
1.67438 0.995786 5.03115 0 0 0
1.75686 1.12606 5.25838 0 0 0
1.77302 1.12546 5.2339 0 0 0
1.77302 1.12546 5.2339 0 0 0
1.72968 0.845069 5.04052 0 0 0
1.70137 1.06384 4.97526 0 0 0
1.80309 1.19725 5.1901 0 0 0
1.73655 1.02579 4.91573 0 0 0
1.82468 1.32214 5.18429 0 0 0
1.74506 1.01118 4.90468 0 0 0
1.7491 1.00476 4.90024 0 0 0
1.76064 0.961355 4.90986 0 0 0
1.83916 1.14808 5.09746 0 0 0
1.86907 1.2187 5.14758 0 0 0
1.68686 0.412531 4.51242 0 0 0
1.85639 1.18403 5.08992 0 0 0
1.86258 1.18925 5.09401 0 0 0
1.83336 1.04379 4.98164 0 0 0
1.90515 1.26569 5.18412 0 0 0
1.82891 0.899793 4.91375 0 0 0
1.84055 1.08437 4.97133 0 0 0
1.84334 1.07356 4.9757 0 0 0
1.89333 1.22529 5.12863 0 0 0
1.57519 -0.0214412 4.07178 0 0 0
1.85448 0.958591 4.9506 0 0 0
1.57003 -0.0494082 4.02754 0 0 0
1.85378 0.954329 4.93762 0 0 0
1.62825 0.199467 4.21441 0 0 0
1.8599 0.949705 4.93295 0 0 0
1.93672 1.33024 5.19017 0 0 0
1.57779 -0.0728146 4.00968 0 0 0
1.5794 -0.0762565 4.00719 0 0 0
1.88059 1.0568 4.98191 0 0 0
1.86205 0.951767 4.886 0 0 0
1.95723 1.09116 5.13366 0 0 0
1.60458 -0.077458 4.00637 0 0 0
1.96477 1.08077 5.11956 0 0 0
1.98043 1.11151 5.12865 0 0 0
1.67033 0.353883 4.15488 0 0 0
1.6332 -0.0672033 3.97543 0 0 0
1.66418 0.1742 4.0535 0 0 0
2.05058 1.27214 5.20263 0 0 0
1.67043 0.21292 4.05973 0 0 0
1.91662 0.938228 4.771 0 0 0
1.92159 0.953127 4.78161 0 0 0
1.93575 0.999715 4.80635 0 0 0
1.9294 0.942856 4.7754 0 0 0
2.09646 1.24857 5.21073 0 0 0
1.95673 0.985964 4.79876 0 0 0
1.95412 0.955693 4.78399 0 0 0
1.84765 0.751239 4.46721 0 0 0
1.67224 -0.0707844 3.85899 0 0 0
2.0029 0.933545 4.80237 0 0 0
2.02363 0.983741 4.80384 0 0 0
2.06355 0.910996 4.78021 0 0 0
2.08568 0.938295 4.78438 0 0 0
2.09721 0.875982 4.74357 0 0 0
1.73644 -0.0330829 3.72721 0 0 0
2.12475 0.901359 4.72619 0 0 0
2.12791 0.895707 4.72248 0 0 0
2.12929 0.886329 4.71723 0 0 0
2.14604 0.883447 4.71119 0 0 0
2.15679 0.886211 4.70485 0 0 0
1.78368 0.215266 3.75952 0 0 0
2.16402 0.89611 4.70246 0 0 0
2.16661 0.891151 4.70237 0 0 0
1.78777 0.0424155 3.72875 0 0 0
1.79705 0.00492101 3.72376 0 0 0
1.79829 -0.0780028 3.71169 0 0 0
1.8273 0.0111067 3.72486 0 0 0
1.82682 0.0111751 3.72461 0 0 0
1.85496 -0.0703458 3.71263 0 0 0
1.86357 -0.136384 3.70611 0 0 0
1.8667 -0.0613677 3.71634 0 0 0
1.87362 -0.0537761 3.71854 0 0 0
1.87387 -0.0537856 3.71861 0 0 0
1.89107 -0.27163 3.71572 0 0 0
1.8853 -0.0686393 3.71696 0 0 0
1.99691 0.721033 3.94821 0 0 0
1.94055 -0.0513174 3.7144 0 0 0
1.95055 0.4218 3.78825 0 0 0
1.98867 0.675312 3.90245 0 0 0
1.95958 0.175633 3.7484 0 0 0
1.95958 0.175633 3.7484 0 0 0
1.97002 -0.173185 3.69816 0 0 0
1.98035 -0.0223641 3.71906 0 0 0
1.98116 0.21511 3.75508 0 0 0
1.99704 0.050225 3.72945 0 0 0
1.99739 0.0500914 3.72984 0 0 0
2.37821 1.02891 4.62329 0 0 0
2.38296 1.02319 4.61877 0 0 0
2.38437 1.04212 4.62261 0 0 0
2.38936 1.14771 4.6431 0 0 0
2.38863 1.07901 4.62592 0 0 0
2.01485 -0.125242 3.70095 0 0 0
2.03559 0.199868 3.74396 0 0 0
2.04463 0.336119 3.76661 0 0 0
2.05303 0.224725 3.765 0 0 0
2.06256 0.211955 3.75935 0 0 0
2.12166 0.725333 3.94203 0 0 0
2.11765 0.70283 3.92069 0 0 0
2.12895 0.726178 3.9449 0 0 0
2.12316 0.692539 3.91257 0 0 0
2.11362 0.674769 3.89154 0 0 0
2.07666 0.484974 3.78724 0 0 0
2.0376 -0.559094 3.49166 0 0 0
2.52267 1.2216 4.63388 0 0 0
2.54552 1.19412 4.62966 0 0 0
2.5453 1.20589 4.63118 0 0 0
2.55455 1.20013 4.62782 0 0 0
2.57611 1.17779 4.62379 0 0 0
2.59009 1.15157 4.61687 0 0 0
2.12105 0.406105 3.65302 0 0 0
2.13972 0.942863 3.76265 0 0 0
2.14123 0.917632 3.75539 0 0 0
2.60248 1.1937 4.62366 0 0 0
2.60248 1.1937 4.62366 0 0 0
2.13586 -0.824346 3.40048 0 0 0
2.65714 1.22697 4.62367 0 0 0
2.68898 1.22544 4.62201 0 0 0
2.18444 -0.711402 3.41459 0 0 0
2.18444 -0.711402 3.41459 0 0 0
2.1871 -0.766375 3.40772 0 0 0
2.71517 1.21685 4.62012 0 0 0
2.20488 -0.586712 3.43531 0 0 0
2.20182 -0.537295 3.43725 0 0 0
2.20442 -0.815253 3.39641 0 0 0
2.21746 0.161955 3.56078 0 0 0
2.21789 0.634855 3.63383 0 0 0
2.21804 0.63489 3.63379 0 0 0
2.21591 -0.431123 3.45815 0 0 0
2.22417 0.251747 3.57321 0 0 0
2.22108 -0.487513 3.45072 0 0 0
2.21951 -0.440681 3.45504 0 0 0
2.22222 -0.366232 3.46944 0 0 0
2.23016 0.306921 3.58234 0 0 0
2.23479 -0.391136 3.46268 0 0 0
2.23752 -0.1904 3.49651 0 0 0
2.24573 0.527144 3.62133 0 0 0
2.77537 1.18132 4.60764 0 0 0
2.23932 -0.312947 3.47482 0 0 0
2.24151 -0.136758 3.50508 0 0 0
2.24266 -0.116068 3.50822 0 0 0
2.24592 -0.0727704 3.51585 0 0 0
2.24592 -0.0727704 3.51585 0 0 0
2.25604 0.817099 3.66301 0 0 0
2.2544 -0.103242 3.50966 0 0 0
2.2601 -0.131487 3.50424 0 0 0
2.2716 0.764765 3.65404 0 0 0
2.26892 0.504072 3.60764 0 0 0
2.80769 1.17863 4.60437 0 0 0
2.80769 1.17863 4.60437 0 0 0
2.28572 1.1029 3.71206 0 0 0
2.27862 0.363656 3.58385 0 0 0
2.28238 0.881332 3.67033 0 0 0
2.28156 0.801716 3.65538 0 0 0
2.28388 0.149855 3.55093 0 0 0
2.83019 1.21043 4.60838 0 0 0
2.28802 0.457718 3.59837 0 0 0
2.29331 0.398063 3.59185 0 0 0
2.29851 1.09599 3.70761 0 0 0
2.29519 1.0202 3.69061 0 0 0
2.8405 1.2008 4.60482 0 0 0
2.29366 -0.217888 3.4886 0 0 0
2.29751 0.283419 3.57052 0 0 0
2.29914 0.485979 3.60378 0 0 0
2.30379 1.10889 3.70666 0 0 0
2.30108 1.02376 3.68762 0 0 0
2.30348 1.06479 3.69314 0 0 0
2.3085 -0.125324 3.5009 0 0 0
2.3085 -0.125324 3.5009 0 0 0
2.31429 0.550186 3.61351 0 0 0
2.86747 1.17601 4.60002 0 0 0
2.31467 -0.8654 3.37863 0 0 0
2.32412 0.652443 3.6266 0 0 0
2.87633 1.16623 4.59759 0 0 0
2.31973 -0.513266 3.43654 0 0 0
2.32364 0.375064 3.58154 0 0 0
2.32368 -0.117651 3.50019 0 0 0
2.32327 -0.572189 3.42648 0 0 0
2.32942 0.850285 3.65729 0 0 0
2.33114 0.850444 3.6599 0 0 0
2.33055 0.574484 3.61244 0 0 0
2.33518 0.809265 3.6513 0 0 0
2.34108 0.102402 3.53821 0 0 0
2.34651 1.03027 3.68583 0 0 0
2.34651 1.03027 3.68583 0 0 0
2.35432 0.836337 3.65572 0 0 0
2.3588 0.683463 3.63186 0 0 0
2.35244 -0.868273 3.37435 0 0 0
2.36664 0.26738 3.56501 0 0 0
2.92783 1.16523 4.59526 0 0 0
2.92783 1.16523 4.59526 0 0 0
2.36053 -0.502962 3.43195 0 0 0
2.36053 -0.502962 3.43195 0 0 0
2.93169 1.17073 4.59576 0 0 0
2.36824 0.0110845 3.5197 0 0 0
2.36872 -0.00129913 3.51642 0 0 0
2.36825 -0.708624 3.40189 0 0 0
2.36882 -0.512715 3.43073 0 0 0
2.37762 0.846732 3.6549 0 0 0
2.3786 0.575847 3.61209 0 0 0
2.3786 0.575847 3.61209 0 0 0
2.37685 -0.287972 3.46782 0 0 0
2.3802 0.0453495 3.52528 0 0 0
2.38376 0.730083 3.63617 0 0 0
2.38376 0.730083 3.63617 0 0 0
2.38509 0.594948 3.61441 0 0 0
2.38642 0.720822 3.6336 0 0 0
2.38619 0.608763 3.61576 0 0 0
2.38954 0.567294 3.60959 0 0 0
2.39004 0.636166 3.61971 0 0 0
2.96063 1.19 4.59388 0 0 0
2.96063 1.19 4.59388 0 0 0
2.96109 1.15761 4.58876 0 0 0
2.39098 -0.245298 3.47509 0 0 0
2.38996 -0.290162 3.4659 0 0 0
2.39194 -0.224117 3.47759 0 0 0
2.40225 0.859879 3.65479 0 0 0
2.41003 0.848193 3.65267 0 0 0
2.40557 -0.842196 3.3727 0 0 0
2.41409 0.514999 3.59797 0 0 0
2.41754 0.325545 3.56827 0 0 0
2.41856 0.511968 3.5971 0 0 0
2.42005 0.272977 3.55771 0 0 0
2.42496 0.839989 3.65104 0 0 0
2.42496 0.839989 3.65104 0 0 0
2.42484 0.642052 3.61906 0 0 0
2.42758 0.451376 3.58814 0 0 0
2.42727 0.331613 3.56703 0 0 0
2.42953 0.637309 3.61682 0 0 0
2.42603 -0.192679 3.48051 0 0 0
2.42426 -0.460256 3.43559 0 0 0
2.42947 0.756684 3.63401 0 0 0
2.43413 -0.584818 3.41334 0 0 0
2.44147 1.05837 3.68065 0 0 0
2.43953 1.05831 3.67757 0 0 0
2.4411 1.05857 3.67997 0 0 0
2.44053 -0.173374 3.48291 0 0 0
2.43866 -0.456182 3.43484 0 0 0
2.43866 -0.456182 3.43484 0 0 0
2.44213 -0.015886 3.50806 0 0 0
2.44506 1.00931 3.67426 0 0 0
2.44973 -0.106893 3.49079 0 0 0
2.45347 0.904614 3.65592 0 0 0
2.45501 1.03041 3.67514 0 0 0
2.45733 0.740161 3.63216 0 0 0
2.46303 0.367196 3.56857 0 0 0
2.46166 -0.320766 3.45544 0 0 0
2.46043 -0.641592 3.40191 0 0 0
2.46492 0.32106 3.56024 0 0 0
2.46587 -0.0698531 3.49636 0 0 0
2.46874 0.168836 3.53748 0 0 0
2.46695 -0.448706 3.43306 0 0 0
2.47013 -0.227298 3.47061 0 0 0
2.47448 0.883386 3.65173 0 0 0
2.47685 0.962479 3.66313 0 0 0
2.47737 0.456489 3.583 0 0 0
2.4727 -0.553426 3.4148 0 0 0
2.47916 0.839465 3.64456 0 0 0
2.48324 0.857325 3.64878 0 0 0
2.48052 -0.145869 3.48258 0 0 0
2.48287 -0.338023 3.45135 0 0 0
2.4834 -0.169147 3.47871 0 0 0
2.49195 -0.305092 3.45906 0 0 0
2.49025 -0.341476 3.4491 0 0 0
2.49637 0.871594 3.64769 0 0 0
2.49975 0.594154 3.60335 0 0 0
2.49915 -0.254927 3.4636 0 0 0
2.50207 -0.102741 3.48919 0 0 0
2.50508 0.873375 3.64879 0 0 0
2.50231 0.00618783 3.50643 0 0 0
2.50496 0.821543 3.63882 0 0 0
2.50583 0.683907 3.61766 0 0 0
2.50841 0.532257 3.59158 0 0 0
2.50909 -0.242948 3.46495 0 0 0
2.51431 0.230956 3.543 0 0 0
2.51081 -0.666678 3.39349 0 0 0
2.51827 0.72735 3.62522 0 0 0
2.51678 0.472185 3.5782 0 0 0
2.51942 0.471563 3.58176 0 0 0
2.52093 0.695571 3.61843 0 0 0
2.52309 0.0549232 3.5146 0 0 0
2.52309 0.0549232 3.5146 0 0 0
2.52344 0.120547 3.52332 0 0 0
2.52679 0.141913 3.52686 0 0 0
2.52595 -0.798906 3.37077 0 0 0
2.53323 -0.354478 3.44494 0 0 0
2.53799 0.832934 3.63912 0 0 0
2.54066 1.03201 3.66767 0 0 0
2.53973 -0.286236 3.45559 0 0 0
2.54356 0.693524 3.61656 0 0 0
2.5431 -0.403379 3.43402 0 0 0
2.5431 -0.403379 3.43402 0 0 0
2.54521 -0.109498 3.48377 0 0 0
2.55163 0.567033 3.59478 0 0 0
2.55434 0.180552 3.53198 0 0 0
2.55815 1.0051 3.6632 0 0 0
2.55822 0.338187 3.55635 0 0 0
2.55822 0.338187 3.55635 0 0 0
2.56073 -0.088058 3.48619 0 0 0
2.5658 -0.0221676 3.49822 0 0 0
2.5658 -0.0221676 3.49822 0 0 0
2.56371 -0.248499 3.45829 0 0 0
2.56449 -0.525563 3.41264 0 0 0
2.56935 -0.0730216 3.48761 0 0 0
2.57407 0.690368 3.61483 0 0 0
2.56906 -0.533261 3.41127 0 0 0
2.57588 0.60588 3.59942 0 0 0
2.57588 0.60588 3.59942 0 0 0
2.57232 -0.665115 3.389 0 0 0
2.57108 -0.853141 3.35588 0 0 0
2.57108 -0.853141 3.35588 0 0 0
2.57972 -0.246068 3.45779 0 0 0
3.19974 1.15332 4.56972 0 0 0
2.58541 -0.0324327 3.4954 0 0 0
3.20258 1.16757 4.57343 0 0 0
2.586 0.114849 3.51732 0 0 0
2.58558 0.196518 3.52978 0 0 0
2.58861 -0.156919 3.47303 0 0 0
3.21269 1.14925 4.5684 0 0 0
3.2147 1.16458 4.57261 0 0 0
2.59518 0.181878 3.52778 0 0 0
2.59241 -0.537542 3.40746 0 0 0
2.59426 -0.843758 3.3592 0 0 0
2.60057 0.979383 3.65516 0 0 0
2.59945 -0.225156 3.45959 0 0 0
3.23095 1.18591 4.58102 0 0 0
2.6018 -0.544303 3.40632 0 0 0
2.60683 0.26117 3.54098 0 0 0
2.60857 1.034 3.66347 0 0 0
2.61114 0.873153 3.64044 0 0 0
2.61041 0.56225 3.58962 0 0 0
2.61041 0.56225 3.58962 0 0 0
2.61099 0.790473 3.6265 0 0 0
2.60806 -0.704577 3.3791 0 0 0
2.61055 -0.360164 3.43521 0 0 0
2.61102 -0.40352 3.42861 0 0 0
2.61348 -0.105954 3.479 0 0 0
2.61316 -0.271923 3.44927 0 0 0
2.61875 0.514096 3.58065 0 0 0
2.61382 -0.892705 3.34801 0 0 0
2.61898 -0.39637 3.43098 0 0 0
2.62207 0.759252 3.61846 0 0 0
2.62259 0.428517 3.56473 0 0 0
2.63107 0.593145 3.59278 0 0 0
2.6283 -0.899857 3.34696 0 0 0
2.62909 -0.405889 3.42668 0 0 0
2.64003 0.777732 3.61995 0 0 0
2.6375 -0.564091 3.40015 0 0 0
2.64262 0.860916 3.63516 0 0 0
2.64319 -0.417486 3.42512 0 0 0
2.64319 -0.417486 3.42512 0 0 0
2.64496 -0.285567 3.44572 0 0 0
2.65015 -0.727411 3.37295 0 0 0
2.65015 -0.727411 3.37295 0 0 0
2.65816 0.725016 3.61275 0 0 0
2.65928 0.602285 3.59178 0 0 0
2.65928 0.602285 3.59178 0 0 0
2.65972 0.874972 3.6347 0 0 0
2.66206 0.0152193 3.49519 0 0 0
2.66559 0.027935 3.49727 0 0 0
2.65962 -0.858859 3.34643 0 0 0
2.66345 -0.376042 3.42817 0 0 0
2.66802 0.0217839 3.49638 0 0 0
2.66891 -0.795018 3.359 0 0 0
2.67622 0.865359 3.63226 0 0 0
2.67801 0.835602 3.62781 0 0 0
2.67832 0.252889 3.53306 0 0 0
2.6822 0.425679 3.56176 0 0 0
2.68222 0.93824 3.64341 0 0 0
2.67894 -0.890895 3.34138 0 0 0
2.69001 0.705337 3.60688 0 0 0
2.69081 0.0160038 3.49207 0 0 0
2.69292 0.843578 3.62736 0 0 0
2.68988 -0.461021 3.41106 0 0 0
2.69539 1.0069 3.65057 0 0 0
2.69776 0.573776 3.5838 0 0 0
2.69799 1.00305 3.64966 0 0 0
2.7009 0.895585 3.63466 0 0 0
2.70061 0.845557 3.62482 0 0 0
2.70329 0.398547 3.55342 0 0 0
2.70425 0.878903 3.6316 0 0 0
2.70476 0.339447 3.54507 0 0 0
2.70587 0.395502 3.55153 0 0 0
2.70858 0.892425 3.63481 0 0 0
2.70833 -0.505708 3.4049 0 0 0
2.71272 0.317705 3.54237 0 0 0
2.71038 0.809533 3.61818 0 0 0
2.7127 0.90855 3.63627 0 0 0
2.71753 0.71921 3.60497 0 0 0
2.71778 1.00112 3.64813 0 0 0
2.7178 0.974956 3.64302 0 0 0
2.71947 0.371883 3.54754 0 0 0
2.72108 0.678875 3.59714 0 0 0
2.72075 -0.303856 3.43508 0 0 0
2.72572 0.866425 3.62853 0 0 0
2.72489 0.99598 3.64845 0 0 0
2.72477 0.149186 3.51191 0 0 0
2.72754 0.580106 3.58324 0 0 0
2.73003 0.66395 3.59579 0 0 0
2.72907 0.080334 3.5004 0 0 0
2.73048 0.300639 3.53527 0 0 0
2.72981 -0.378629 3.42209 0 0 0
2.73336 0.0748516 3.49824 0 0 0
2.73428 0.286509 3.53312 0 0 0
2.73537 0.864628 3.62685 0 0 0
2.73575 0.213519 3.52101 0 0 0
2.73672 0.804825 3.61686 0 0 0
2.73672 0.804825 3.61686 0 0 0
2.73462 -0.342141 3.42904 0 0 0
2.74076 0.361335 3.54483 0 0 0
2.74039 -0.624424 3.38215 0 0 0
2.74039 -0.624424 3.38215 0 0 0
2.74039 -0.624424 3.38215 0 0 0
2.74477 0.605397 3.58425 0 0 0
2.7431 0.05543 3.49288 0 0 0
2.7437 -0.363872 3.42451 0 0 0
2.74611 -0.115589 3.46507 0 0 0
2.74611 -0.115589 3.46507 0 0 0
2.74505 -0.36805 3.42217 0 0 0
2.75588 0.834277 3.62308 0 0 0
2.75421 0.92689 3.63402 0 0 0
2.75085 -0.882492 3.33603 0 0 0
2.75889 0.0253961 3.48911 0 0 0
2.75865 0.0209607 3.48783 0 0 0
2.75972 0.895226 3.62902 0 0 0
2.76007 0.183913 3.51449 0 0 0
2.76087 0.884751 3.62697 0 0 0
2.76101 -0.115777 3.46382 0 0 0
2.76101 -0.115777 3.46382 0 0 0
2.76361 0.0229999 3.48881 0 0 0
2.76324 0.226186 3.52118 0 0 0
2.7639 0.628134 3.58673 0 0 0
2.76667 0.337179 3.53958 0 0 0
2.76796 0.813258 3.61476 0 0 0
2.76833 1.06937 3.65412 0 0 0
2.76833 1.06937 3.65412 0 0 0
2.77026 0.659871 3.59063 0 0 0
2.77125 0.479695 3.56209 0 0 0
2.77099 0.332846 3.53775 0 0 0
2.76802 -0.906769 3.33337 0 0 0
2.77067 -0.858721 3.34134 0 0 0
2.7758 0.572425 3.57547 0 0 0
2.77281 -0.468704 3.40291 0 0 0
2.77653 -0.578157 3.38474 0 0 0
2.7774 -0.907152 3.33201 0 0 0
2.78222 0.0297467 3.48669 0 0 0
2.78588 -0.606863 3.37974 0 0 0
2.78664 -0.463334 3.40212 0 0 0
2.78995 -0.527315 3.39359 0 0 0
2.79301 -0.181281 3.45109 0 0 0
2.79193 -0.468079 3.40154 0 0 0
2.7936 -0.120379 3.46009 0 0 0
2.7936 -0.120379 3.46009 0 0 0
2.8006 0.48554 3.56098 0 0 0
2.79601 -0.506313 3.39387 0 0 0
2.8029 0.359127 3.53714 0 0 0
2.80384 0.923478 3.62912 0 0 0
2.80704 0.312103 3.53053 0 0 0
2.80583 0.465578 3.55414 0 0 0
2.80632 -0.513374 3.39215 0 0 0
2.81231 -0.460373 3.40144 0 0 0
2.81769 0.832933 3.61528 0 0 0
2.81642 -0.553917 3.38577 0 0 0
2.81794 -0.476115 3.39899 0 0 0
2.81821 -0.678793 3.3644 0 0 0
2.82396 0.454189 3.55387 0 0 0
2.82322 0.448498 3.55125 0 0 0
2.82587 0.630094 3.58305 0 0 0
2.82191 -0.470006 3.39832 0 0 0
2.82215 -0.608243 3.37565 0 0 0
2.82695 -0.911713 3.32644 0 0 0
2.82891 -0.222168 3.43952 0 0 0
2.83089 -0.233792 3.43911 0 0 0
2.82876 -0.58847 3.37771 0 0 0
2.83313 0.827524 3.61215 0 0 0
2.83469 0.480016 3.5571 0 0 0
2.8362 0.437437 3.55037 0 0 0
2.8347 -0.57835 3.38014 0 0 0
2.8411 0.534219 3.56595 0 0 0
2.8411 0.534219 3.56595 0 0 0
2.83839 -0.704805 3.35814 0 0 0
2.84497 -0.434147 3.40309 0 0 0
2.84402 -0.556676 3.38152 0 0 0
2.84674 -0.875917 3.33007 0 0 0
2.84899 -0.555571 3.37982 0 0 0
2.84899 -0.555571 3.37982 0 0 0
2.85478 0.36728 3.53653 0 0 0
2.85478 0.36728 3.53653 0 0 0
2.8523 -0.416718 3.40413 0 0 0
2.85765 0.810858 3.60864 0 0 0
2.85389 -0.519774 3.38792 0 0 0
2.85985 0.0265889 3.48003 0 0 0
2.86365 0.920474 3.62547 0 0 0
2.86377 0.293928 3.5225 0 0 0
2.86109 -0.576897 3.37691 0 0 0
2.87379 0.512225 3.55779 0 0 0
2.87451 0.198065 3.50651 0 0 0
2.87772 -0.524553 3.38394 0 0 0
2.88235 0.566221 3.56517 0 0 0
2.8866 0.363186 3.53247 0 0 0
2.8866 0.363186 3.53247 0 0 0
2.88433 -0.526046 3.38426 0 0 0
2.88491 -0.876979 3.32455 0 0 0
2.89605 0.28657 3.51738 0 0 0
2.8969 0.695536 3.58416 0 0 0
2.89888 0.54316 3.56097 0 0 0
2.89908 0.0442428 3.47925 0 0 0
2.89988 -0.901435 3.32091 0 0 0
2.90597 0.495336 3.55148 0 0 0
2.90607 -0.878642 3.32108 0 0 0
2.9147 0.858075 3.61052 0 0 0
2.9143 -0.0313056 3.46495 0 0 0
2.91641 0.369562 3.53241 0 0 0
2.91435 -0.0881349 3.45546 0 0 0
2.92466 0.390566 3.53539 0 0 0
2.9303 0.927142 3.61824 0 0 0
2.94635 0.812213 3.60085 0 0 0
2.95061 0.82928 3.60293 0 0 0
2.96057 0.802751 3.59784 0 0 0
2.96232 0.47104 3.54358 0 0 0
2.96151 0.330357 3.51921 0 0 0
2.96389 0.37367 3.52784 0 0 0
2.96322 -0.221851 3.42939 0 0 0
2.9681 0.780214 3.59275 0 0 0
2.96854 -0.824259 3.32696 0 0 0
2.98271 0.395936 3.52932 0 0 0
2.98663 0.662544 3.57151 0 0 0
2.9896 0.60202 3.5627 0 0 0
2.99635 0.830193 3.60105 0 0 0
2.99523 0.887364 3.60826 0 0 0
2.99901 0.42219 3.53209 0 0 0
3.001 0.397489 3.52739 0 0 0
3.00169 0.446078 3.53619 0 0 0
3.00169 0.446078 3.53619 0 0 0
3.02285 0.809225 3.59205 0 0 0
3.03357 0.835753 3.5965 0 0 0
-8.65206 -1.66522 8.86918 135 130 111
-13.1034 -6.93093 11.5057 69 63 41
-13.1428 -7.00811 11.5541 71 66 46
-8.76702 -1.21505 9.48691 67 64 47
-8.5274 -1.75817 8.94037 126 121 99
-13.2611 -7.59281 11.9202 71 62 45
-8.76973 -3.28772 8.61962 131 128 113
-13.2766 -7.6391 11.9599 70 64 42
-13.2725 -7.72518 11.95 83 78 59
-8.757 -3.2866 8.64565 100 92 71
-13.2787 -7.7207 11.9946 78 73 54
-13.2695 -7.73559 12.0016 82 77 58
-13.2738 -7.72711 12.04 73 68 48
-13.1363 -8.11657 11.6883 131 126 107
-13.2772 -7.74717 12.07 73 68 49
-13.311 -7.65342 12.1897 90 83 65
-13.2766 -7.7861 12.0915 82 77 58
-13.3224 -7.66224 12.2177 93 87 71
-13.3042 -7.72223 12.189 75 68 49
-8.661 -3.2262 8.70891 100 98 75
-8.64328 -3.19287 8.71227 75 70 50
-13.2836 -7.97973 12.0827 98 92 70
-8.61696 -1.40835 9.5782 60 57 38
-13.2768 -7.97355 12.093 108 102 80
-13.2823 -7.93337 12.121 109 104 84
-13.3117 -8.06373 12.0994 99 94 72
-8.63435 -3.22049 8.71366 97 95 74
-13.3289 -7.87066 12.3075 71 66 46
-8.57011 -1.75236 9.52293 131 128 109
-8.47638 -1.59907 9.67201 139 136 119
-8.47638 -1.59907 9.67201 139 136 119
-7.73428 -1.69082 8.76308 133 130 111
-13.3428 -8.44974 12.7327 93 88 69
-13.1642 -8.958 12.3195 79 72 56
-13.3946 -8.73833 12.7902 125 119 105
-13.2989 -8.33443 12.8741 109 103 81
-13.2989 -8.33443 12.8741 109 103 81
-13.1607 -8.85208 12.4676 86 82 73
-13.3414 -8.62917 12.8978 75 70 51
-13.3329 -8.60904 12.9066 79 72 54
-13.3367 -8.60031 12.9273 82 75 57
-13.1733 -9.12378 12.5284 133 127 113
-13.2519 -9.18198 12.6787 86 82 70
-11.4857 -9.15744 10.3663 150 144 130
-13.1954 -9.1646 12.8535 86 82 73
-12.9105 -9.67635 12.3227 88 84 75
-10.392 -9.22639 9.14561 125 121 110
-10.2545 -9.7042 8.75242 94 87 71
-12.9446 -9.69977 12.4608 86 82 73
-10.6796 -9.49655 9.49753 127 123 114
-12.8747 -9.61258 12.4796 86 82 71
-10.5956 -9.43125 9.54831 132 125 115
-13.3317 -8.81773 13.7397 119 114 94
-10.8459 -9.47226 10.2511 192 190 191
-10.1956 -9.76028 9.19331 107 100 84
-12.9154 -9.90503 13.2681 85 82 73
-3.85017 0.534467 5.48197 145 143 122
-10.5903 -9.53838 10.2273 191 191 189
-9.88388 -9.48487 9.26909 103 96 80
-9.86625 -9.47592 9.26935 107 99 86
-7.11048 -0.249398 10.0734 132 128 103
-12.9315 -9.95526 13.8405 85 81 70
-12.9509 -9.95922 13.8842 84 82 67
-12.7042 -10.6146 13.3489 87 83 72
-12.7042 -10.6146 13.3489 87 83 72
-12.9195 -9.78442 14.1528 75 72 63
-3.70925 0.556013 5.54318 130 126 101
-3.70917 0.555874 5.54327 130 126 101
-3.70468 0.518949 5.52433 132 127 105
-3.68885 0.523719 5.53121 130 126 101
-3.6894 0.523431 5.53194 130 126 101
-3.70033 0.596584 5.59569 124 120 95
-3.67364 0.562497 5.56823 127 123 96
-3.67589 0.572854 5.59543 123 119 92
-10.131 -9.61036 10.4219 175 170 166
-10.2591 -9.62256 10.6263 162 158 155
-10.1176 -9.63391 10.4105 174 169 166
-3.63036 0.340343 5.44179 136 132 105
-3.65696 0.572699 5.66013 128 123 101
-10.0935 -9.84414 10.5289 203 203 205
-9.92386 -9.6523 10.3675 203 203 205
-3.5814 0.286519 5.45663 130 126 99
-3.20015 -2.13608 3.61723 88 84 72
-12.9901 -10.5924 14.8521 93 89 78
-12.7307 -10.0549 14.7343 95 91 80
-12.551 -10.1799 14.4006 94 90 78
-3.59734 0.152598 5.44074 111 104 75
-3.53556 0.303803 5.47367 134 132 109
-3.53603 0.303389 5.47444 134 132 109
-12.5555 -10.1821 14.6137 96 92 81
-3.5009 0.673673 5.69435 121 117 92
-3.54957 0.111377 5.49616 103 97 65
-6.79174 -3.74844 8.90845 86 84 63
-3.49024 0.635373 5.72957 122 118 93
-3.41916 0.601342 5.64226 123 121 96
-3.62279 -2.24613 4.63825 208 207 212
-3.3504 0.587427 5.6733 123 119 92
-12.2006 -11.1674 14.7656 187 177 167
-12.2705 -11.3446 14.8411 205 206 201
-12.1435 -11.1977 14.7692 92 93 88
-12.1706 -11.1761 14.8396 143 131 115
-12.1677 -10.2842 15.3581 169 168 164
-3.28024 0.298888 5.50541 133 129 102
-3.28024 0.298888 5.50541 133 129 102
-3.26148 0.327002 5.5235 130 126 101
-11.9363 -10.5852 15.1047 215 215 217
-11.8077 -10.3215 15.1488 215 215 217
-11.808 -10.3413 15.1543 217 217 219
-11.9266 -10.3921 15.389 217 217 217
-11.8745 -10.3977 15.2929 217 217 215
-11.8289 -10.325 15.2746 218 218 218
-3.21838 0.330897 5.53627 127 123 96
-11.9034 -10.4271 15.4193 218 218 220
-3.21251 0.341551 5.54795 125 121 96
-11.9008 -10.2922 15.5355 217 217 217
-3.20267 0.341255 5.55203 125 121 96
-2.93021 -2.33945 3.70239 208 207 212
-3.1609 -2.38637 4.1659 249 249 249
-2.60856 0.544955 4.6928 130 126 99
-3.15067 0.340476 5.58 124 122 97
-3.14359 0.329826 5.56386 126 122 93
-3.38683 -2.44694 4.5878 252 253 255
-2.93403 -2.35559 3.81531 193 191 194
-3.14724 0.362839 5.62788 124 123 95
-3.1171 0.326898 5.56968 125 121 96
-2.56062 0.3998 4.5865 90 84 58
-3.12332 0.336547 5.58953 126 122 97
-3.11599 0.329123 5.57724 125 121 96
-2.53218 0.411124 4.61786 100 96 71
-2.54229 0.448588 4.65669 124 118 92
-2.63027 -0.657879 4.25397 105 98 70
-2.50839 0.358952 4.57496 93 87 61
-3.05667 0.31319 5.58716 135 130 108
-3.05616 0.313313 5.58701 135 130 108
-3.06014 0.316976 5.59798 136 132 107
-2.78625 -2.44681 3.70696 94 88 76
-2.50447 0.492848 4.71438 135 130 108
-2.78272 -2.43573 3.7485 220 220 222
-2.47938 0.499756 4.72923 132 128 101
-2.43579 0.290011 4.54894 103 100 83
-2.42779 0.290704 4.57944 82 76 52
-3.49834 -2.529 5.2031 237 238 240
-4.36382 -2.66015 6.88717 122 116 92
-3.50348 -2.54175 5.27128 246 238 201
-2.43027 0.331777 4.66032 100 95 65
-3.42271 -2.61831 5.12035 230 232 231
-3.68979 -2.58977 5.67903 179 178 176
-3.64869 -2.65125 5.58856 185 185 183
-4.69649 2.12467 10.2875 38 35 26
-4.3339 -2.70978 7.04128 116 109 81
-2.3699 0.288056 4.68056 126 123 92
-3.80711 -2.72512 6.06761 136 128 105
-4.26655 -2.77365 7.03207 116 110 86
-2.33513 0.277306 4.6976 129 126 95
-4.4762 -2.80555 7.60636 123 122 101
-4.19983 -2.80583 7.06096 135 132 113
-2.30974 0.297544 4.7471 131 128 97
-4.19177 -2.784 7.09969 114 109 80
-2.948 -2.50369 4.63226 168 166 167
-2.924 -2.49284 4.66347 146 146 144
-2.89673 -2.55719 4.58578 141 141 133
-2.44026 -2.47386 3.65405 106 98 75
-3.12434 -2.59551 5.0639 155 151 142
-3.12572 -2.57737 5.08036 153 150 141
-2.26552 0.28796 4.7734 107 102 72
-2.4312 -2.44537 3.69496 115 109 87
-2.83148 -2.60291 4.60396 131 128 119
-2.21795 0.256166 4.7924 114 110 85
-2.81483 -2.62362 4.60221 132 128 116
-4.20956 1.84856 10.1257 136 131 102
-2.81002 -2.55916 4.65997 129 126 117
-2.99599 -2.60972 5.15375 150 144 128
-3.41263 -2.79265 6.04023 154 147 128
-3.19663 -2.69211 5.60166 151 146 127
-2.69549 -2.58327 4.60979 112 108 97
-2.1172 0.550064 5.25518 174 167 148
-3.39433 -2.9648 7.41681 135 129 107
-3.34942 1.76552 10.0756 109 96 62
-3.34942 1.76552 10.0756 109 96 62
-3.34577 1.74764 10.0697 97 86 54
-1.7774 0.149486 4.82025 140 132 96
-1.6745 0.295551 4.83137 115 105 70
-3.34043 -0.0759967 9.78099 138 130 109
-1.62504 0.341143 4.8786 132 125 97
-3.36516 -0.355054 9.73885 168 161 133
-1.61713 0.318181 4.87669 115 109 75
-1.61901 0.314691 4.88281 115 109 75
-2.23368 -2.37308 5.34579 164 155 140
-1.59205 0.365983 4.94186 148 141 113
-3.2034 0.0198787 9.78663 97 89 66
-1.61645 0.522584 5.13628 169 162 134
-1.56255 0.353262 4.92084 146 135 105
-2.0314 -2.3312 4.94929 161 154 136
-2.14251 -2.38049 5.40467 136 128 107
-1.5831 0.53359 5.31941 178 171 143
-1.58069 0.541738 5.34114 169 162 136
-1.70109 -2.24171 4.16428 126 120 98
-1.4397 0.169805 4.70665 173 167 145
-1.68242 -2.2571 4.23663 95 89 65
-1.43372 0.524097 5.0484 176 169 143
-1.37533 0.204736 4.68268 189 183 159
-1.26504 0.229242 4.66022 174 167 148
-2.61963 0.350221 9.80312 127 122 92
-1.194 0.344261 4.69 146 139 113
-1.14618 0.571547 4.83286 177 167 142
-1.14146 0.539898 4.8097 181 171 144
-1.88147 -2.66034 6.23062 167 160 142
-1.87047 -2.67616 6.17622 157 149 130
-1.41307 -2.4823 4.70289 192 185 169
-1.41307 -2.4823 4.70289 192 185 169
-1.96954 0.173748 9.71068 177 170 144
-1.95812 0.178188 9.70726 173 166 138
-1.36459 -2.61032 5.34322 105 88 58
-1.74787 1.53761 9.9293 131 120 88
-1.74127 1.53828 9.93919 131 122 89
-1.35861 -2.59413 5.46429 184 176 163
-0.682445 0.185294 4.25792 170 165 135
-0.53777 0.803746 4.60999 153 152 122
-0.516388 0.594003 4.40047 170 166 139
-0.835824 -2.49811 4.58906 160 153 135
-0.674628 -2.43148 4.07768 133 125 102
-0.990423 1.74816 9.695 138 134 107
-0.427507 0.28081 4.14736 171 165 141
-0.427984 0.291362 4.15955 171 167 140
-0.964345 1.9317 9.72511 140 131 102
-1.02926 1.65321 10.0535 155 147 124
-0.420537 0.529654 4.52236 173 169 142
-0.387907 0.378387 4.27208 173 169 144
-0.311623 1.15227 4.91729 172 165 147
-0.713846 -2.76972 5.98049 168 161 143
-0.690851 -2.74319 6.09997 171 164 145
-0.690851 -2.74319 6.09997 171 164 145
-0.267799 1.04735 4.78273 156 154 139
-0.686628 1.17263 9.66854 156 150 128
-0.634853 1.69761 9.74306 166 159 133
-0.538295 -2.5873 5.00084 159 154 135
-0.538295 -2.5873 5.00084 159 154 135
-0.630927 1.68799 9.75078 158 152 126
-0.626493 1.70327 9.73926 162 156 130
-0.627935 1.67017 9.73508 167 161 135
