ply
format ascii 1.0 
element vertex 1389
property float32 x 
property float32 y 
property float32 z
property uchar red  
property uchar green
property uchar blue
element face 0
property list uchar int vertex_indices
end_header
1.18481 -2.95259 5.39747 76 77 72
1.28594 -2.53828 5.85008 149 142 134
1.27662 -2.52855 5.81583 149 142 134
1.2785 -2.5651 5.82214 129 125 116
1.2785 -2.5651 5.82214 129 125 116
1.26023 -2.06175 5.74641 104 94 84
1.29337 -2.43726 5.84255 134 135 127
1.33761 -2.56761 5.89196 123 114 105
1.27852 -2.80523 5.59299 69 55 52
1.34093 -2.50907 5.85614 141 132 123
1.31605 -1.95416 5.72612 140 141 135
1.26323 -2.96401 5.44614 69 70 65
1.36579 -2.36683 5.86075 94 96 91
1.38038 -2.66863 5.89505 99 99 91
1.3762 -2.38743 5.86238 112 113 108
1.38101 -2.46826 5.8756 95 98 91
1.38101 -2.46826 5.8756 95 98 91
1.33167 -2.8208 5.63894 100 87 81
1.35364 -2.81919 5.65372 148 141 131
1.33613 -2.93798 5.55602 70 71 66
1.37435 -3.00913 5.69005 70 71 66
1.4172 -2.83969 5.71456 125 126 118
1.48385 -2.59278 6.0076 112 112 104
1.44864 -2.06682 5.78019 108 111 104
1.4542 -1.97401 5.78913 126 125 120
1.45097 -2.105 5.75311 113 115 110
1.45911 -2.12366 5.75175 99 101 96
1.44858 -2.8225 5.68879 103 102 97
1.49513 -2.13458 5.76151 122 123 117
1.52042 -2.83601 5.74057 108 107 102
1.6305 -2.08051 5.9922 99 98 93
1.6325 -2.08417 5.99757 99 98 93
1.64786 -2.65027 6.02589 109 111 106
1.57847 -2.93875 5.76141 93 82 76
1.66428 -2.62946 6.05798 107 106 102
1.62274 -2.96231 5.71224 48 53 49
1.69141 -2.04471 5.94534 118 117 112
1.6678 -2.83811 5.81304 108 108 100
1.6652 -2.9428 5.79684 100 100 92
1.69986 -2.8741 5.81394 108 109 104
1.79417 -2.67375 6.13164 128 129 123
1.80629 -2.4318 6.02483 106 107 101
1.84678 -2.56502 6.13962 97 98 92
1.87389 -2.55944 6.17615 114 117 108
1.88205 -2.53861 6.18493 135 135 125
1.91206 -2.47852 6.25312 102 101 97
1.84279 -2.87086 5.93642 85 85 75
1.93772 -2.3023 6.20735 105 106 100
1.92756 -2.43988 6.16366 112 113 107
1.93563 -2.46994 6.18212 105 106 100
1.91667 -2.23528 6.10749 113 114 106
1.94189 -2.34751 6.17901 123 124 118
1.9562 -2.4143 6.18009 137 138 132
1.97643 -2.61517 6.21082 100 101 95
2.00396 -2.34721 6.19577 104 103 98
2.00042 -2.19099 6.16343 104 106 101
2.02283 -2.4941 6.21823 119 120 114
1.97299 -3.00693 5.92374 108 108 100
2.11615 -3.03614 6.26571 101 101 93
2.11615 -3.03614 6.26571 101 101 93
2.01751 -2.83867 5.94775 80 77 68
2.04897 -2.86907 6.02381 93 93 81
2.12926 -2.91817 6.14634 107 97 85
2.18482 -1.54268 6.21877 123 117 105
2.24077 -3.03778 6.3414 111 103 90
2.17991 -2.56818 6.18678 114 107 97
2.26268 -2.62505 6.40809 115 107 96
2.23353 -2.55933 6.33982 124 115 106
2.27099 -2.51788 6.40612 118 110 99
2.29754 -3.01621 6.44215 110 101 92
2.38082 -0.683679 6.6908 131 122 113
2.18508 -2.90795 6.13122 101 97 85
2.30834 -2.67507 6.44773 105 98 88
2.30284 -2.5975 6.42808 97 87 78
2.39747 -0.71188 6.69139 128 120 109
2.30648 -2.16773 6.41951 119 113 101
2.49141 -3.91013 6.90259 86 83 74
2.42686 -3.72724 6.66053 87 87 75
2.34007 -2.13261 6.42815 117 111 99
2.42269 -3.76731 6.61267 94 92 80
2.26789 -2.93229 6.21866 108 102 90
2.36188 -2.37112 6.43193 115 109 97
2.36188 -2.37112 6.43193 115 109 97
2.36188 -2.37112 6.43193 115 109 97
2.41728 -2.07688 6.37532 124 116 105
2.4155 1.39117 6.34882 99 99 91
2.57861 -3.78468 6.74407 78 78 68
2.57861 -3.78468 6.74407 78 78 68
2.43464 1.37764 6.35852 106 106 98
2.28765 -3.06776 5.93027 104 100 88
2.53258 -2.23703 6.54941 111 104 94
2.44408 -0.642886 6.22948 100 96 87
2.58874 -2.63087 6.57934 117 113 101
2.4241 -0.735166 6.15891 85 86 81
2.32378 -2.94172 5.92658 100 98 86
2.37316 -2.87464 6.03809 111 107 96
2.70124 -2.9359 6.78116 0 0 0
2.59217 -1.53881 6.44237 0 0 0
2.9161 -3.99966 7.18722 0 0 0
2.57909 -2.24918 6.35039 0 0 0
2.5738 -2.28204 6.3425 0 0 0
2.62198 -1.42218 6.40299 0 0 0
2.9529 -4.0162 7.18501 0 0 0
2.61298 -2.43033 6.40651 0 0 0
2.60196 -1.10916 6.36525 0 0 0
2.59358 -2.18759 6.31856 0 0 0
2.85141 -3.824 6.88889 0 0 0
2.85141 -3.824 6.88889 0 0 0
2.60741 -1.12962 6.25119 0 0 0
2.62792 -0.747505 6.24816 0 0 0
2.80958 -0.910494 6.63395 0 0 0
2.67767 -2.16078 6.35309 0 0 0
2.67013 1.39576 6.28962 0 0 0
2.7392 -2.22789 6.46048 0 0 0
2.88076 -3.79978 6.78217 0 0 0
2.52958 1.30384 5.95232 0 0 0
2.70767 -2.16724 6.36778 0 0 0
2.64307 0.285515 6.19773 0 0 0
2.81196 0.126711 6.55821 0 0 0
2.66888 0.0109501 6.22874 0 0 0
2.92187 -2.2447 6.77419 0 0 0
2.49261 1.67973 5.78996 0 0 0
2.72381 -2.60496 6.3129 0 0 0
2.64845 0.402876 6.13743 0 0 0
2.63798 0.762787 6.09059 0 0 0
2.76972 -2.14865 6.3732 0 0 0
2.6411 0.949947 6.07416 0 0 0
2.50805 -3.02212 5.76094 0 0 0
2.67767 -3.17694 6.105 0 0 0
2.64892 1.16578 6.056 0 0 0
2.65542 1.13128 6.06506 0 0 0
2.7865 -3.02695 6.28628 0 0 0
3.06744 -2.13651 6.60189 0 0 0
2.67859 -2.82715 5.68611 0 0 0
2.80191 -2.77871 5.90381 0 0 0
2.88625 -2.71717 6.07452 0 0 0
2.69184 -2.85637 5.66661 0 0 0
2.88338 -2.62485 6.06396 0 0 0
2.65702 -2.9383 5.58806 0 0 0
2.83747 -2.68936 5.92916 0 0 0
2.777 -2.85369 5.76598 0 0 0
2.82576 -2.13883 5.83783 0 0 0
2.76487 1.61944 5.65421 0 0 0
2.97897 0.449341 6.04201 0 0 0
2.95253 -2.06513 5.97821 0 0 0
3.10882 -2.78259 6.21084 0 0 0
3.35658 -3.74722 6.57559 0 0 0
2.78249 0.481843 5.36957 0 0 0
3.00196 0.60033 5.74949 0 0 0
2.8579 0.553482 5.44504 0 0 0
3.00477 -2.88982 5.72769 0 0 0
2.85823 0.58014 5.44117 0 0 0
2.88485 1.23957 5.46244 0 0 0
3.54206 -3.78665 6.66747 0 0 0
3.15604 -2.85225 5.92212 0 0 0
2.78448 1.52605 5.21601 0 0 0
2.81039 1.16139 5.26081 0 0 0
3.03442 1.64039 5.62121 0 0 0
2.89135 1.28155 5.34922 0 0 0
3.66089 -3.79906 6.77844 0 0 0
3.44837 -2.72167 6.36166 0 0 0
3.17501 -2.78437 5.79029 0 0 0
3.36877 -2.91233 6.06609 0 0 0
3.09137 0.725301 5.55207 0 0 0
3.09137 0.725301 5.55207 0 0 0
3.15795 0.409981 5.67147 0 0 0
3.36457 -3.02393 6.00262 0 0 0
3.36457 -3.02393 6.00262 0 0 0
3.43882 -3.0062 6.10032 0 0 0
3.61852 -2.04636 6.39575 0 0 0
3.37721 -3.08929 5.95684 0 0 0
3.5543 -1.93986 6.26807 0 0 0
3.45158 -3.08359 5.98163 0 0 0
3.29868 0.539732 5.58952 0 0 0
3.26526 1.57087 5.49524 0 0 0
3.28535 0.71269 5.52754 0 0 0
3.62263 -0.560098 6.00249 0 0 0
3.59612 0.723237 5.73734 0 0 0
4.74018 -0.124033 7.35117 0 0 0
3.74452 1.22191 5.70743 0 0 0
3.72608 1.5593 5.64153 0 0 0
5.2042 -0.488686 7.63769 0 0 0
5.05062 -1.26345 7.44061 0 0 0
5.15978 0.335415 7.55543 0 0 0
5.15978 0.335415 7.55543 0 0 0
5.21005 -0.224995 7.61209 0 0 0
5.21005 -0.224995 7.61209 0 0 0
5.37436 -1.11955 7.83363 0 0 0
4.68181 -0.964377 6.80591 0 0 0
5.32782 -0.900257 7.69802 0 0 0
5.01493 -0.785953 7.26424 0 0 0
5.28794 -0.158186 7.61947 0 0 0
4.70429 -0.274377 6.77821 0 0 0
5.03073 0.0135609 7.24979 0 0 0
5.0774 -0.21198 7.31238 0 0 0
5.12403 -0.381895 7.31563 0 0 0
6.12162 -0.694523 8.68858 0 0 0
5.18618 -0.318998 7.40397 0 0 0
5.11649 -0.418244 7.21744 0 0 0
5.20265 -0.616418 7.35883 0 0 0
5.06036 -0.711932 7.13006 0 0 0
5.11441 -0.324064 7.16936 0 0 0
5.13448 -0.216091 7.19802 0 0 0
5.64705 -1.14678 7.88013 0 0 0
5.32858 0.864396 7.43012 0 0 0
5.36776 -0.149403 7.48382 0 0 0
5.32612 1.26794 7.41593 0 0 0
5.19388 -0.556464 7.25506 0 0 0
6.30408 -0.312714 8.75503 0 0 0
5.13424 0.0639978 7.15991 0 0 0
5.31235 0.756874 7.38689 0 0 0
5.05688 1.24307 7.04661 0 0 0
5.36235 -0.0343702 7.44875 0 0 0
5.32865 1.24248 7.39569 0 0 0
5.30617 0.404023 7.3617 0 0 0
5.1956 -0.380067 7.22868 0 0 0
5.17958 -0.333307 7.20027 0 0 0
5.10768 0.489101 7.0978 0 0 0
6.16369 0.32967 8.52166 0 0 0
5.11029 0.533844 7.08397 0 0 0
5.28892 -0.195866 7.3527 0 0 0
5.10574 1.00909 7.07415 0 0 0
5.33938 0.252352 7.37873 0 0 0
5.46167 -0.142771 7.51506 0 0 0
5.43014 -0.315332 7.47057 0 0 0
5.43014 -0.315332 7.47057 0 0 0
5.45827 -0.7377 7.50648 0 0 0
6.34273 -0.740436 8.69609 0 0 0
5.24551 -0.619282 7.22791 0 0 0
5.47888 -0.565019 7.52256 0 0 0
4.95426 1.69998 6.80288 0 0 0
5.2285 -0.280131 7.17912 0 0 0
5.2285 -0.280131 7.17912 0 0 0
5.32488 1.22317 7.28117 0 0 0
5.46355 -0.378248 7.46221 0 0 0
5.28034 -0.515252 7.23202 0 0 0
4.90984 -0.475157 6.63393 0 0 0
5.29003 -0.14137 7.24302 0 0 0
5.29313 1.15469 7.21223 0 0 0
5.19847 1.27448 7.0818 0 0 0
5.15798 1.28947 7.01387 0 0 0
4.99311 1.29591 6.80567 0 0 0
4.96942 1.25951 6.74069 0 0 0
5.90429 -0.997551 8.00911 0 0 0
5.90429 -0.997551 8.00911 0 0 0
5.00039 1.2743 6.79301 0 0 0
5.13747 1.06001 6.98185 0 0 0
5.50526 0.283565 7.46513 0 0 0
5.603 -0.142569 7.59408 0 0 0
5.12405 1.73125 6.91953 0 0 0
2.70677 -0.0907222 3.65381 0 0 0
5.65685 -0.141401 7.60723 0 0 0
5.08241 1.65343 6.83158 0 0 0
5.09559 1.20533 6.85366 0 0 0
5.92871 -0.937309 7.96165 0 0 0
5.67897 -0.193435 7.60729 0 0 0
18.7436 -11.7449 25.0702 0 0 0
5.08228 1.68156 6.78882 0 0 0
5.74489 -0.142473 7.66439 0 0 0
5.47255 -0.25188 7.29937 0 0 0
5.52227 -0.670547 7.3568 0 0 0
5.72581 0.76104 7.56345 0 0 0
5.58179 -0.600937 7.39226 0 0 0
5.58179 -0.600937 7.39226 0 0 0
5.62785 1.05584 7.40784 0 0 0
5.61982 -0.622504 7.39851 0 0 0
6.00735 -0.818758 7.8771 0 0 0
20.3199 -13.548 26.5065 0 0 0
5.67342 0.304882 7.44188 0 0 0
21.3754 -13.7022 27.8416 0 0 0
7.02945 -0.822789 9.12101 0 0 0
5.86838 0.579626 7.60592 0 0 0
5.58793 0.621031 7.26229 0 0 0
5.75493 1.05565 7.4503 0 0 0
5.82517 1.12651 7.52699 0 0 0
5.67784 0.880223 7.35636 0 0 0
5.67835 1.74702 7.10702 0 0 0
5.91987 1.38344 7.26912 0 0 0
7.55539 1.52195 8.83824 0 0 0
7.56912 1.51869 8.79881 0 0 0
18.4267 -11.7955 21.2462 0 0 0
7.459 1.87753 8.59368 0 0 0
7.459 1.87753 8.59368 0 0 0
18.7817 -11.6214 21.5188 0 0 0
18.945 -11.9269 21.6712 0 0 0
18.5589 -11.7273 21.1618 0 0 0
19.0989 -10.2929 21.5501 0 0 0
18.5766 -11.6266 20.9268 0 0 0
17.4033 -8.8302 18.9419 0 0 0
24.0632 -12.1525 26.1485 0 0 0
17.3301 -8.01065 18.6983 0 0 0
17.0841 -7.31076 18.4164 0 0 0
17.293 -8.75709 18.6177 0 0 0
17.9606 -8.39941 19.154 0 0 0
17.4402 -8.46826 18.4537 0 0 0
9.96339 1.77535 10.4272 0 0 0
16.7678 -5.50532 17.5112 0 0 0
16.7566 -5.51728 17.4532 0 0 0
16.6242 -5.46629 17.2669 0 0 0
-2.24313 -0.31941 3.55619 0 0 0
-2.22305 -0.225758 3.5773 0 0 0
-1.97181 0.988403 3.22531 88 86 74
-2.14503 0.0487008 3.53739 108 112 115
-2.17352 -0.716803 3.58932 205 204 199
-2.13661 0.0587004 3.53916 125 122 115
-2.09815 0.35287 3.49181 220 226 238
-2.15435 -0.512522 3.60269 122 122 112
-2.10246 -0.292142 3.53544 212 212 210
-2.0425 0.692597 3.44704 80 83 76
-2.10099 -0.353652 3.55764 36 39 32
-2.03139 0.647401 3.44313 214 215 210
-2.10016 -0.170259 3.56625 118 120 119
-2.01775 0.658206 3.44627 220 216 213
-2.01775 0.658206 3.44627 87 87 85
-1.88255 1.02884 3.22322 216 213 208
-2.07874 -0.210154 3.57902 216 213 208
-2.0043 0.586256 3.46914 30 35 28
-1.83039 1.31424 3.20528 24 24 22
-1.45212 -0.151341 2.5464 225 216 211
-2.04235 0.041818 3.58394 140 138 139
-2.05142 -0.450928 3.60128 30 32 29
-2.02988 -0.297188 3.56463 157 152 148
-2.02614 -0.0559969 3.60297 112 112 112
-2.02499 -0.627315 3.61697 44 45 39
-1.7948 1.31938 3.2172 120 124 127
-2.00742 -0.350759 3.60618 218 224 236
-2.15262 -0.971106 3.88351 145 143 146
-1.99801 -0.0544007 3.61396 122 126 127
-1.98222 -0.112564 3.63363 216 222 234
-1.77351 1.03362 3.26181 127 133 133
-1.97229 -0.0563415 3.62769 12 17 11
-1.85914 0.928697 3.44548 213 214 209
-1.76367 1.02291 3.3083 131 133 132
-2.2788 -0.0855765 4.32109 108 105 96
-1.92115 -0.252339 3.6634 128 119 112
-1.91538 -0.156445 3.65409 130 131 135
-1.86666 0.179252 3.60802 44 46 45
-1.71978 1.02653 3.3247 33 34 29
-1.88905 -0.0101019 3.66492 15 18 11
-2.16534 0.325295 4.19725 178 173 170
-1.84113 0.279024 3.58995 176 176 176
-1.77028 0.931453 3.49493 157 159 158
-1.81224 0.397896 3.58196 160 162 161
-1.67022 1.11082 3.30298 210 209 205
-1.67264 1.04001 3.3149 221 221 219
-1.67529 1.03107 3.34746 215 214 209
-1.8602 0.0856282 3.72627 223 224 219
-1.72918 0.948773 3.48365 212 212 210
-1.76652 -0.527843 3.98758 221 221 219
-1.72093 -0.513398 4.00232 214 213 208
-1.71835 -0.570417 3.99892 206 207 202
-1.67492 -0.04132 3.92129 207 208 203
-1.60971 -0.526291 4.04519 205 204 199
-1.58045 -0.579307 4.043 142 146 147
-1.58461 -0.523585 4.06739 202 198 189
-1.57242 -0.48708 4.05776 197 190 180
-1.76442 -0.576781 4.55941 201 201 193
-1.54887 -0.580256 4.05008 207 207 199
-1.52264 -0.579124 4.06019 206 203 196
-1.48719 -0.509712 4.09753 119 119 111
-1.45323 -0.613935 4.05397 155 157 156
-1.36271 -0.522068 4.1465 118 112 100
-1.30241 -0.611803 4.11506 212 211 207
-1.29332 -0.510157 4.17857 210 207 200
-0.837434 -0.3721 2.7375 210 207 200
-1.27602 -0.572489 4.17103 209 209 199
-1.07456 0.0334163 4.19075 207 204 197
-1.06118 0.0426309 4.19448 207 204 197
-1.06231 -0.500341 4.28989 194 194 194
-1.02124 0.00985197 4.20895 200 200 198
-0.993792 -0.249656 4.28624 152 151 149
-0.957737 -0.318088 4.28684 178 178 178
-0.965889 -0.868074 4.37393 27 29 24
-0.935375 -0.610787 4.27185 40 42 37
-0.643802 -0.0203717 2.95383 210 209 205
-0.922755 -0.611547 4.27854 211 210 206
-0.911833 -0.634955 4.282 147 147 147
-0.782013 -0.607871 4.27139 213 209 206
-0.4219 0.96801 3.48781 208 207 203
-0.41643 1.23587 3.45381 212 211 207
-0.405657 0.817426 3.51462 47 41 27
-0.376767 0.574321 3.5753 21 23 10
-0.356829 0.799197 3.5609 11 14 7
-0.350671 1.03817 3.52221 220 221 216
-0.339594 0.792917 3.57173 4 9 3
-0.333823 1.17964 3.5134 23 25 11
-0.333823 1.17964 3.5134 7 9 4
-0.334859 0.600955 3.6037 50 50 38
-0.321865 0.585434 3.61216 50 50 38
-0.30009 0.585594 3.62624 221 222 217
-0.344272 0.539355 4.1832 221 222 217
-0.28448 0.638845 3.63963 220 221 216
-0.232999 1.02215 3.59022 226 227 222
-0.214659 1.30762 3.56998 4 11 4
-0.204916 0.749142 3.67361 13 16 9
-0.201715 0.494825 3.68439 15 18 11
-0.167465 0.686973 4.23753 12 13 5
-0.167465 0.686973 4.23753 226 227 222
-0.135756 0.643165 3.72903 220 221 216
-0.102195 1.03307 3.67421 220 221 216
-0.102195 1.03307 3.67421 223 222 217
-0.0823531 0.598123 3.75945 34 31 22
-0.061119 0.647787 3.77381 34 31 22
-0.0602886 0.590552 3.77041 223 222 217
-0.0506425 0.495865 3.78189 221 221 213
-0.048748 0.583142 3.77175 99 95 84
-0.0392467 0.578613 3.77908 126 115 97
-0.0360667 0.694653 4.30544 172 166 154
-0.0113716 0.844394 3.78759 147 144 137
-0.00744538 0.500465 3.81112 152 149 144
0.021484 0.528895 4.31433 12 15 8
0.0377641 -2.49319 4.54784 163 162 157
0.0376757 0.663006 3.83814 162 163 157
0.0519671 1.25296 3.74241 30 23 15
0.0519671 1.25296 3.74241 153 152 147
0.0771442 0.481295 3.8653 13 14 9
0.0902546 0.501609 3.86885 13 14 9
0.0928928 0.846315 3.8465 91 88 79
0.12064 0.656835 3.88603 192 192 184
0.125358 0.49812 3.89427 60 66 66
0.176907 -2.59657 5.1652 171 170 166
0.133196 0.661434 3.89123 160 160 152
0.16902 0.658012 3.90616 27 27 19
0.16902 0.658012 3.90616 165 164 160
0.204652 0.941157 3.88601 170 171 165
0.315074 -2.5485 5.37464 170 171 165
0.310198 -2.61434 5.5246 16 18 13
0.32368 -2.24028 5.31986 26 25 21
0.311818 -2.67991 5.11213 26 25 21
0.331012 -2.5544 5.37444 63 62 57
0.329388 -2.73576 4.98927 231 223 220
0.373637 -2.45057 5.40616 20 24 23
0.372244 -2.40134 5.37835 35 31 30
0.374002 -2.47999 5.38278 145 140 134
0.407842 -2.50707 5.41612 66 58 55
0.382546 -2.77836 5.01354 87 82 78
0.382546 -2.77836 5.01354 56 59 52
0.414593 -2.31621 5.38539 109 115 115
0.475485 -2.37153 5.43282 109 115 115
0.539825 -2.52267 5.48693 81 78 71
0.520758 -2.77178 5.23699 56 63 56
0.55211 -2.31216 5.44985 27 29 26
0.553963 -2.38405 5.4651 90 91 83
0.568421 -2.42665 5.48006 68 68 58
0.582432 -2.44388 5.48966 74 74 64
0.583634 -2.48048 5.49043 26 23 14
0.596284 -2.57886 5.61215 101 101 91
0.569347 -2.7817 5.24894 87 82 76
0.600756 -2.32627 5.48481 87 84 77
0.626132 -2.47244 5.51809 93 90 83
0.625328 -2.29212 5.63812 62 65 58
0.654404 -2.33549 5.50779 56 56 54
0.65741 -2.40118 5.52305 68 69 63
0.666455 -2.54277 5.55042 58 51 45
0.69998 -2.33563 5.53113 73 70 65
0.701234 -2.37131 5.53877 72 68 57
0.68021 -1.7762 5.36686 71 72 66
0.712198 -2.51071 5.56795 70 73 64
0.703602 -2.84205 5.32755 203 202 197
0.83088 -2.83282 5.39097 64 65 57
0.83088 -2.83282 5.39097 99 97 85
0.844286 -2.86065 5.39831 120 113 103
0.85408 -2.91071 5.32064 120 113 103
0.929734 -2.85226 5.43853 122 115 107
0.952029 -2.85199 5.55559 118 111 101
0.993563 -2.8026 5.48003 123 114 107
1.04644 -2.06828 5.73554 120 116 107
1.01423 -2.89659 5.46308 114 110 99
1.10609 -2.09424 5.71601 169 162 152
1.10335 -2.82408 5.52075 115 111 102
1.12716 -2.8095 5.54666 165 158 148
1.1877 -2.41207 5.78929 103 98 94
1.174 -1.93675 5.70075 81 82 76
1.174 -1.93675 5.70075 160 153 143
1.20089 -2.42174 5.79018 145 137 126
1.23962 -2.34963 5.79665 145 137 126
1.20388 -2.11038 5.61706 159 150 141
1.25993 -2.47773 5.82799 154 149 143
1.25993 -2.47773 5.82799 146 141 135
1.25108 -2.04079 5.6847 148 148 140
1.2904 -2.84574 5.67629 148 148 140
1.27224 -2.77213 5.55169 104 94 84
1.28516 -2.94569 5.55242 47 39 36
1.28516 -2.94569 5.55242 108 99 90
1.33189 -1.86993 5.73097 75 77 72
1.37324 -2.51618 5.87789 75 77 72
1.37453 -2.52394 5.88316 140 143 136
1.34049 -1.9537 5.72783 126 122 113
1.37946 -2.47752 5.87663 126 122 113
1.34131 -2.8334 5.63927 114 115 107
1.39463 -2.28661 5.8829 103 104 98
1.41488 -2.42302 5.89596 28 30 25
1.41488 -2.42302 5.89596 114 115 109
1.42894 -1.90506 5.78678 119 116 109
1.42894 -1.90506 5.78678 119 116 109
1.40735 -2.97537 5.65323 122 121 116
1.40735 -2.97537 5.65323 122 121 116
1.45538 -2.84277 5.73434 64 65 60
1.44863 -2.94766 5.61991 64 65 60
1.44863 -2.94766 5.61991 120 119 114
1.52436 -2.8752 5.74809 58 60 57
1.52436 -2.8752 5.74809 58 60 57
1.6126 -2.61172 6.0105 148 149 141
1.6126 -2.61172 6.0105 148 149 141
1.60402 -2.49256 5.96359 107 108 102
1.60979 -2.83773 5.78197 107 108 102
1.61419 -2.86846 5.77016 113 115 110
1.70095 -2.03841 5.9335 102 103 95
1.71011 -2.96092 5.74969 87 88 80
1.84209 -2.34167 6.09324 118 117 112
1.86801 -2.46575 6.03639 45 49 48
1.88906 -2.51085 6.13368 102 103 97
1.89528 -2.58493 6.14373 124 121 112
1.90813 -2.58771 6.15745 124 121 112
1.95615 -2.37735 6.1438 113 114 108
1.97396 -2.6195 6.18506 121 122 116
1.97138 -2.41275 6.16275 110 107 100
1.97241 -2.36773 6.15948 105 108 101
1.96727 -2.49706 6.08701 113 115 110
2.17653 -1.9932 6.29446 132 129 122
2.19569 -2.52888 6.28383 129 130 124
2.18059 -1.86978 6.18561 115 105 95
2.21321 -2.49925 6.27578 119 109 99
2.23326 -2.51328 6.29932 128 122 110
2.14264 -1.58304 5.99742 118 109 100
2.23267 -2.39663 6.28288 119 111 100
2.23267 -2.39663 6.28288 128 122 110
2.29008 -2.0437 6.28604 107 100 90
2.38994 -0.775776 6.05781 107 100 90
2.41879 -0.69204 6.08945 108 99 90
2.45898 -0.781259 6.1283 101 94 86
2.54858 -1.42477 6.31669 0 0 0
2.43012 -3.01155 5.90604 0 0 0
2.63134 -0.571775 6.23428 0 0 0
2.66979 -2.1488 6.32484 0 0 0
2.62468 -0.274706 6.17019 0 0 0
2.63288 -2.82995 5.7941 0 0 0
2.75749 -2.73089 5.80944 0 0 0
2.77132 -2.73499 5.78439 0 0 0
2.81295 -2.27515 5.85728 0 0 0
2.80072 -2.12246 5.82596 0 0 0
2.87915 -2.66272 5.98435 0 0 0
2.88133 -2.61962 5.97741 0 0 0
2.70845 -2.93182 5.5863 0 0 0
2.87287 0.451024 5.92107 0 0 0
2.88795 0.408756 5.92349 0 0 0
2.93634 -2.57659 6.00502 0 0 0
2.94156 -2.63646 6.01197 0 0 0
3.05281 -1.99676 6.05404 0 0 0
2.94872 -2.93475 5.80428 0 0 0
3.15397 -2.00403 6.10284 0 0 0
2.85521 0.54339 5.50155 0 0 0
3.17979 -2.64424 6.12524 0 0 0
2.99625 -2.94981 5.75073 0 0 0
2.88971 0.609342 5.491 0 0 0
3.20317 -2.11436 6.04542 0 0 0
3.14999 -2.85094 5.88573 0 0 0
3.14574 -2.93046 5.87749 0 0 0
2.8742 1.44978 5.36482 0 0 0
2.87737 1.54748 5.3516 0 0 0
2.8759 1.56333 5.3419 0 0 0
2.93143 0.684061 5.36398 0 0 0
3.28494 -2.1317 6.04839 0 0 0
2.91176 1.50675 5.35299 0 0 0
3.3887 -2.63813 6.20106 0 0 0
2.94199 1.57457 5.37458 0 0 0
3.3039 -2.09028 6.0235 0 0 0
2.97867 1.57984 5.39728 0 0 0
2.95444 1.59662 5.27514 0 0 0
3.50359 -2.5987 6.23723 0 0 0
3.39465 -2.8405 6.00825 0 0 0
3.56868 -2.63634 6.27188 0 0 0
3.30949 0.508236 5.76854 0 0 0
3.61791 -2.66863 6.30458 0 0 0
3.27382 0.53921 5.52259 0 0 0
3.4116 0.721112 5.74654 0 0 0
3.67528 -0.541918 6.18508 0 0 0
4.19545 -0.545317 6.92421 0 0 0
4.19217 -0.571483 6.89942 0 0 0
4.21552 -0.0315612 6.87975 0 0 0
3.59037 0.718875 5.82136 0 0 0
3.66479 0.765289 5.8593 0 0 0
4.34866 -0.700692 6.93079 0 0 0
3.69482 0.94562 5.84663 0 0 0
3.69482 0.94562 5.84663 0 0 0
3.69462 1.03012 5.83414 0 0 0
3.69462 1.03012 5.83414 0 0 0
3.72379 1.04013 5.84091 0 0 0
3.72379 1.04013 5.84091 0 0 0
4.53306 -0.589989 7.06272 0 0 0
4.77797 0.095038 7.41013 0 0 0
4.54495 -0.618367 7.0254 0 0 0
4.81083 0.172522 7.41556 0 0 0
4.36881 -0.515583 6.67979 0 0 0
4.84457 0.357259 7.39408 0 0 0
4.84769 0.627106 7.33252 0 0 0
4.83189 1.19827 7.24856 0 0 0
4.8039 -0.543016 7.17848 0 0 0
4.52798 -0.522226 6.63867 0 0 0
2.46406 -0.194123 3.64338 0 0 0
4.82263 -0.382794 7.11971 0 0 0
4.85608 -0.71842 7.14553 0 0 0
4.85608 -0.71842 7.14553 0 0 0
4.94613 -1.06194 7.26761 0 0 0
4.8893 -0.591489 7.17521 0 0 0
4.91371 -0.465547 7.19248 0 0 0
4.85 -0.046986 7.0822 0 0 0
4.90732 -0.271524 7.1596 0 0 0
4.84332 0.845432 6.97363 0 0 0
4.96532 0.0686829 7.14414 0 0 0
4.78465 1.34038 6.8458 0 0 0
4.67459 0.51286 6.62606 0 0 0
5.02679 0.0681067 7.16735 0 0 0
5.05233 -0.0303195 7.17362 0 0 0
5.04794 0.0197069 7.13729 0 0 0
5.05488 0.241539 7.13322 0 0 0
5.06247 -0.503242 7.1308 0 0 0
4.95461 1.1741 6.96972 0 0 0
4.93783 1.28611 6.93802 0 0 0
4.97562 1.23066 6.96996 0 0 0
5.10648 -0.486652 7.14451 0 0 0
5.10778 -0.505537 7.14614 0 0 0
4.98501 1.24829 6.96237 0 0 0
5.06655 -0.0499274 7.07265 0 0 0
5.2221 -1.05295 7.28779 0 0 0
5.10475 -0.663368 7.12067 0 0 0
5.0961 -0.29427 7.10363 0 0 0
4.83342 -0.548478 6.624 0 0 0
5.06378 0.238982 7.04984 0 0 0
5.02337 1.18571 6.97342 0 0 0
5.05896 0.852152 7.01812 0 0 0
5.15241 -0.242868 7.14656 0 0 0
5.06211 0.431238 7.02016 0 0 0
5.14009 -0.310791 7.10345 0 0 0
5.04998 1.11946 6.9648 0 0 0
5.11252 0.467873 7.02289 0 0 0
5.17301 0.258053 7.08367 0 0 0
5.20689 -0.0187 7.11817 0 0 0
5.03293 1.183 6.87354 0 0 0
5.14498 0.658984 7.01232 0 0 0
5.26553 -0.393682 7.13357 0 0 0
4.97143 -0.432258 6.70322 0 0 0
5.27262 -0.45989 7.13544 0 0 0
5.1448 1.145 6.94747 0 0 0
5.29238 -0.368608 7.14282 0 0 0
5.19688 0.534053 7.01279 0 0 0
5.32034 -0.460941 7.15879 0 0 0
5.53964 -0.934606 7.39572 0 0 0
5.50648 -0.85084 7.34506 0 0 0
5.39394 -0.0213778 7.17229 0 0 0
5.09189 -0.162999 6.65604 0 0 0
5.47213 -0.258976 7.21142 0 0 0
5.51795 -0.053209 7.26224 0 0 0
5.52444 0.075731 7.25556 0 0 0
2.9232 -0.00805556 3.83142 0 0 0
5.19318 -0.0239747 6.77766 0 0 0
5.56661 -0.634219 7.28471 0 0 0
5.22081 -0.285651 6.79451 0 0 0
5.53472 0.347779 7.22416 0 0 0
5.52779 0.251736 7.21062 0 0 0
5.58383 -0.68605 7.24483 0 0 0
5.58383 -0.68605 7.24483 0 0 0
5.50829 0.872675 7.14342 0 0 0
5.52308 0.608806 7.15775 0 0 0
-2.4378 1.37117 3.43162 0 0 0
-2.05298 1.24829 2.9162 0 0 0
-2.04645 1.24589 2.91928 208 205 196
-2.05322 1.00028 2.94984 95 91 80
-2.05276 0.58882 3.15066 99 96 87
-2.06675 0.258353 3.19341 216 213 206
-2.07312 0.0751596 3.211 219 218 214
-2.05357 -0.0697217 3.22922 137 139 138
-1.94306 1.05091 3.01761 42 44 41
-2.73338 -0.739582 5.76593 154 154 154
-2.06467 -0.441965 3.28672 218 213 207
-2.01455 -0.329903 3.28457 221 228 236
-2.00874 -0.56939 3.2568 224 228 237
-1.94178 0.509689 3.23665 221 228 238
-1.90716 0.552452 3.24379 220 227 235
-1.93139 -0.28746 3.27024 165 166 161
-1.94137 -0.435875 3.30919 190 190 188
-1.86036 0.373278 3.30916 215 211 202
-1.88869 -0.39465 3.33355 208 201 193
-1.88153 -0.386458 3.34354 222 221 216
-1.92446 -0.866916 3.49451 214 214 206
-1.74285 1.04758 3.14927 216 213 206
-1.81902 -0.530587 3.42421 229 225 214
-1.7456 0.794512 3.31776 107 99 86
-1.70465 1.00491 3.1819 217 212 206
-1.79172 -0.308957 3.39766 230 233 238
-1.78803 -0.525979 3.41915 232 236 239
-1.78803 -0.525979 3.41915 217 214 207
-1.70516 0.700413 3.37377 219 216 209
-1.72043 0.363264 3.40875 219 216 209
-1.71439 0.457086 3.40086 224 223 218
-1.7242 0.269458 3.41847 214 215 210
-1.29355 -0.57635 3.88327 123 119 107
-1.22645 -0.485828 3.97553 143 143 143
-1.19521 0.0892452 4.25859 219 214 208
-1.15949 0.236832 4.2785 217 214 207
-1.15949 0.236832 4.2785 53 54 48
-1.14884 0.251757 4.27375 131 131 123
-1.2162 -1.34915 4.11679 131 131 123
-0.992407 0.924225 3.94465 140 139 134
-1.11144 -1.91143 4.24584 35 40 36
-0.826429 1.83869 11.2854 13 18 11
-0.998423 0.677656 3.97473 55 52 33
-1.0774 -1.88446 4.27473 201 201 199
-0.939364 -0.290066 4.14008 200 200 198
-0.924748 0.0544294 4.10432 102 100 88
-0.873632 0.991751 4.01435 210 209 204
-0.953467 -1.97886 4.32438 23 22 18
-0.94963 -1.93595 4.35281 9 11 6
-0.94963 -1.93595 4.35281 40 40 30
-0.873022 -0.0553883 4.14576 41 39 26
-0.955894 -2.11489 4.32538 41 39 26
-0.863802 0.151851 4.12665 39 39 31
-0.830797 1.32579 3.72353 75 68 60
-0.894045 -0.605717 4.1473 16 21 15
-0.831879 0.879846 4.04165 14 17 10
-0.904496 -1.0102 4.2626 15 18 11
-0.926805 -1.90766 4.31125 11 13 8
-0.887729 -1.94937 4.23362 104 93 73
-0.722803 -2.00144 4.35392 71 73 70
-0.568341 0.375972 4.05203 24 26 15
-0.483121 1.34416 3.55551 34 36 23
-0.501106 0.465803 3.63996 203 204 199
0.760698 0.926968 11.7832 15 17 12
-0.443295 1.30544 3.54942 111 107 95
-0.387768 -1.77474 4.17966 183 185 182
0.0811036 -2.17603 4.40934 11 11 9
0.20034 0.363088 4.19692 16 18 13
0.211179 0.306973 4.22222 53 14 15
0.231587 0.980194 4.05155 156 153 144
0.308078 0.416925 4.18049 150 146 135
0.308078 0.416925 4.18049 30 31 26
7.08361 -7.70322 22.0692 167 163 154
1.18535 -2.15875 5.92037 167 163 154
1.22361 -2.19103 5.92949 148 142 128
1.24378 -1.92308 5.94231 169 163 149
1.07897 -2.97186 5.61183 163 155 144
1.25762 -2.44848 5.96684 175 169 157
1.27453 -2.07581 5.90541 77 76 71
1.16256 -3.01423 5.61278 160 156 145
1.43224 -2.05422 5.96307 138 134 125
1.88524 -2.19846 6.39699 74 75 69
1.90424 -3.86115 6.60146 121 120 115
1.90424 -3.86115 6.60146 117 114 107
2.60838 -0.823031 7.30285 58 59 54
2.33417 -2.66305 6.76069 58 59 54
2.76431 1.52852 6.97039 114 102 88
2.52574 -2.40142 6.86417 116 118 107
2.71303 -2.52424 7.0244 142 115 88
2.77425 1.51906 6.69387 136 134 121
2.83713 -2.52732 7.0436 133 120 103
2.85629 1.45218 6.61275 121 112 103
2.94663 -0.959898 6.9202 127 120 102
2.89716 -3.01917 7.0306 122 109 92
3.00573 -0.618388 6.91405 137 128 113
3.1177 -2.33487 7.04864 107 99 86
3.24545 -4.15141 7.43383 133 123 111
3.17044 -2.48576 7.11287 122 114 101
2.8385 -3.32122 6.47935 105 101 89
2.81042 -3.31432 6.37593 120 112 99
3.12503 -3.06606 6.82946 111 102 93
3.22296 -2.9902 6.59019 112 105 95
3.15526 -3.04127 6.45915 116 108 95
3.26894 0.593513 6.07311 113 109 98
3.28854 0.558492 6.01806 110 106 94
-2.83581 -0.36419 4.2166 0 0 0
-2.83339 -0.665558 4.23177 0 0 0
-2.42792 -0.619768 4.38704 0 0 0
-2.30996 0.582341 4.74389 0 0 0
-2.29374 0.900197 4.74251 0 0 0
-2.30226 0.59363 4.75699 0 0 0
-36.3482 9.6722 57.5495 0 0 0
-1.97594 -0.589042 4.64954 0 0 0
-36.1779 9.7605 58.3875 0 0 0
-0.550171 0.561616 4.30883 0 0 0
-0.454967 -2.7073 4.80847 0 0 0
-0.286225 -2.90362 4.66283 0 0 0
-0.304064 -2.69279 4.84395 0 0 0
-0.105376 0.56573 4.45603 0 0 0
-0.144371 0.768106 4.8684 0 0 0
-0.0422886 0.707022 4.46794 0 0 0
0.0191007 -2.38363 4.84545 225 224 219
0.0853042 -2.93184 4.77017 72 67 61
0.712493 -1.9053 4.11787 73 71 59
0.544312 -2.56136 5.62924 114 116 102
0.69432 -3.00651 5.44432 214 216 215
0.684394 -2.48627 5.66258 224 225 220
0.766483 -3.00536 5.46566 214 213 209
0.789751 -2.29836 5.69466 219 220 215
0.90711 -2.86482 5.56862 189 188 183
0.909239 -2.93203 5.57068 184 182 183
0.978558 -2.47976 5.74611 225 224 220
1.11247 -2.98856 5.56911 102 96 84
1.11247 -2.98856 5.56911 28 29 21
1.20304 -2.27585 5.82364 141 143 142
1.24776 -2.8507 5.6757 17 23 11
1.33521 -2.33251 5.84289 51 45 31
1.33967 -2.98329 5.64464 38 34 23
1.49601 -3.54907 6.04074 26 27 19
1.50964 -2.97771 5.70099 12 13 8
1.50964 -2.97771 5.70099 16 17 12
1.53376 -3.57203 6.05101 45 43 31
1.52232 -2.83549 5.7586 71 71 63
1.58887 -3.55321 6.08266 99 104 100
1.58184 -2.83585 5.78381 46 42 31
1.63291 -2.83113 5.79273 87 80 72
1.73017 -3.51855 6.13303 87 80 72
1.70349 -2.87181 5.8161 17 19 16
1.70806 -2.82957 5.8121 66 69 60
1.77708 -3.50782 6.14567 86 92 82
1.82599 -3.56 6.13764 205 206 200
1.81251 -2.45854 6.00408 72 73 65
1.80155 -2.83106 5.85039 64 59 55
1.87285 -2.36743 6.0089 115 102 94
1.89725 -3.56405 6.16344 25 28 21
1.88207 -2.47687 6.02616 25 28 21
1.91999 -2.82512 5.88748 211 210 206
2.20444 -2.39282 6.12231 162 158 146
3.12147 -3.46019 6.1406 188 182 170
3.13009 -3.49016 6.13807 136 132 123
3.13009 -3.49016 6.13807 79 80 75
3.01352 -2.802 5.71522 114 111 104
3.15758 -3.45769 6.1531 114 111 104
3.06357 -2.91383 5.67607 79 80 75
3.27142 -3.4761 6.18013 125 126 120
3.15637 -2.81678 5.75548 85 74 70
3.31728 -3.48372 6.19179 111 112 106
3.23759 -2.81043 5.77604 108 109 103
3.35222 -2.6034 5.99907 122 123 117
3.37111 -2.80367 5.82133 116 117 111
3.38053 -2.89674 5.7796 117 119 114
3.38053 -2.89674 5.7796 98 99 93
3.41692 -2.76354 5.84436 88 90 79
3.44918 -2.90166 5.81786 135 130 124
3.36685 1.30799 5.44053 110 111 105
3.89801 -0.546383 6.42159 115 103 91
3.58104 0.686633 5.56066 99 99 91
3.98415 -0.52071 6.44032 141 142 136
3.98441 -0.520222 6.44103 125 121 110
3.58727 1.19697 5.52692 132 124 113
3.99922 -0.618773 6.41415 0 0 0
4.21291 -0.624866 6.45421 0 0 0
4.5433 -0.543834 6.61371 0 0 0
4.64718 -0.519927 6.63486 0 0 0
4.65768 -0.424033 6.64404 0 0 0
4.89317 -0.619723 6.59945 0 0 0
4.91888 -0.172019 6.58488 0 0 0
5.08853 -0.197375 6.61648 0 0 0
5.18516 0.306973 6.61425 0 0 0
-3.83887 1.33209 4.08575 0 0 0
-3.83887 1.33209 4.08575 0 0 0
-2.86697 0.768324 4.15952 0 0 0
-2.71691 -0.867577 4.2147 0 0 0
-2.68921 -0.189475 4.25513 0 0 0
-2.67683 -0.587692 4.24781 0 0 0
-2.6347 -0.356335 4.26306 0 0 0
-2.60961 -0.35502 4.25365 0 0 0
-2.65873 -0.61915 4.27994 0 0 0
-2.56726 -0.738988 4.26857 0 0 0
-2.5728 0.235132 4.28739 0 0 0
-2.60769 -0.189137 4.30572 0 0 0
-2.77696 -1.06035 4.38712 0 0 0
-2.44115 -0.252213 4.30059 0 0 0
-2.42721 -0.3193 4.30872 0 0 0
-2.47497 -0.187333 4.34009 0 0 0
-2.47366 -0.0434604 4.34167 0 0 0
-2.47366 -0.0434604 4.34167 0 0 0
-2.50841 1.0933 4.37057 0 0 0
-2.46017 -0.253205 4.35562 0 0 0
-2.44532 -0.304986 4.35917 0 0 0
-3.67816 -1.26107 4.91447 0 0 0
-2.60495 -1.1102 4.44163 88 84 75
-2.44976 -0.264988 4.3785 88 84 75
-2.4452 1.02067 4.39675 62 66 51
-2.47437 1.10523 4.41067 185 181 170
-2.2938 1.27175 4.333 94 84 72
-2.55963 -1.14155 4.44212 196 192 181
-2.38637 0.0158967 4.37274 91 83 70
-2.36154 1.16242 4.37007 91 83 70
-2.41237 -0.410204 4.38433 187 183 172
-2.47167 1.12687 4.42221 171 165 153
-2.45054 0.990661 4.41226 206 203 198
-2.37536 0.868507 4.3868 198 195 186
-2.31262 -0.744817 4.3506 184 180 169
-2.44127 0.251203 4.41623 208 203 197
-2.43858 0.775116 4.4197 207 204 197
-2.46633 0.84707 4.45086 201 194 184
-2.43047 0.796003 4.43724 213 212 207
-2.46212 0.539566 4.46467 213 212 207
-2.42576 -0.523902 4.4449 102 95 85
-2.42576 -0.523902 4.4449 206 203 194
-2.24794 -0.700739 4.36583 205 204 199
-2.36931 0.40642 4.44081 199 186 180
-2.41066 0.201885 4.4608 199 186 180
-2.41382 0.11761 4.46673 203 200 191
-2.41227 0.538758 4.47896 122 125 114
-2.43982 -0.0312653 4.49583 108 108 98
-2.37283 -0.253842 4.47449 105 105 95
-2.22994 -0.747717 4.40933 201 193 182
-2.42125 -0.286981 4.5147 203 199 190
-2.38135 -0.309076 4.4979 116 118 107
-2.38135 -0.309076 4.4979 205 202 195
-2.35401 -0.397065 4.4919 119 120 112
-2.3712 -0.345385 4.51615 81 81 73
-2.41154 -0.294534 4.53671 123 123 115
-2.35915 -0.605779 4.52516 209 202 194
-2.32723 0.114447 4.51762 179 179 167
-2.27444 0.566985 4.52095 122 123 115
-2.35059 -1.33043 4.59155 107 104 95
-2.11663 -0.0743845 4.61192 87 82 76
-3.10295 -0.687302 5.25497 67 65 52
-2.32422 0.210268 4.85621 207 205 193
-1.92975 -0.633562 4.69039 207 205 193
-0.643707 -0.497211 4.23837 207 204 195
-0.718254 1.05173 4.3278 81 79 67
-0.606802 0.725917 4.3724 90 81 72
-0.752348 -0.608216 4.49005 73 67 53
-0.742946 -0.60326 4.48511 83 80 73
-0.591993 0.572302 4.39575 91 85 71
-0.562256 0.729719 4.40656 181 177 168
-0.384335 0.56474 4.43113 209 206 197
-0.492726 -3.05287 4.5388 118 127 110
-0.492726 -3.05287 4.5388 185 196 179
-0.264801 0.569777 4.46913 185 196 179
-0.366965 -3.01051 4.60837 187 184 177
-0.39144 -2.92019 4.63583 86 80 66
-0.549161 -1.9514 4.73176 82 79 62
-0.718276 -3.64351 4.91888 181 174 166
-0.718276 -3.64351 4.91888 94 92 80
-0.516917 -1.99876 4.79206 69 61 50
-0.670757 -3.60746 4.92885 201 199 187
-0.338283 -2.17164 4.7313 68 69 55
-0.0766696 0.719674 4.547 109 103 89
-0.175682 -2.92983 4.69165 116 116 108
-0.158909 -2.91495 4.7006 82 76 62
-0.490155 -3.65862 4.9604 146 143 138
-0.0950682 -3.00539 4.69787 199 199 189
-0.0965629 -2.91775 4.72463 80 76 64
0.0596537 1.25631 4.56662 198 197 193
0.0404766 0.480725 4.59662 198 197 193
-0.425133 -3.6239 4.99055 130 131 133
0.0595212 1.64083 4.57449 75 72 65
-0.154182 0.284081 4.7577 116 119 110
0.037389 1.26073 4.66579 71 72 66
0.112966 -3.03205 4.71919 71 72 66
-0.105038 -2.50082 4.90855 137 139 138
0.160468 -3.04107 4.74968 43 39 36
0.160468 -3.04107 4.74968 79 74 71
0.10995 -2.90946 4.79169 116 105 101
0.154809 -2.91223 4.80999 55 54 52
0.105817 -2.18105 4.8363 55 54 52
0.164355 -2.9938 4.80826 193 192 187
0.0345452 1.29436 4.8341 178 157 166
0.0520436 -2.30288 4.90107 188 192 178
0.078928 -2.39292 4.8851 35 37 34
0.0680755 -2.36925 4.90172 33 30 23
0.0680755 -2.36925 4.90172 54 59 55
0.0608694 -2.78462 4.91617 28 30 17
-0.0255603 -2.72174 4.98338 41 38 33
-0.13594 -3.59279 5.10673 69 70 62
0.222136 -2.94702 4.82263 23 24 18
0.229819 -2.94159 4.81743 115 116 110
0.0117936 0.634168 4.95948 34 30 19
-0.0752681 -3.61724 5.11156 71 67 58
0.131148 -2.8287 4.9363 140 139 134
0.131148 -2.8287 4.9363 25 26 20
-0.0250761 1.07726 5.0035 105 110 106
-0.103485 -1.98872 5.13692 26 31 25
0.334972 -3.02004 4.82756 27 28 22
-0.060935 0.649773 5.06313 27 28 22
-0.0992326 -0.142782 5.11954 16 21 15
-0.121449 -0.0978229 5.13968 8 10 5
-0.0514303 0.646416 5.08155 211 208 201
-0.0510177 0.181797 5.10639 17 18 12
-0.0563472 0.544356 5.10495 28 31 24
-0.00651535 0.603898 5.06809 189 185 182
0.364728 -3.03524 4.85083 179 177 182
-0.060561 0.134793 5.12825 129 125 122
-0.060561 0.134793 5.12825 129 125 122
-0.0537764 -0.378948 5.14589 70 66 63
-0.0314825 0.583037 5.11033 47 47 39
-0.0383043 0.0137094 5.15449 42 38 29
-0.0617862 -0.575479 5.19091 18 24 12
-0.0617862 -0.575479 5.19091 18 24 12
-0.0747419 -2.69682 5.25774 159 160 155
-0.0324653 0.821575 5.14254 66 65 63
-0.0870998 -2.0166 5.27559 33 41 30
-0.0363109 -1.03198 5.21218 33 41 30
0.218598 -2.93577 5.05105 214 213 208
-0.0499386 -2.12271 5.25411 196 195 191
-0.0574299 -2.28535 5.27051 35 36 28
-0.046648 -2.24506 5.26386 160 162 159
-0.0208124 -2.23627 5.24769 168 172 173
-0.0421423 -2.30203 5.26562 63 62 60
-0.0832519 -2.01399 5.29636 130 132 129
0.306773 -3.03481 5.00655 205 204 209
0.306773 -3.03481 5.00655 197 197 195
0.00697747 -1.90033 5.24085 193 192 190
0.00697747 -1.90033 5.24085 150 149 144
0.22954 -2.98614 5.10357 180 178 181
0.205727 -2.94628 5.12233 180 178 181
-0.0215216 -2.1766 5.30692 21 27 13
-0.035437 -2.15678 5.31762 179 180 175
0.29775 -3.03061 5.07559 45 46 30
0.29775 -3.03061 5.07559 35 35 23
0.0617043 -0.591901 5.21208 35 35 23
0.0519758 -0.538562 5.23393 49 41 30
0.0371002 -2.59676 5.31249 29 34 30
0.0371002 -2.59676 5.31249 203 202 198
0.0893657 -2.87722 5.27697 209 210 204
0.0453036 -0.138878 5.2656 69 69 69
0.0675496 -0.700719 5.26692 13 24 16
0.213909 -2.91651 5.20679 214 211 206
0.0610661 -2.68504 5.36448 207 207 199
0.0865057 -1.42455 5.3141 207 207 199
0.109817 -0.699253 5.29322 213 210 205
0.0537776 -2.68294 5.3948 205 204 200
0.10261 -2.16738 5.34575 62 68 64
0.330651 -3.08582 5.17598 62 68 64
0.113851 -2.11818 5.33532 212 211 206
0.0972581 -2.1265 5.35162 212 211 206
0.0662608 -2.69336 5.40266 78 84 74
0.152418 -2.26867 5.31898 96 96 96
0.125654 -2.1416 5.34553 167 167 157
0.0478777 -1.4075 5.39269 106 119 109
0.138686 -2.24797 5.35226 33 35 24
0.168258 -2.23632 5.33148 33 35 24
0.179665 -2.25138 5.32666 39 40 34
0.122189 -2.71499 5.41573 28 29 21
0.0784385 -1.59807 5.42498 150 147 140
0.0804846 -1.9252 5.44414 150 147 140
0.256149 -2.86262 5.33138 35 35 25
0.103621 -2.1562 5.4428 14 16 11
0.15896 -2.73557 5.41519 41 42 28
0.0668792 -2.70208 5.49215 33 33 21
0.383763 -3.02848 5.23304 48 51 42
0.103945 -2.18382 5.45455 103 95 82
0.0958257 -2.67595 5.48325 62 62 54
0.0837943 -2.67638 5.49087 44 25 21
0.142457 -2.2689 5.43274 168 169 161
0.149965 -2.22881 5.42802 56 58 47
0.0848438 -2.70479 5.50549 36 44 33
0.0848438 -2.70479 5.50549 31 39 28
0.126145 -1.57617 5.4373 36 16 9
0.0137912 -3.60681 5.59647 211 210 205
0.362091 -2.88504 5.28316 134 142 129
0.461296 -3.02361 5.25602 172 149 141
0.192879 -2.05464 5.49726 208 207 202
0.192879 -2.05464 5.49726 208 207 202
0.188832 -2.58325 5.52437 212 211 206
0.296134 -2.85638 5.44662 187 174 165
0.142219 -3.56628 5.63942 67 61 49
0.507859 -3.06957 5.33264 215 212 205
0.275143 -2.66798 5.56516 17 20 13
0.122783 -0.561979 5.64025 40 53 44
0.3206 -2.44567 5.5675 192 183 174
0.334846 -2.59816 5.5696 177 180 173
0.170781 -0.805492 5.68391 63 65 54
0.355695 -2.34492 5.55955 141 143 132
0.498084 -2.99802 5.46156 153 155 150
0.361486 -2.44521 5.57161 153 155 150
0.522535 -2.87735 5.44951 209 208 203
0.572262 -2.87563 5.46505 201 201 193
0.451605 -2.59904 5.601 179 179 171
0.607282 -2.87535 5.4741 179 179 171
0.528558 -2.44098 5.62042 75 72 63
0.520834 -2.57377 5.63319 105 106 100
0.545573 -2.60515 5.62881 13 16 7
0.55653 -2.5203 5.63174 23 26 15
0.559106 -2.3921 5.62678 199 198 194
0.566648 -2.49498 5.63023 199 198 194
0.57485 -2.37946 5.63123 184 183 178
0.733528 -2.87108 5.51773 36 27 20
0.61615 -2.51861 5.6478 40 42 31
0.635951 -2.45728 5.64251 14 17 8
0.644409 -2.43856 5.64854 184 184 174
0.642856 -2.59817 5.66445 53 48 29
0.684534 -2.4639 5.66151 204 201 196
0.677215 -2.55401 5.67379 143 125 111
0.68908 -2.3334 5.65898 19 21 18
0.746392 -2.07147 5.621 211 210 205
0.851351 -2.9231 5.54747 193 190 183
0.72355 -2.47356 5.68033 200 199 194
1.01953 -2.95503 5.57828 193 190 183
0.841119 -3.60119 5.80857 190 190 182
0.892496 -2.06289 5.68553 184 184 176
0.892496 -2.06289 5.68553 191 191 183
0.932595 -2.60223 5.75087 198 197 193
1.08089 -2.89312 5.60996 121 121 111
0.940899 -3.58287 5.83228 187 187 179
1.13093 -2.85067 5.63571 187 177 168
1.18107 -2.88561 5.63459 206 206 198
1.18107 -2.88561 5.63459 150 147 142
1.12682 -2.53514 5.79053 208 207 202
1.17723 -1.93257 5.71854 195 192 183
1.20255 -1.9825 5.71895 167 172 165
1.19848 -1.81359 5.74123 186 182 179
1.23567 -1.97189 5.73138 191 190 186
1.21738 -2.25553 5.80839 184 184 176
1.21647 -2.52275 5.82705 173 169 166
1.23857 -2.34107 5.81259 188 185 176
1.24213 -2.48594 5.83207 210 209 204
1.24738 -2.5566 5.83886 23 18 14
1.29522 -1.97555 5.75114 194 194 186
1.39746 -2.8534 5.70082 161 160 158
1.29771 -2.29847 5.82577 190 187 178
1.29077 -2.56745 5.85237 177 170 160
1.33588 -2.32817 5.84333 40 25 22
1.33519 -3.55388 5.94021 40 25 22
1.369 -2.35064 5.84832 184 181 172
1.37281 -2.43405 5.86564 190 185 179
1.37309 -2.43175 5.86526 174 174 164
1.37927 -2.50658 5.87393 116 113 104
1.35518 -3.53787 5.96604 104 101 96
1.41233 -2.07375 5.84787 104 101 96
1.43963 -1.97611 5.81575 186 186 174
0.828703 -2.48977 6.70862 202 201 197
1.44404 -2.1278 5.88519 184 183 179
1.29242 -4.09003 6.21295 211 210 205
1.45462 -2.09103 5.8786 188 189 184
1.63843 -2.95908 5.71735 213 210 205
1.62976 -2.96411 5.72713 187 187 179
1.49115 -2.0532 5.88393 202 201 196
1.49685 -3.54649 5.97886 184 185 177
1.67597 -2.92227 5.77336 188 185 178
1.72622 -2.95577 5.74427 183 182 180
1.66641 -2.56475 5.95495 191 190 185
1.78024 -2.82468 5.83815 207 206 202
1.71683 -3.47689 6.06194 181 181 173
1.88654 -2.84766 5.84051 202 201 197
1.80201 -2.59474 5.99071 170 170 160
1.80706 -2.49573 5.99624 196 195 191
1.84931 -2.49151 5.99987 185 186 178
1.86512 -2.44016 6.00171 185 186 178
1.87633 -2.39449 6.001 190 187 180
1.90554 -2.49197 6.0256 64 66 55
1.9238 -2.52977 6.02438 159 160 152
1.92928 -2.54803 6.04095 177 176 172
1.95521 -2.3654 6.01787 198 198 190
1.95362 -2.12585 6.00769 199 199 191
2.06407 -2.854 5.90971 10 15 9
1.96517 -2.29891 6.01972 175 176 168
1.99135 -2.51287 6.04341 187 187 177
1.99135 -2.51287 6.04341 187 187 177
2.01261 -2.38979 6.03491 125 135 126
2.00771 -2.45805 6.04968 53 53 45
2.01645 -2.40746 6.04674 188 187 182
2.0188 -2.47082 6.04843 189 186 181
2.05006 -2.42966 6.05163 18 23 17
2.16076 -2.79511 5.93255 72 78 64
2.21794 -2.78868 5.95095 51 51 39
2.12722 -1.77765 6.01038 65 69 55
2.28272 -2.80689 5.94594 32 34 21
2.22231 -2.42036 6.10623 33 36 25
2.25148 -2.02916 6.05978 25 27 16
2.26397 -1.94387 6.05791 39 39 27
1.86607 -2.23667 6.7839 197 172 165
2.27111 -1.96075 6.06652 21 22 14
2.33531 -0.755267 5.91539 21 24 17
2.38928 -0.7026 5.92767 21 24 15
2.38219 -1.96897 6.08411 52 29 23
2.75691 -2.71736 5.71167 211 208 203
2.77417 1.56222 5.32363 89 80 65
2.97068 -2.91937 5.63852 188 187 182
2.8876 -2.58832 5.81571 16 19 12
2.97126 -2.18668 5.75397 16 19 12
3.03497 -1.98437 5.78355 52 38 25
3.12065 -2.7648 5.71531 26 29 20
3.02307 1.57748 5.39669 43 40 25
3.0898 -2.36338 5.83782 30 34 20
3.22985 -2.93492 5.65264 22 28 16
3.1433 -3.29496 6.06374 162 159 150
3.33339 -2.93826 5.68427 159 155 146
3.24219 0.565645 5.51699 210 207 202
3.34363 -2.76059 5.8037 163 163 155
3.41136 -2.93523 5.70979 124 124 116
3.33985 -2.56615 5.95488 125 118 108
3.46155 -2.94572 5.75059 144 137 127
3.43803 -2.84722 5.80768 120 117 110
3.46792 -2.74861 5.81818 116 113 106
3.47977 -2.7419 5.82431 32 34 29
3.50229 -2.54704 6.00119 31 33 28
3.49554 -1.97387 5.98562 130 132 121
3.49195 -0.0594107 5.70718 172 154 144
3.56372 -2.03489 5.89692 127 124 117
3.4933 0.700741 5.59347 44 47 38
3.54241 0.689642 5.60163 157 154 145
3.54241 0.689642 5.60163 133 127 115
3.51463 1.57177 5.55306 130 128 116
3.56802 1.27668 5.58454 120 114 100
3.57735 -1.85096 6.33831 159 160 152
3.57897 0.46597 5.93976 74 74 62
3.57897 0.46597 5.93976 99 95 84
3.61793 -2.01553 6.36261 101 103 92
3.64888 1.22416 5.61486 91 93 82
3.65924 -2.5733 6.46804 109 104 98
3.66491 1.28311 5.61821 93 94 86
3.72834 -2.64562 6.41146 81 83 72
3.6204 0.0943009 6.1641 104 104 94
3.69546 -2.52514 6.60557 90 91 83
3.66591 -0.398656 6.27369 107 108 100
3.68582 -0.526127 6.32614 91 92 84
3.84281 -2.74508 6.34182 85 85 75
3.75396 -2.02682 6.54594 100 92 81
3.76272 -2.01822 6.52146 109 109 97
3.71368 -0.547204 6.33929 108 101 91
3.71901 -0.554528 6.33898 99 92 82
3.71901 -0.554528 6.33898 39 41 38
3.72696 -0.380253 6.3407 34 36 35
3.7096 0.00718382 6.31506 34 36 35
3.74897 -0.588 6.3248 119 119 109
3.73981 -0.503822 6.36141 113 113 105
3.72953 -0.0437347 6.31441 117 107 95
3.75983 -0.520492 6.36296 38 31 21
3.75983 -0.520492 6.36296 38 31 21
3.92613 -2.8362 6.3184 113 103 91
3.89628 -2.71699 6.44103 117 110 100
3.77218 -0.546402 6.36504 100 94 82
3.75692 -0.50787 6.4096 114 110 99
3.77209 -0.415065 6.40209 89 81 70
3.78447 0.167609 6.37601 114 108 96
3.83815 -0.543853 6.37333 110 86 62
3.84804 -0.504018 6.39671 122 116 104
3.87533 -0.591685 6.36905 121 113 102
3.87544 -0.549405 6.38813 83 71 57
4.03736 -2.86934 6.38735 89 85 76
3.89179 -0.615474 6.35788 89 85 76
3.95622 -0.661569 6.38296 113 107 93
3.97098 -0.541655 6.41395 115 109 95
3.9726 -0.502857 6.43211 115 109 95
3.99502 -0.589977 6.39837 112 108 97
3.64083 -0.660833 8.20583 125 112 103
3.99971 -0.50185 6.43524 112 93 78
4.06839 -0.514203 6.4965 116 105 87
4.10649 -0.502958 6.47888 118 112 100
4.13583 -0.652905 6.42226 141 108 73
4.2487 -0.625851 6.46168 141 108 73
4.2395 -0.135955 6.48924 69 71 60
4.29632 -0.542463 6.52512 78 75 68
4.31723 -0.517124 6.542 126 91 61
4.31608 -0.517986 6.54668 120 94 71
4.3413 -0.517111 6.55118 98 80 66
4.35783 -0.582053 6.51761 128 98 70
4.4783 -0.465214 6.60105 89 86 77
4.53309 -0.518817 6.61625 0 0 0
4.54802 -0.519478 6.62069 0 0 0
4.55951 -0.520435 6.62743 0 0 0
4.56844 -0.507936 6.6362 0 0 0
4.57981 -0.520439 6.64061 0 0 0
4.57875 -0.456774 6.63079 0 0 0
4.5931 -0.0376329 6.5954 0 0 0
4.5931 -0.0376329 6.5954 0 0 0
4.6084 -0.257952 6.6199 0 0 0
4.64349 -0.520142 6.64866 0 0 0
4.62485 -0.252827 6.63713 0 0 0
4.63334 -0.36127 6.64019 0 0 0
4.65646 -0.52014 6.65809 0 0 0
4.64155 -0.224744 6.65309 0 0 0
4.67108 -0.519727 6.66156 0 0 0
4.67108 -0.519727 6.66156 0 0 0
4.64008 0.161605 6.5944 0 0 0
4.66818 -0.0159076 6.61953 0 0 0
4.68837 -0.142035 6.63622 0 0 0
4.65656 0.805674 6.58227 0 0 0
4.78119 -0.551666 6.59512 0 0 0
4.77759 -0.526847 6.60547 0 0 0
4.8031 -0.642824 6.54586 0 0 0
4.76994 0.00260667 6.64947 0 0 0
4.76777 0.130746 6.61289 0 0 0
4.81707 -0.565441 6.61553 0 0 0
4.82522 -0.623841 6.58525 0 0 0
4.76093 0.407087 6.61416 0 0 0
4.84681 -0.639033 6.57174 0 0 0
4.84444 -0.246354 6.57117 0 0 0
4.82223 0.429382 6.54577 0 0 0
4.89547 -0.548541 6.60824 0 0 0
4.75499 1.51309 6.29533 0 0 0
4.92239 -0.970146 6.75708 0 0 0
4.90674 -0.701879 6.62352 0 0 0
4.88815 -0.26959 6.58131 0 0 0
4.78911 1.20996 6.38139 0 0 0
4.81529 0.856068 6.49904 0 0 0
4.88864 -0.131515 6.60043 0 0 0
4.90803 -0.369023 6.62307 0 0 0
4.90002 -0.234077 6.5917 0 0 0
4.94896 -0.928337 6.74615 0 0 0
4.85821 0.618287 6.55264 0 0 0
4.80098 1.55814 6.34137 0 0 0
4.95147 -0.428778 6.61676 0 0 0
4.96026 -0.36972 6.60994 0 0 0
4.95353 -0.145074 6.62112 0 0 0
4.95353 -0.145074 6.62112 0 0 0
4.9627 -0.171884 6.62661 0 0 0
4.99962 -0.427642 6.62607 0 0 0
4.99621 -0.360741 6.62188 0 0 0
4.85546 -0.369403 14.4296 0 0 0
4.98733 -0.158971 6.63526 0 0 0
4.98513 -0.131992 6.64224 0 0 0
5.01032 -0.429546 6.62896 0 0 0
4.93171 0.681588 6.55735 0 0 0
5.01214 -0.369538 6.63604 0 0 0
5.05263 -0.474914 6.66021 0 0 0
4.92596 1.33449 6.37215 0 0 0
5.03694 -0.158064 6.65215 0 0 0
5.31477 -4.76106 19.461 0 0 0
5.08279 -0.546374 6.67394 0 0 0
5.08173 -0.547494 6.6838 0 0 0
5.33945 -4.90003 19.4594 0 0 0
5.34303 -4.86294 19.484 0 0 0
5.06099 -0.164776 6.50638 0 0 0
4.99311 0.725081 6.59151 0 0 0
5.08875 -0.445221 6.68444 0 0 0
5.38588 -4.85311 19.4654 0 0 0
5.07982 -0.233222 6.67227 0 0 0
5.39444 -4.76397 19.5162 0 0 0
5.42202 -4.87289 19.4287 0 0 0
4.98631 1.08081 6.55615 0 0 0
5.11621 -0.591665 6.70748 0 0 0
5.45786 -5.2265 19.3461 0 0 0
5.12077 -0.601547 6.69062 0 0 0
5.08558 -0.131661 6.67919 0 0 0
5.45683 -4.9642 19.1779 0 0 0
5.46411 -4.91634 19.2115 0 0 0
5.4958 -5.26823 19.2469 0 0 0
5.4958 -5.26823 19.2469 0 0 0
5.50892 -5.24746 19.255 0 0 0
5.13658 -0.635516 6.66708 0 0 0
5.06722 0.338998 6.63575 0 0 0
5.50077 -4.81737 19.3833 0 0 0
5.12427 -0.249685 6.69242 0 0 0
5.53723 -4.82189 19.357 0 0 0
5.56257 -5.06126 19.2667 0 0 0
5.05432 0.847186 6.57616 0 0 0
5.60222 -5.12518 19.1624 0 0 0
5.16513 -0.599191 6.71788 0 0 0
5.13853 -0.146268 6.68449 0 0 0
5.61133 -4.81599 19.2311 0 0 0
5.62356 -4.78229 19.2877 0 0 0
5.62776 -4.71494 19.347 0 0 0
5.05002 1.15714 6.44881 0 0 0
5.69933 -5.10015 19.1548 0 0 0
5.71097 -4.97127 19.0068 0 0 0
5.72122 -4.8628 19.0516 0 0 0
5.08854 1.00219 6.58228 0 0 0
5.11529 0.679391 6.63897 0 0 0
5.75129 -4.77477 19.2101 0 0 0
5.75443 -4.76253 19.1329 0 0 0
5.76858 -4.92238 19.0104 0 0 0
5.08294 1.19805 6.45583 0 0 0
5.08294 1.19805 6.45583 0 0 0
5.81298 -4.66512 19.1451 0 0 0
5.11952 1.45716 6.4551 0 0 0
5.18225 1.14766 6.52231 0 0 0
5.24084 1.16505 6.51853 0 0 0
6.33221 -3.24674 14.207 0 0 0
-8.18001 -6.99615 4.60964 0 0 0
-8.12299 -6.29063 4.64256 0 0 0
-8.05998 -6.48895 4.71793 0 0 0
-9.41397 -5.76075 5.28593 0 0 0
-2.69254 0.79335 4.15164 0 0 0
-2.54282 -0.475896 4.29098 0 0 0
-2.28103 1.13426 4.26297 0 0 0
-2.38987 -0.212828 4.31559 0 0 0
-2.27821 1.13513 4.29352 0 0 0
-2.39805 -0.556505 4.38913 0 0 0
-2.31147 0.911512 4.37112 0 0 0
-2.32003 0.102772 4.39928 0 0 0
-2.36225 -0.275101 4.42391 0 0 0
-2.31348 0.34827 4.41267 0 0 0
-2.3278 0.160977 4.42772 0 0 0
-2.46524 -1.18166 4.48381 0 0 0
-2.31708 0.0936434 4.44068 0 0 0
-8.94257 -9.00894 6.56608 0 0 0
-6.88565 -0.588703 5.8905 0 0 0
-2.28099 -0.35522 4.51075 0 0 0
-2.213 -0.749079 4.5147 0 0 0
-2.2808 -0.641326 4.54318 0 0 0
-9.21097 -8.47923 6.7493 164 172 183
-2.1644 0.279314 4.51218 167 177 189
-2.30449 -1.36324 4.62215 168 176 189
-6.72118 -2.15893 6.04149 28 27 22
-2.21308 -1.40475 4.62949 56 55 50
-0.761638 -0.515629 4.48143 79 79 69
-0.364297 1.23006 4.3478 194 194 186
-0.364297 1.23006 4.3478 112 112 104
