ply
format ascii 1.0 
element vertex 1301
property float32 x 
property float32 y 
property float32 z
property uchar red  
property uchar green
property uchar blue
element face 0
property list uchar int vertex_indices
end_header
-2.10515 0.441459 5.35181 216 244 255
-2.09787 0.391002 5.37381 217 247 255
-2.10379 0.381763 5.38688 215 248 255
-2.02319 0.352044 5.40989 219 248 255
-1.99973 0.522053 5.39075 216 245 253
-2.02772 0.0990487 5.42072 225 250 254
-2.02374 0.227312 5.42154 222 249 255
-2.01864 0.315902 5.42319 223 248 255
-2.06954 -0.718638 5.49866 241 255 255
-1.99404 0.202234 5.43461 226 251 255
-2.01894 -0.0970775 5.45841 229 255 255
-1.99571 0.0799475 5.44434 227 252 255
-2.01951 -0.408911 5.48005 236 254 254
-1.95188 0.242979 5.44416 223 251 255
-1.94665 0.165147 5.44681 226 251 255
-1.98885 -0.525458 5.48894 240 255 255
-1.98885 -0.525458 5.48894 240 255 255
-1.95346 0.0151874 5.46486 229 253 255
-1.94519 0.0379995 5.46725 227 252 255
-1.93051 0.108725 5.47229 228 252 255
-1.87645 0.28852 5.47069 222 249 255
-1.88217 -0.0330245 5.49043 230 254 254
-1.87003 0.0985432 5.48423 228 252 255
-1.87003 0.0985432 5.48423 228 252 255
-1.86999 -0.092592 5.50823 232 253 254
-1.8906 -0.326704 5.52747 236 254 254
-1.8906 -0.326704 5.52747 236 254 254
-1.85391 0.00223585 5.50152 230 254 255
-1.8686 -0.298014 5.52812 236 254 254
-1.81799 0.38962 5.48279 222 249 255
-1.87445 -0.48588 5.53934 241 255 255
-1.85339 -0.30719 5.52244 236 254 254
-1.77903 0.453557 5.4627 223 248 255
-1.78255 0.521628 5.47269 219 248 254
-1.84806 -0.416567 5.5432 240 255 255
-1.83394 -0.303876 5.53166 236 254 254
-1.80125 -0.246294 5.5481 236 254 254
-1.78173 0.026043 5.56097 230 254 255
-1.79928 -0.328841 5.60259 239 255 255
-1.76446 0.00538107 5.57609 233 254 255
-1.69589 0.545507 5.51833 221 248 255
-1.69589 0.545507 5.51833 221 248 255
-1.74807 0.00152515 5.57092 232 253 254
-1.73536 0.20061 5.55912 227 252 255
-1.65922 0.541515 5.51479 220 247 254
-1.64176 0.40293 5.53107 223 251 255
-1.68504 -0.346269 5.62174 241 255 255
-1.60685 -0.0167392 5.5807 234 255 255
-1.60999 0.0446909 5.58498 232 253 254
-1.58942 0.461027 5.57075 225 250 255
-1.58485 0.240933 5.58091 229 253 255
-1.58706 0.203008 5.58444 229 253 255
-1.54624 0.229731 5.59704 229 253 255
-1.56339 -0.265825 5.64028 241 255 255
-1.51379 0.220089 5.60946 230 254 254
-1.52741 0.0189298 5.62569 236 254 255
-1.45649 0.0162536 5.64242 236 254 254
-1.44053 0.300126 5.62973 229 253 255
-1.43503 0.189329 5.62826 234 254 252
-1.45526 -0.147765 5.66903 239 255 255
-1.37579 0.414394 5.64263 228 252 254
-1.40137 -0.00761159 5.67824 237 255 255
-1.39701 -0.154365 5.68925 241 255 255
-1.4088 0.607111 5.76301 226 251 255
-1.76837 -1.49481 6.12173 255 255 255
-1.40189 0.432084 5.77065 229 253 255
-1.391 -0.115763 5.78002 241 255 255
-1.391 -0.115763 5.78002 241 255 255
-1.3856 -0.236403 5.79794 245 255 255
-1.39391 -0.121144 5.80745 243 255 255
-1.45579 0.582292 5.86779 227 251 255
-1.38427 -0.106668 5.81467 241 255 255
-1.37597 -0.682406 5.83845 253 254 255
-1.52141 0.0952908 5.97138 229 255 255
-1.44371 0.0325406 5.89949 241 255 255
-1.84282 -1.50075 6.29979 255 255 255
-1.42606 -0.888046 5.92501 253 255 254
-1.42606 -0.888046 5.92501 253 255 254
-1.48133 -0.948324 6.05861 253 255 254
-2.09464 -1.64943 6.6632 255 255 255
-2.08767 -1.61948 6.65705 255 255 255
-2.0861 -1.59036 6.66136 255 255 255
-1.48339 -0.200182 6.07375 136 147 169
-1.45307 -0.947856 6.0588 255 255 255
-1.50987 -0.200928 6.12078 133 145 159
-1.50412 -0.346885 6.1176 249 255 255
-1.45195 -0.640752 6.07277 253 254 255
-1.49733 -0.505994 6.13016 251 255 255
-1.52284 -0.269347 6.16263 249 255 255
-2.04046 -1.62808 6.69767 244 255 255
-1.49937 -0.466527 6.16402 251 255 255
-1.50537 -0.583484 6.17599 253 255 254
-1.47794 -1.03478 6.18837 255 255 255
-1.54374 -0.146103 6.25366 97 99 120
-1.56158 -0.137898 6.27123 125 123 137
-1.62763 0.365036 6.34445 234 254 255
-1.95361 -1.36295 6.70071 251 255 255
-1.63546 0.373818 6.37721 233 255 255
-1.49911 -0.991026 6.25537 255 255 255
-1.95313 -1.55638 6.7286 255 254 255
-1.94685 -1.58797 6.73025 143 137 163
-1.60933 -0.250657 6.38158 244 255 255
-1.94067 -1.65456 6.75294 113 111 132
-1.94067 -1.65456 6.75294 113 111 132
-1.56998 -0.592944 6.38969 88 107 124
-1.6292 -0.164703 6.44592 67 75 98
-2.07744 -1.4934 6.91636 255 255 255
-1.61085 0.173703 6.43279 81 98 124
-1.93174 -1.65914 6.79076 107 112 134
-1.60793 -0.189812 6.45412 131 137 153
-1.6008 0.0713202 6.44707 103 118 149
-1.65648 -0.825266 6.51694 83 101 137
-1.54597 -0.69775 6.40523 95 105 140
-1.90592 -1.14867 6.77823 255 255 255
-1.61031 -0.645943 6.47956 104 128 164
-1.60644 -0.585628 6.47575 84 106 147
-1.90264 -1.13406 6.78418 255 255 255
-1.56 -0.69518 6.43917 76 91 132
-1.60703 -0.643482 6.48761 110 127 170
-1.60312 -0.498876 6.48429 81 95 132
-1.59327 -0.391339 6.47656 77 92 131
-1.57855 -0.328862 6.4741 72 89 115
-1.58123 -0.425613 6.48422 25 49 85
-1.57818 -0.533498 6.49439 67 81 120
-1.56545 -0.647201 6.50372 93 117 151
-1.63486 -0.864656 6.57833 77 100 134
-1.53932 -0.607029 6.48771 68 86 126
-1.53541 -0.619681 6.50079 58 78 115
-1.52507 -0.221303 6.48832 135 140 160
-2.19993 -1.60415 7.22592 255 255 255
-1.52369 -0.432977 6.56482 73 96 130
-1.52867 -0.249912 6.57156 53 70 100
-1.50857 -0.814014 6.56715 60 75 114
-1.50857 -0.814014 6.56715 60 75 114
-1.51828 -0.399973 6.57861 57 76 109
-1.23625 0.529662 6.28567 50 61 93
-1.78005 -1.22092 6.89399 109 107 131
-1.21873 0.534266 6.28463 48 61 93
-1.45984 -0.977171 6.56978 61 81 114
-1.45984 -0.977171 6.56978 61 81 114
-1.76842 -1.43225 6.91024 255 255 255
-1.7571 -1.43618 6.91088 255 255 253
-1.44421 -0.999094 6.58801 59 78 111
-1.75323 -1.5519 6.92392 83 88 117
-1.43978 -0.988938 6.58459 53 74 105
-1.43766 -1.0008 6.59898 57 73 107
-1.43766 -1.0008 6.59898 57 73 107
-1.4038 -0.175152 6.55775 197 202 240
-1.43385 -0.96268 6.59826 60 75 106
-1.40567 -0.519875 6.56483 61 77 110
-1.42551 -1.00562 6.5913 65 83 119
-1.18061 0.617155 6.31841 50 61 91
-1.41662 -0.992056 6.60285 56 77 108
-1.38495 -0.148745 6.56321 52 71 104
-1.74848 -1.41668 6.9682 244 245 249
-1.75369 -1.40955 6.98033 251 255 255
-1.35366 -0.449226 6.58532 59 77 113
-1.35766 -0.935374 6.61515 59 74 103
-1.35286 -0.934651 6.61106 59 76 104
-1.33835 -0.434534 6.60141 61 75 110
-1.33053 -0.21651 6.59298 76 90 135
-1.78647 -1.62228 7.13307 83 98 129
-1.31218 -0.299706 6.60601 57 70 104
-1.30687 -0.208992 6.59931 101 128 171
-1.79238 -1.6264 7.151 79 94 125
-1.30939 -0.512219 6.61775 58 77 109
-1.81381 -1.61992 7.20439 78 98 122
-1.23579 0.362874 6.58314 74 92 132
-1.26221 -0.623378 6.62249 41 59 81
-1.27046 -0.618031 6.63745 42 59 79
-1.27046 -0.618031 6.63745 42 59 79
-1.25993 -0.520054 6.63339 57 75 111
-1.23263 -0.0470468 6.60516 117 116 124
-1.22904 0.0588519 6.60824 123 115 113
-1.23133 -0.312587 6.628 81 100 132
-1.2196 -0.444611 6.63675 61 76 107
-1.21829 -0.432112 6.64363 57 74 104
-1.21829 -0.432112 6.64363 57 74 104
-1.19507 -0.024042 6.6175 135 135 137
-1.20718 -0.268294 6.64859 117 142 183
-1.20098 -0.350386 6.64885 92 115 147
-1.19426 -0.505461 6.66289 61 81 118
-1.21185 -0.763245 6.68875 60 76 110
-1.34974 -1.14566 6.89206 48 65 93
-1.31235 -1.14437 6.90144 48 61 93
-1.29022 -1.13801 6.91147 59 64 102
-1.29022 -1.13801 6.91147 59 64 102
-1.0982 -0.690794 6.68473 61 81 106
-1.05886 0.0798865 6.66313 112 112 112
-1.09768 -0.42808 6.74412 69 75 89
-1.0421 0.0671513 6.67538 115 119 130
-1.49537 -1.60794 7.23363 51 64 96
-1.08288 -0.386277 6.75119 55 62 91
-1.45922 -1.57234 7.21816 57 66 97
-1.43428 -1.50974 7.20458 45 60 81
-1.47346 -1.73459 7.26187 80 96 109
-1.47346 -1.73459 7.26187 80 96 109
-1.46976 -1.77806 7.26188 96 97 128
-1.46108 -1.65578 7.26071 64 85 106
-1.0018 0.122737 6.7045 119 118 123
-1.44866 -1.72721 7.26964 73 88 119
-1.00981 -0.488791 6.7364 94 107 142
-1.00064 -0.904339 6.76906 79 106 153
-1.0024 -0.961618 6.77907 133 137 136
-1.38952 -1.55869 7.26424 86 97 127
-0.984914 -0.755308 6.77553 70 82 108
-1.00027 -0.858286 6.79811 77 104 147
-0.947055 0.0646791 6.72696 124 127 136
-0.961485 -0.50525 6.75299 74 102 149
-0.963319 -0.579323 6.76434 70 89 131
-0.950315 -0.0419288 6.77075 71 102 146
-0.941058 -0.367802 6.76922 105 118 150
-0.941754 -0.506904 6.77216 86 105 148
-0.937191 -0.361602 6.76758 133 140 169
-0.927439 -0.173159 6.76192 106 115 144
-1.00118 -0.889081 6.86311 78 107 149
-0.944695 -0.757468 6.81434 56 82 109
-1.00886 -0.929565 6.90448 73 105 152
-0.91227 -0.497634 6.78155 78 105 148
-1.26852 -1.50735 7.26095 63 85 122
-1.29297 -1.54971 7.29391 72 88 113
-0.886238 -0.367302 6.79707 97 92 96
-0.836046 0.517346 6.72779 120 110 101
-0.858243 0.0671013 6.76606 121 113 102
-1.2692 -1.58058 7.3091 116 118 113
-0.828813 0.398639 6.74512 96 87 70
-0.828813 0.398639 6.74512 96 87 70
-0.857386 -0.265046 6.7938 129 116 108
-0.862126 -0.412391 6.80126 109 99 90
-0.860422 -0.44853 6.80296 103 100 95
-0.862836 -0.494855 6.81141 122 118 115
-0.836531 -0.68681 6.7923 131 130 126
-0.819875 -0.733017 6.79545 112 107 104
-0.815223 -0.589035 6.82299 110 103 87
-0.811988 -0.957159 6.86055 130 124 126
-0.799852 -0.912651 6.87437 125 111 111
-0.773942 -0.955961 6.88135 124 114 102
-0.911371 -1.07975 7.08215 123 115 130
-0.911371 -1.07975 7.08215 123 115 130
-0.749382 -0.302723 6.89582 117 115 118
-0.745082 -0.385935 6.89804 148 143 140
-0.709588 -0.177052 6.85698 138 137 135
-0.630046 -0.212337 6.86434 143 145 140
-0.62413 -0.854413 6.94117 93 110 138
-0.598309 -0.61845 6.904 83 98 117
-0.602278 -0.95924 6.92631 100 109 140
-0.612075 -0.886637 6.95079 58 82 116
-0.909081 -1.50651 7.41432 123 112 120
-0.925607 -1.55504 7.44724 163 157 169
-0.242341 0.514324 6.55273 54 75 106
-0.399013 -0.700028 6.79331 81 77 78
-0.515925 -0.783159 6.96561 90 87 94
-0.242382 0.604534 6.573 59 74 105
-0.421933 -0.766769 6.83827 103 102 108
-0.862111 -1.54732 7.46856 85 87 84
-0.380205 -0.00121573 6.78363 58 80 117
-0.386413 -0.706291 6.80315 92 82 93
-0.371392 -0.694299 6.80256 89 78 92
-0.626887 -1.14649 7.19425 85 79 81
-0.819031 -1.54506 7.47666 81 87 85
-0.806919 -1.53667 7.47139 66 66 66
-0.349223 -0.292919 6.82347 99 99 101
-0.34894 -0.414427 6.83087 84 83 81
-0.036205 0.622682 6.39722 114 113 109
-0.036205 0.622682 6.39722 114 113 109
-0.442319 -0.975123 6.99079 87 114 144
-0.320616 -0.706328 6.83331 78 74 75
-0.309082 -0.699437 6.83081 92 82 90
-0.418472 -0.961304 6.99625 103 116 148
-0.175769 0.483253 6.68895 108 104 105
-0.63199 -1.73523 7.39195 58 64 78
-0.288793 -0.765503 6.89277 84 82 87
-0.628846 -1.70578 7.41655 105 103 114
-0.432804 -1.14752 7.12934 94 87 95
-0.607465 -1.62203 7.40633 53 64 84
-0.61052 -1.7368 7.41377 60 70 80
-0.582265 -1.37933 7.3716 57 65 76
-0.606689 -1.36662 7.40642 40 50 62
-0.599934 -1.51279 7.41306 72 70 75
-0.591235 -1.58985 7.40928 47 59 73
-0.586398 -1.4612 7.40114 123 125 124
-0.58084 -1.53057 7.40746 99 84 113
-0.589072 -1.65088 7.42595 99 103 106
-0.577166 -1.44063 7.4249 111 112 114
-0.222437 -0.833741 6.92693 62 75 92
-0.151495 -0.013254 6.81937 56 73 101
-0.592959 -1.51667 7.49051 109 114 110
-0.207828 -0.834525 6.923 66 73 99
-0.418617 -1.27223 7.2416 58 67 82
-0.613751 -1.52116 7.53692 111 113 112
-0.172493 0.464502 6.89169 107 107 107
-0.172675 0.414326 6.89433 89 88 96
-0.176049 0.165871 6.92025 118 115 110
-0.165142 0.473848 6.9023 96 97 101
-0.151553 0.407456 6.88399 74 67 61
-0.62593 -1.69755 7.6236 90 94 97
-0.145225 -0.691103 6.89305 115 118 125
-0.5885 -1.54507 7.5713 85 79 79
-0.68996 -1.68214 7.74228 101 105 114
-0.136839 -0.149505 6.89448 128 115 106
-0.138393 0.403658 6.89694 86 81 78
-0.137553 0.399129 6.90326 72 64 61
-0.132312 0.453727 6.89525 115 105 106
-0.129961 0.0014822 6.90271 114 104 92
-0.154336 -0.95173 6.9554 112 107 104
-0.125791 0.373004 6.90546 84 79 75
-0.121478 0.448897 6.90749 94 86 73
-0.121392 0.16638 6.9113 125 122 113
-0.129416 0.366128 6.92865 89 80 73
-0.129416 0.366128 6.92865 89 80 73
-0.1396 -0.974579 6.96524 101 104 113
-0.40227 -1.42139 7.37179 104 107 114
-0.103932 0.460985 6.90081 103 99 90
-0.108272 0.448635 6.90933 108 99 92
-0.102264 0.425896 6.90064 99 87 75
-0.0840273 0.00366686 6.8778 126 126 116
0.207039 0.634661 6.44014 111 111 103
0.207039 0.634661 6.44014 111 111 103
-0.0920325 0.470156 6.89751 105 101 90
-0.108454 0.166399 6.92698 125 130 123
-0.108454 0.166399 6.92698 125 130 123
-0.11878 -1.0524 6.96015 87 81 85
-0.0945892 0.461409 6.91049 106 99 91
-0.0933294 0.444038 6.90972 112 104 93
-0.109572 0.37555 6.93566 96 87 82
-0.0926419 0.467027 6.91484 107 103 92
-0.142446 0.257909 6.99515 123 120 111
-0.142446 0.257909 6.99515 123 120 111
-0.111202 -1.10826 6.96709 74 75 80
-0.0996533 0.140407 6.93804 118 114 105
-0.0856182 0.433948 6.91916 103 93 91
-0.0935682 -1.0187 6.96508 115 119 122
-0.0904866 -1.00071 6.96801 125 127 126
-0.054375 0.0531678 6.90291 117 113 114
-0.0685381 0.111252 6.92549 119 114 118
-0.0685381 0.111252 6.92549 119 114 118
-0.0878163 -0.984197 6.97251 107 100 94
-0.0654714 0.448524 6.9258 91 90 88
-0.0597379 0.463149 6.9253 81 82 84
-0.0714968 0.162982 6.94712 120 126 126
-0.0615298 0.444451 6.93032 93 94 96
-0.0922298 -1.14764 6.99752 118 118 118
-0.0738256 -1.05998 6.98389 114 113 111
-0.0754206 -1.14014 6.98971 105 103 104
-0.0620908 0.140812 6.95486 121 126 132
-0.0596884 0.163896 6.9529 123 126 133
-0.0789794 -1.14866 6.99955 113 109 110
-0.0654334 -1.15813 6.98905 109 104 100
-0.0619724 -1.17131 6.98534 110 100 98
-0.0437832 0.398791 6.94789 102 97 94
-0.0663778 -1.1183 7.00093 98 89 90
-0.0414454 0.150289 6.95105 106 107 111
-0.0405488 0.390309 6.9514 94 89 86
-0.0725595 -0.910858 7.02199 101 105 108
-0.0820389 -0.919684 7.04203 100 103 110
0.107314 0.555146 6.73326 100 102 99
-0.0275238 0.407696 6.94709 123 113 114
-0.0275238 0.407696 6.94709 123 113 114
-0.0437488 -0.992279 6.98898 109 106 99
-0.367389 -1.56624 7.50217 89 98 95
-0.0769796 -0.965753 7.0442 108 104 103
-0.379444 -1.69811 7.54489 67 65 78
-0.379444 -1.69811 7.54489 67 65 78
-0.00526035 0.445439 6.93481 99 90 81
-0.00526035 0.445439 6.93481 99 90 81
-0.0139703 0.414642 6.94991 90 83 75
-0.0294509 -0.991947 6.99319 108 108 106
-0.0271978 -0.998911 6.9899 107 107 105
-0.024683 -1.03484 6.99656 80 68 78
0.016044 -0.709551 6.94231 76 75 80
-0.0917099 -1.06005 7.11799 73 68 75
-0.0180782 -1.04055 7.00237 73 68 75
0.00182536 0.400027 6.95764 76 67 72
-0.387528 -1.66908 7.62421 73 73 85
-0.000367609 -1.04704 7.00767 100 93 101
0.00938969 -0.887007 7.01449 125 125 125
-0.301909 -1.55798 7.52564 88 95 101
0.0171342 -0.96681 7.01725 106 106 106
0.0533662 -0.708378 6.95655 63 58 65
0.0247531 -0.962185 7.02368 87 90 97
0.0945064 -0.00404288 6.94495 107 111 136
0.0526408 -0.825238 7.03553 117 116 122
0.107947 0.00464579 6.93828 60 68 87
-0.288391 -1.72807 7.61902 98 104 100
0.0693825 -0.849817 7.04639 41 44 49
-0.236686 -1.60483 7.55725 77 79 78
0.0769116 -0.84361 7.04863 42 42 52
0.0769116 -0.84361 7.04863 42 42 52
0.0906308 -1.05404 7.03045 74 67 75
-0.322924 -2.09696 7.73177 108 103 99
-0.240718 -1.66652 7.59349 96 100 103
0.0912083 -0.824144 7.04184 105 106 108
-0.319085 -2.11343 7.72911 112 104 101
-0.320025 -2.12657 7.73198 112 107 103
-0.312697 -2.10808 7.73147 119 114 108
-0.312697 -2.10808 7.73147 119 114 108
-0.305901 -1.93779 7.72134 114 123 122
-0.305901 -1.93779 7.72134 114 123 122
0.165469 0.436428 6.92542 104 103 98
0.165469 0.436428 6.92542 104 103 98
0.128785 -0.737432 7.00161 76 75 81
-0.300164 -2.18958 7.72948 144 139 133
0.104926 -0.760862 7.05003 78 76 81
0.00780502 -1.02041 7.21285 106 112 110
-0.300858 -2.06283 7.73577 100 91 86
0.10587 -0.790365 7.0572 104 102 107
-0.193573 -1.55453 7.55946 72 75 82
0.110599 -0.821659 7.05438 113 111 112
0.117735 -0.814674 7.0531 116 118 117
-0.183842 -1.54605 7.55952 54 58 70
0.120623 -0.827235 7.05114 112 110 115
-0.256693 -1.89783 7.6896 112 123 127
0.283955 0.518815 6.7706 57 69 91
0.283955 0.518815 6.7706 57 69 91
0.289357 0.526238 6.76981 58 68 93
-0.173908 -1.55111 7.56913 54 62 64
0.142656 -0.572562 7.04059 72 89 117
-0.155485 -1.50452 7.54712 52 53 57
0.138177 -0.803508 7.05531 107 105 119
0.131098 -0.831138 7.07629 100 107 113
0.198919 0.466542 6.95093 106 106 108
0.130157 -0.82482 7.0846 106 108 107
0.195497 -0.00463394 6.96858 83 103 138
-0.154398 -1.5382 7.57294 80 77 94
0.186789 -0.0217214 6.9906 82 104 143
0.199683 0.506246 6.96401 68 84 109
-0.134671 -1.51045 7.55123 75 63 77
0.137967 -0.449943 7.13613 103 104 106
-0.0957964 -1.49195 7.54675 74 63 79
-0.115968 -1.55112 7.59378 43 59 59
-0.109222 -1.56734 7.59773 95 99 108
0.229714 -0.744962 7.0252 72 66 70
0.224257 -0.273766 7.04338 103 107 116
0.224921 -0.273267 7.05483 100 106 118
0.224738 -0.452494 7.06747 90 91 95
0.27337 0.495189 6.99044 66 82 108
0.114802 -1.11696 7.33849 52 50 61
-0.0694016 -1.63009 7.72854 69 79 81
0.0195408 -1.24322 7.5818 94 101 107
0.277638 -0.79598 7.14219 97 101 104
0.556209 0.622332 6.64835 102 101 107
0.559011 0.627318 6.64479 101 101 103
0.566326 0.615395 6.64194 105 102 111
0.288889 -0.795034 7.14847 100 100 102
-0.0418613 -1.49186 7.74454 92 95 104
0.340691 0.0184067 7.06286 62 50 54
0.340691 0.0184067 7.06286 62 50 54
0.351918 -0.703068 7.09287 87 83 100
0.0512454 -1.66379 7.66547 87 90 95
0.0582839 -1.61107 7.66559 65 72 78
0.0619772 -1.60906 7.6611 65 72 78
0.0502205 -1.72942 7.68646 95 97 109
0.065949 -1.54582 7.66236 38 44 58
0.29144 -0.637886 7.24904 64 79 112
0.0685702 -1.41529 7.66009 69 82 114
0.0744187 -1.6214 7.66588 68 72 101
0.074539 -1.42689 7.66432 61 74 90
0.292776 -0.149421 7.26321 57 73 106
0.0196564 -1.37098 7.783 9 26 52
0.0855679 -1.34705 7.6653 9 26 52
0.0843943 -1.54666 7.67313 35 35 59
0.087647 -1.49789 7.66783 56 55 63
0.173805 -1.10306 7.50863 60 64 75
0.186852 -1.0551 7.49681 89 94 97
0.0917154 -1.34521 7.6723 53 62 93
0.0968755 -1.68832 7.66918 63 67 79
0.317386 -0.341132 7.27016 104 106 118
0.101812 -1.62253 7.6761 55 69 96
0.335451 -0.0955168 7.23565 102 121 136
0.321561 -0.534926 7.27562 53 71 91
0.319949 -0.58947 7.27999 56 70 96
0.319949 -0.58947 7.27999 56 70 96
0.34214 -0.686689 7.25819 88 101 109
0.21487 -1.05838 7.49356 90 95 101
0.0960812 -1.69411 7.77577 90 95 101
0.236277 -1.10752 7.5227 90 86 100
0.243875 -1.04541 7.50919 78 84 98
0.0626825 -1.68355 7.85609 54 66 66
0.393536 -0.93529 7.31438 74 73 78
0.420965 -0.933417 7.32008 71 78 88
0.149622 -1.53005 7.84585 81 83 104
0.174482 -1.52575 7.84427 63 71 74
0.174482 -1.52575 7.84427 63 71 74
0.194218 -1.52615 7.85694 74 88 99
0.48949 -0.666701 7.31016 74 83 92
0.46414 -0.197288 7.35364 72 80 103
0.49894 -0.659662 7.3172 77 90 106
0.246847 -1.50596 7.84498 67 78 96
0.497389 -0.952951 7.37921 21 32 52
0.505555 -0.876532 7.37512 59 70 90
0.514587 -0.439 7.3665 89 99 124
0.263736 -1.52324 7.88265 68 80 96
0.546648 -0.666201 7.33164 67 84 104
0.50263 -1.00721 7.43756 46 62 77
0.563367 -0.665241 7.33084 66 82 105
0.593754 -0.714563 7.35163 61 72 94
0.320838 -1.53816 7.90578 65 79 106
0.593369 -0.411424 7.36632 45 63 77
0.564267 -0.789546 7.42926 40 45 65
0.617557 -0.665127 7.35644 64 72 95
0.626393 0.0148327 7.33092 51 67 80
0.626393 0.0148327 7.33092 51 67 80
0.616766 -0.558223 7.36348 27 40 57
0.62247 -0.00149571 7.34793 43 56 72
0.548623 -0.908409 7.51125 34 40 56
0.623495 -0.187319 7.36701 51 66 87
0.510834 -1.05262 7.62024 27 40 56
0.618689 -0.601296 7.40302 44 49 71
0.632086 -0.376081 7.38831 49 67 89
0.632086 -0.376081 7.38831 49 67 89
0.387068 -1.51692 7.91692 68 84 99
0.387068 -1.51692 7.91692 68 84 99
0.645322 -0.634555 7.40331 51 65 78
0.671668 -0.0906294 7.34919 70 82 98
0.663757 -0.373898 7.38301 60 68 87
0.663757 -0.373898 7.38301 60 68 87
0.663757 -0.373898 7.38301 60 68 87
0.586457 -1.02991 7.62293 90 104 130
0.690462 -0.558045 7.41573 84 102 124
0.698636 -0.144636 7.39637 95 106 128
0.708634 -0.00420565 7.38664 87 101 127
0.718462 0.0613831 7.37261 88 99 119
0.718462 0.0613831 7.37261 88 99 119
0.697109 -0.577367 7.42675 86 103 133
0.697109 -0.577367 7.42675 86 103 133
0.717519 -0.716326 7.38814 89 105 130
0.708726 -0.492344 7.41147 87 102 133
0.708726 -0.492344 7.41147 87 102 133
0.468581 -1.50672 7.93356 231 221 211
0.713244 -0.404149 7.41107 88 103 134
0.743871 0.0498897 7.3687 86 102 127
0.730851 -0.443879 7.41343 92 108 131
0.478699 -1.51675 7.95727 236 226 217
0.72338 -0.753637 7.43991 221 225 210
0.756284 0.245976 7.36461 83 103 127
0.624817 -0.806215 7.68116 229 219 209
0.738261 -0.776826 7.44244 229 219 209
0.50225 -1.51938 7.95211 225 212 206
0.507468 -1.51329 7.95058 231 221 212
0.769145 -0.654548 7.39488 237 227 218
0.769328 -0.6616 7.41027 234 224 215
0.746201 -0.888045 7.46428 233 220 212
0.763921 -0.919265 7.43712 22 44 67
0.766654 -0.939201 7.43935 43 55 77
0.781902 -0.715173 7.4168 230 217 211
0.764406 -0.831254 7.456 235 222 214
0.766471 -0.868112 7.46221 236 226 217
0.53542 -1.51953 7.96883 238 227 223
0.78479 -0.460909 7.44358 235 220 217
0.788058 -0.970217 7.45485 12 23 27
0.561756 -1.49985 7.94923 235 224 220
0.820711 -0.700843 7.40453 234 224 215
0.801559 -0.925007 7.45957 13 34 53
0.820951 -0.943625 7.46819 57 63 87
0.855186 -0.67101 7.42324 238 229 222
0.738832 -0.687533 7.70957 242 231 227
0.861899 -0.659798 7.44014 242 231 227
0.858151 -0.521451 7.45392 239 229 227
0.627663 -1.49961 7.97412 234 223 219
0.858798 -0.970721 7.46611 231 217 216
0.676107 -1.49634 7.99045 242 235 229
0.676107 -1.49634 7.99045 242 235 229
0.897957 -0.928438 7.48898 229 196 225
0.688238 -1.46382 7.96902 237 228 223
0.684815 -1.5427 7.99804 241 232 227
0.683135 -1.52739 8.00686 239 227 227
0.711067 -1.47675 7.98635 237 226 224
0.948744 -0.120182 7.45599 243 230 224
0.956001 -0.566872 7.46183 244 230 227
0.728868 -1.50239 8.01886 238 227 225
0.951373 -0.723183 7.50141 242 228 225
0.951881 -0.731769 7.51281 233 222 216
0.962694 -0.729823 7.50689 234 224 215
0.97083 -0.729959 7.50651 231 221 209
0.973268 -0.928148 7.5043 199 224 123
0.997727 0.0210383 7.4468 234 221 213
0.980203 -0.593092 7.49887 228 216 202
0.987894 -0.139737 7.47527 242 225 217
1.0223 -0.0866571 7.45947 230 213 206
1.02274 0.174037 7.45891 223 204 197
1.01014 -0.424908 7.50429 176 187 119
1.01169 -0.496748 7.512 174 194 95
1.01998 -0.190618 7.49185 221 205 190
1.02823 -0.182326 7.47778 224 208 193
1.01755 -0.496535 7.51498 189 206 104
1.05179 0.195658 7.46575 218 206 184
1.0446 -0.175474 7.48922 180 191 112
1.04269 -0.257091 7.49794 163 174 80
0.842215 -1.46786 8.00916 171 195 101
0.964103 -1.02334 7.71794 169 188 81
0.85054 -1.45925 8.00137 130 152 67
0.962111 -1.03864 7.7319 216 232 134
0.832218 -1.5054 8.04805 164 186 101
1.05674 -0.426828 7.50855 186 205 80
1.05674 -0.426828 7.50855 186 205 80
0.84321 -1.50338 8.03573 159 183 85
1.06684 -0.0564613 7.48693 184 201 97
0.863499 -1.41966 7.99295 140 162 77
1.07568 -0.564955 7.52371 162 179 67
1.00322 -1.08844 7.73109 166 188 79
0.867906 -1.59039 8.06593 119 139 50
0.884623 -1.47628 8.02552 155 174 82
0.874003 -1.54261 8.05964 178 192 104
0.868928 -1.5999 8.07561 154 177 89
0.868928 -1.5999 8.07561 154 177 89
0.874646 -1.70813 8.06923 183 196 117
1.09321 -0.381126 7.52467 172 196 76
0.876955 -1.53583 8.06518 150 165 82
1.09277 -0.520708 7.53152 155 184 68
0.873836 -1.63823 8.07686 172 192 93
1.10291 -0.45067 7.50748 178 202 80
1.10379 -0.20799 7.50571 184 203 78
1.10281 -0.21115 7.51255 183 201 83
0.881998 -1.70396 8.07414 175 189 101
0.884886 -1.66911 8.06908 188 205 101
1.10612 -0.47534 7.52555 197 218 115
0.907058 -1.49061 8.02998 153 167 92
1.0975 -0.760607 7.57286 163 179 70
1.0975 -0.760607 7.57286 163 179 70
0.899127 -1.61998 8.07214 196 212 113
0.907305 -1.52824 8.05221 179 192 100
0.901141 -1.6073 8.07865 193 209 110
0.925993 -1.46911 8.02124 152 165 86
1.1308 -0.465001 7.53688 182 202 107
1.14307 -0.742585 7.55951 182 205 101
1.18088 -0.914778 7.52558 183 197 100
1.1723 -0.726079 7.56335 153 172 82
0.98761 -1.3691 8.03253 172 191 102
1.18592 -0.917062 7.56055 182 192 103
1.18105 -0.718255 7.57837 183 191 106
1.19672 -0.92766 7.58089 176 188 102
1.21224 -0.93134 7.60981 173 188 103
1.24723 -0.964905 7.56416 163 180 84
1.24723 -0.964905 7.56416 163 180 84
1.24308 -0.949621 7.5764 156 171 78
1.26718 -0.508562 7.5452 185 209 89
1.2746 -0.924397 7.59632 192 211 96
1.3321 -0.71857 7.59032 170 178 66
1.36209 -0.643514 7.56475 196 205 100
1.36616 -0.0974491 7.54621 186 203 99
1.28836 -1.57423 7.98628 186 207 66
1.31829 -1.41449 7.98429 193 211 89
1.31829 -1.41449 7.98429 193 211 89
1.31613 -1.57163 7.99507 175 194 66
1.31707 -1.20364 8.00006 184 205 86
1.32374 -1.22541 7.98619 200 217 87
1.74015 -0.718974 6.90143 0 0 0
1.76475 -0.785472 6.94582 0 0 0
1.80678 -0.507045 6.95058 0 0 0
1.81817 -0.518312 6.94788 0 0 0
1.7897 -0.934632 7.04177 0 0 0
1.7897 -0.934632 7.04177 0 0 0
1.82977 -0.344418 6.94091 0 0 0
1.83842 0.168008 6.91091 0 0 0
1.8375 -0.0779915 6.93128 0 0 0
1.83923 -0.320741 6.94042 0 0 0
1.83724 -0.635089 6.95227 0 0 0
1.8412 -0.263788 6.93751 0 0 0
1.84268 -0.443914 6.94727 0 0 0
1.85281 0.34009 6.90585 0 0 0
1.84406 -0.468924 6.94907 0 0 0
1.84628 -0.517011 6.9446 0 0 0
1.85201 -0.165913 6.92209 0 0 0
1.85201 -0.165913 6.92209 0 0 0
1.84638 -0.428967 6.95254 0 0 0
1.84896 -0.36048 6.95715 0 0 0
1.85522 -0.463025 6.95626 0 0 0
1.85608 -0.530903 6.95846 0 0 0
1.85665 -0.325178 6.95738 0 0 0
1.8613 -0.318048 6.95669 0 0 0
1.87416 -0.247077 6.95214 0 0 0
1.87139 -0.633627 6.96848 0 0 0
1.87493 -0.497158 6.96976 0 0 0
1.89206 -0.025886 6.94371 0 0 0
1.88669 -0.629771 6.97266 0 0 0
1.88555 -0.642384 6.9797 0 0 0
1.89727 -0.39731 6.94474 0 0 0
1.90687 0.170397 6.90946 0 0 0
1.89203 -0.10569 6.96243 0 0 0
1.87125 -0.54834 7.04531 0 0 0
1.89846 -0.641888 6.98049 0 0 0
1.89966 -0.635796 6.9787 0 0 0
1.90203 0.0231076 6.96034 0 0 0
1.90893 -0.109102 6.95779 0 0 0
1.90893 -0.109102 6.95779 0 0 0
1.91234 -0.58875 6.97207 0 0 0
1.92214 -0.4788 6.98498 0 0 0
1.93068 0.0702242 6.9504 0 0 0
1.92388 -0.65463 6.99274 0 0 0
1.92766 -0.475539 6.98547 0 0 0
1.93082 -0.436899 6.98213 0 0 0
1.93082 -0.436899 6.98213 0 0 0
1.94513 0.00749136 6.96566 0 0 0
1.94773 0.119054 6.95797 0 0 0
1.94072 -0.661191 7.00335 0 0 0
1.95172 -0.426616 6.97461 0 0 0
1.95172 -0.426616 6.97461 0 0 0
1.95755 0.451349 6.94114 0 0 0
1.94845 -0.495842 6.99174 0 0 0
1.95205 -0.249394 6.98673 0 0 0
1.95427 -0.349926 6.98351 0 0 0
1.95375 -0.456538 6.98937 0 0 0
1.95661 -0.302689 6.97953 0 0 0
1.95766 -0.30867 6.97977 0 0 0
1.95994 -0.322018 6.97348 0 0 0
1.96453 -0.11606 6.95867 0 0 0
1.9573 -0.34745 6.98807 0 0 0
1.9573 -0.34745 6.98807 0 0 0
1.96199 -0.227215 6.97314 0 0 0
1.95701 -0.542539 6.99545 0 0 0
1.9568 -0.638056 6.99917 0 0 0
1.96342 -0.213787 6.96972 0 0 0
1.9632 -0.255211 6.97148 0 0 0
1.96517 -0.0679169 6.96608 0 0 0
1.97134 0.166859 6.96058 0 0 0
1.97134 0.166859 6.96058 0 0 0
1.96469 -0.51541 7.00072 0 0 0
1.97485 -0.755973 6.97845 0 0 0
1.96971 -0.488444 6.99266 0 0 0
1.97432 -0.275867 6.99136 0 0 0
1.9815 -0.303375 6.98531 0 0 0
1.98854 0.211222 6.96963 0 0 0
1.99523 0.103695 6.95777 0 0 0
1.98852 -0.50192 6.99309 0 0 0
1.99727 0.310241 6.95929 0 0 0
1.99612 -0.603742 6.99186 0 0 0
2.00823 -0.0432542 6.96136 0 0 0
1.9142 -1.39754 7.33018 0 0 0
2.00568 -0.312869 7.00898 0 0 0
1.90401 -1.49865 7.36873 0 0 0
1.90442 -1.48831 7.37513 0 0 0
2.01691 0.468034 6.96537 0 0 0
2.02123 0.472772 6.95626 0 0 0
1.91479 -1.43164 7.34933 0 0 0
1.90338 -1.56008 7.39836 0 0 0
1.90392 -1.55613 7.40244 0 0 0
1.90469 -1.64706 7.40409 0 0 0
2.03002 -0.0562462 6.96184 0 0 0
1.91111 -1.66096 7.40085 0 0 0
1.91828 -1.57368 7.39358 0 0 0
1.91652 -1.64569 7.40302 0 0 0
1.92802 -1.43942 7.36335 0 0 0
1.94202 -1.35123 7.31671 0 0 0
1.91871 -1.65377 7.39959 0 0 0
1.91981 -1.55962 7.39655 0 0 0
1.92652 -1.58547 7.41199 0 0 0
1.93227 -1.54353 7.39777 0 0 0
1.93227 -1.54353 7.39777 0 0 0
1.93412 -1.55548 7.40267 0 0 0
1.96108 -1.3771 7.33361 0 0 0
2.05667 -0.183136 6.98827 0 0 0
2.05667 -0.183136 6.98827 0 0 0
2.08879 -1.01386 7.0266 0 0 0
2.08497 -0.888039 7.07227 0 0 0
2.10901 -0.254411 7.05141 0 0 0
2.12348 0.141115 7.04384 0 0 0
2.12348 0.141115 7.04384 0 0 0
2.13712 -0.967625 7.05126 0 0 0
2.15609 -0.97179 7.05203 0 0 0
2.08423 -1.27152 7.32483 0 0 0
2.16009 -0.541183 7.03896 0 0 0
2.17291 0.0306005 7.05096 0 0 0
2.13709 -1.14917 7.25781 0 0 0
2.1938 -0.978404 7.0568 0 0 0
2.14291 -1.12763 7.25272 0 0 0
2.15204 -1.09789 7.23374 0 0 0
2.15204 -1.09789 7.23374 0 0 0
2.20623 -0.616965 7.04633 0 0 0
2.20612 -0.918744 7.08024 0 0 0
2.20551 -0.849346 7.08555 0 0 0
2.22621 -0.776875 7.08021 0 0 0
2.23431 -0.161228 7.04857 0 0 0
2.23637 -0.0964666 7.05117 0 0 0
2.24534 -0.415191 7.06441 0 0 0
2.2423 -0.664346 7.093 0 0 0
2.25216 -0.150773 7.05798 0 0 0
2.25853 -0.402107 7.08158 0 0 0
2.26055 -0.427984 7.07542 0 0 0
2.26425 0.456724 7.04911 0 0 0
2.26585 0.471752 7.05614 0 0 0
2.27613 -0.0816142 7.07418 0 0 0
2.27679 0.192279 7.07146 0 0 0
2.27729 -0.403293 7.08486 0 0 0
2.27729 -0.403293 7.08486 0 0 0
2.27834 0.270604 7.06641 0 0 0
2.27604 0.146247 7.08091 0 0 0
2.28348 -0.396617 7.08955 0 0 0
2.29564 -0.121614 7.07528 0 0 0
2.29495 0.0559111 7.08373 0 0 0
2.29465 -0.410071 7.09849 0 0 0
2.29465 -0.410071 7.09849 0 0 0
2.29842 -0.479682 7.08543 0 0 0
2.29669 0.146948 7.08629 0 0 0
2.29465 0.14021 7.09535 0 0 0
2.30134 -0.414924 7.08131 0 0 0
2.30158 -0.396054 7.08025 0 0 0
2.29869 -0.429425 7.09422 0 0 0
2.30084 -0.376773 7.09157 0 0 0
2.30366 -0.283284 7.08721 0 0 0
2.30893 -0.394226 7.08492 0 0 0
2.3067 -0.582676 7.10347 0 0 0
2.30892 -0.620459 7.0987 0 0 0
2.31003 -0.129064 7.09616 0 0 0
2.31032 -0.0262236 7.09415 0 0 0
2.30954 0.0500475 7.1062 0 0 0
2.31646 -0.341422 7.08881 0 0 0
2.31601 0.133558 7.08956 0 0 0
2.32136 0.242156 7.08416 0 0 0
2.32305 0.228146 7.08142 0 0 0
2.32116 0.282953 7.0922 0 0 0
2.18843 0.178482 7.65452 0 0 0
2.3241 0.164581 7.096 0 0 0
2.33786 0.170357 7.07169 0 0 0
2.3469 -0.160684 7.04619 0 0 0
2.35639 -0.753112 7.03656 0 0 0
2.32272 -0.914674 7.19017 0 0 0
2.34181 -0.620277 7.11237 0 0 0
2.3462 0.0819352 7.10267 0 0 0
2.3462 0.0819352 7.10267 0 0 0
2.3378 -0.898343 7.17874 0 0 0
2.35363 0.00900834 7.09222 0 0 0
2.3556 -0.264215 7.11323 0 0 0
2.37056 -0.376538 7.12143 0 0 0
2.37238 -0.283691 7.12336 0 0 0
2.3761 -0.216225 7.11556 0 0 0
2.38341 -0.625962 7.11795 0 0 0
2.38341 -0.625962 7.11795 0 0 0
2.38217 -0.525266 7.12132 0 0 0
2.39334 -0.148671 7.0676 0 0 0
2.39028 -0.36806 7.11577 0 0 0
2.39051 -0.27673 7.12481 0 0 0
2.39069 0.33783 7.1277 0 0 0
2.39771 -0.558821 7.12632 0 0 0
2.40097 -0.529521 7.12081 0 0 0
2.40714 -0.376041 7.11882 0 0 0
2.41286 -0.473811 7.13536 0 0 0
2.41286 -0.473811 7.13536 0 0 0
2.41708 -0.00154056 7.13221 0 0 0
2.41708 -0.00154056 7.13221 0 0 0
2.42104 0.429497 7.14725 0 0 0
2.47567 -0.703588 7.12144 0 0 0
-2.70563 0.461919 6.55112 185 224 255
-2.15543 0.493458 5.54869 185 226 255
-2.15308 0.355845 5.5981 187 229 254
-2.15913 0.0893602 5.62085 194 230 254
-2.15219 0.165354 5.61553 193 230 255
-2.14349 0.302712 5.60283 192 229 255
-2.12288 0.575566 5.55862 186 225 254
-2.12288 0.575566 5.55862 186 225 254
-2.11945 0.520335 5.56037 186 225 254
-2.14171 0.104326 5.62441 193 234 255
-2.14245 0.0742284 5.63002 199 231 255
-2.14375 0.0455186 5.63869 199 231 255
-2.13369 0.146762 5.62408 195 233 255
-2.12353 0.368941 5.59872 191 228 254
-2.13262 0.11648 5.62676 194 232 255
-2.13818 -0.136756 5.65384 194 235 253
-2.13836 -0.147292 5.65582 198 235 254
-2.12341 0.210656 5.61862 195 231 255
-2.11537 0.397649 5.59953 193 228 255
-2.12459 -0.0810914 5.64206 199 234 254
-2.10708 0.406189 5.60171 184 230 253
-2.12192 -0.150129 5.64802 199 234 254
-2.12197 -0.138785 5.65923 197 235 254
-2.11233 0.094031 5.63571 196 234 255
-2.11045 0.00757964 5.64009 197 233 255
-2.10571 0.0512845 5.6414 198 232 255
-2.11411 -0.287133 5.6716 202 237 255
-2.08683 0.235202 5.62027 193 230 255
-2.0994 -0.264553 5.65804 204 237 255
-2.08642 0.240195 5.62519 194 231 255
-2.09432 0.0402245 5.64663 200 232 255
-2.07954 0.242967 5.6288 194 231 255
-2.07912 -0.098444 5.66279 199 234 254
-2.06514 0.261201 5.62955 195 229 254
-2.08012 -0.360642 5.68977 207 240 255
-2.06363 0.00502774 5.66061 200 235 255
-2.04798 0.178797 5.62342 197 233 255
-2.05426 0.145271 5.64447 197 233 255
-2.05426 0.145271 5.64447 197 233 255
-2.02784 0.480835 5.58142 185 229 254
-2.03996 0.194001 5.64148 196 234 255
-2.05515 -0.310842 5.68649 209 238 254
-2.02955 0.234361 5.64358 197 233 255
-2.04674 -0.349677 5.69551 207 239 254
-2.04076 -0.18822 5.68041 205 236 255
-2.02785 0.218296 5.64745 195 233 255
-2.03368 0.0298657 5.66436 198 234 255
-2.04116 -0.39832 5.68427 209 241 255
-2.04116 -0.39832 5.68427 209 241 255
-2.00141 0.404606 5.62729 193 229 255
-2.00607 0.258484 5.64421 198 232 255
-2.02092 -0.187519 5.68979 205 238 255
-2.02092 -0.187519 5.68979 205 238 255
-2.00384 0.0926135 5.6646 199 234 255
-1.98145 0.279877 5.64766 196 232 255
-1.99423 -0.196814 5.68958 207 238 255
-1.99423 -0.196814 5.68958 207 238 255
-1.98217 0.194195 5.65677 197 233 255
-1.98217 0.194195 5.65677 197 233 255
-1.97859 0.156466 5.6563 198 234 255
-1.99469 -0.284165 5.70137 209 238 254
-1.98011 0.108415 5.66595 198 233 255
-1.99589 -0.306339 5.70987 207 239 254
-1.98972 -0.279769 5.69742 209 238 254
-1.99151 -0.275206 5.70314 206 239 254
-1.97985 -0.0161568 5.67563 201 236 255
-1.96041 0.406145 5.62465 194 231 255
-1.98109 -0.196514 5.69342 203 239 255
-1.97814 -0.139594 5.68917 201 236 255
-1.97417 -0.0365401 5.67829 198 235 254
-1.97775 -0.160814 5.69518 207 238 255
-1.95259 0.423164 5.62505 195 231 255
-1.95042 0.445282 5.63032 191 231 255
-1.9714 -0.183806 5.69352 207 238 255
-1.9714 -0.183806 5.69352 207 238 255
-1.94861 0.407177 5.63478 195 231 255
-1.96191 -0.0800424 5.6871 202 237 255
-1.95004 0.157223 5.66371 197 235 255
-1.93462 0.481148 5.62554 195 231 255
-1.94426 0.31891 5.65979 199 231 255
-1.93909 0.563729 5.64551 193 229 255
-1.95659 -0.339104 5.71307 208 240 255
-1.94545 0.139459 5.68855 197 235 254
-1.9358 -0.0201894 5.68867 201 236 255
-1.91035 0.623927 5.61759 192 229 255
-1.93575 -0.121557 5.69365 207 238 255
-1.90941 0.468079 5.63788 194 230 255
-1.90959 0.443711 5.6423 194 232 255
-1.90959 0.443711 5.6423 194 232 255
-1.92476 -0.234866 5.69222 205 241 255
-1.91828 -0.24688 5.70516 207 240 255
-1.91828 -0.24688 5.70516 207 240 255
-1.91054 -0.239434 5.69918 210 239 255
-1.87357 0.482965 5.62833 195 233 255
-1.87082 0.539695 5.63971 193 230 255
-1.87648 0.374924 5.67579 196 232 255
-1.85825 -0.216638 5.69799 209 241 255
-1.82028 0.491995 5.6356 196 232 255
-1.82082 0.620821 5.65114 194 230 254
-1.83688 -0.0668566 5.70201 207 239 254
-1.81763 0.540319 5.64616 194 232 255
-1.87087 0.538959 5.82604 195 231 255
-1.813 0.525857 5.64705 195 231 255
-1.82912 0.356748 5.69883 197 233 255
-1.80097 0.482812 5.6432 195 233 255
-1.81939 -0.0273129 5.70631 207 239 254
-1.8162 -0.0676563 5.70497 206 239 254
-1.8162 -0.0676563 5.70497 206 239 254
-1.81856 0.00496128 5.74722 207 238 255
-1.78211 0.483379 5.64892 197 233 255
-1.77458 0.583768 5.66745 196 232 255
-1.78739 0.0899836 5.74208 204 237 254
-1.77846 0.28909 5.71724 200 235 255
-1.77966 0.214086 5.72855 201 236 255
-1.78094 0.135903 5.73848 204 237 255
-1.78085 -0.0254499 5.74078 209 238 254
-1.75886 0.181036 5.73761 204 237 255
-1.75205 -0.10502 5.72943 51 76 117
-1.72389 0.620561 5.65942 197 231 255
-1.7288 0.440863 5.68957 198 234 255
-1.74414 0.080484 5.74513 207 238 255
-1.74388 -0.00488981 5.75706 207 240 255
-1.717 0.427899 5.67328 199 236 255
-1.75977 -0.50964 5.81302 217 247 255
-1.70065 0.576762 5.66513 196 234 255
-1.74215 -0.519798 5.80243 219 248 255
-1.70091 0.315423 5.71598 202 237 255
-1.70266 0.135566 5.73598 206 239 255
-1.70018 0.0559643 5.74394 207 239 254
-1.70018 0.0559643 5.74394 207 239 254
-1.69379 -0.119386 5.72862 54 61 79
-1.68546 -0.228401 5.74825 215 243 255
-1.69536 -0.367936 5.78243 216 246 255
-1.68974 -0.293098 5.76403 215 245 255
-1.69679 -0.608349 5.79413 222 249 255
-1.68191 0.0121167 5.74599 208 240 255
-1.68229 0.0343354 5.74807 204 242 255
-1.67986 -0.069408 5.75089 101 77 163
-1.66451 0.394747 5.71304 200 235 255
-1.66757 0.226966 5.73241 204 237 254
-1.66757 0.226966 5.73241 204 237 254
-1.66475 0.286836 5.72468 204 237 255
-1.66822 0.164453 5.73847 207 238 255
-1.6694 0.14047 5.74346 206 239 255
-1.66811 0.0558058 5.74916 208 240 255
-1.66556 0.101732 5.74571 204 240 254
-1.66281 -0.0856396 5.75982 112 116 143
-1.66153 -0.00338813 5.75776 209 241 255
-1.67138 -0.410327 5.79137 220 247 255
-1.65336 -0.0701117 5.75757 231 254 255
-1.64161 0.412221 5.71767 203 236 255
-1.65587 -0.186418 5.76899 215 241 255
-1.65206 -0.136325 5.77275 130 126 141
-1.66175 -0.621445 5.81269 222 249 255
-1.65821 -0.564688 5.80482 221 248 255
-1.65391 -0.388055 5.79131 217 247 255
-1.62265 0.485054 5.68828 202 234 255
-1.65111 -0.271442 5.78767 216 244 255
-1.65974 -0.739621 5.82523 225 250 255
-1.65327 -0.551984 5.80392 221 248 255
-1.64913 -0.370987 5.79104 217 247 255
-1.63747 0.0943537 5.75176 204 240 254
-1.63694 0.0187321 5.74985 208 240 255
-1.65333 -0.633817 5.81545 222 249 255
-1.6531 -0.676999 5.81658 225 250 255
-1.63954 -0.391665 5.78992 217 247 255
-1.62659 -0.198507 5.78304 211 243 254
-1.6216 -0.0843167 5.77112 114 111 158
-1.62221 -0.161652 5.77744 167 165 186
-1.61876 -0.0762507 5.76757 47 47 117
-1.63316 -0.672626 5.82138 223 251 255
-1.62442 -0.381473 5.7968 218 248 255
-1.62885 -0.736289 5.81903 224 252 255
-1.60842 -0.157404 5.74987 29 27 92
-1.61704 -0.495004 5.8094 220 249 255
-1.61584 -0.66393 5.82633 223 251 255
-1.60166 -0.186225 5.78356 217 245 255
-1.60813 -0.560141 5.81126 222 249 255
-1.60309 -0.383291 5.79525 219 248 255
-1.60181 -0.320334 5.80123 210 247 255
-1.59955 -0.312671 5.79463 216 250 255
-1.5999 -0.291418 5.79678 214 244 254
-1.58262 0.232938 5.74735 206 239 254
-1.57821 0.258019 5.74627 207 238 255
-1.58161 0.0182208 5.7698 208 240 253
-1.59478 -0.569729 5.82156 222 249 255
-1.58801 -0.30524 5.79828 56 73 81
-1.58801 -0.30524 5.79828 56 73 81
-1.58801 -0.30524 5.79828 56 73 81
-1.58176 -0.0831503 5.7809 243 253 255
-1.58277 -0.305645 5.80136 126 125 143
-1.58058 -0.361611 5.80482 255 254 245
-1.58058 -0.361611 5.80482 255 254 245
-1.57729 -0.23795 5.79967 217 246 254
-1.5603 0.254366 5.75456 207 239 254
-1.56139 0.109763 5.76135 207 240 255
-1.56299 0.0110433 5.78003 211 243 255
-1.56338 -0.0610318 5.78215 213 243 254
-1.56691 -0.273291 5.79986 216 246 255
-1.56202 -0.0669752 5.78376 218 251 255
-1.56202 -0.0669752 5.78376 218 251 255
-1.55961 -0.0737908 5.77729 145 139 185
-1.56177 -0.145172 5.78624 205 241 255
-1.5605 -0.138476 5.78965 219 248 255
-1.57204 -0.680645 5.83644 227 251 255
-1.56249 -0.335514 5.80924 144 134 142
-1.55235 -0.0670801 5.78377 235 255 255
-1.55235 -0.0670801 5.78377 235 255 255
-1.56397 -0.563415 5.8282 223 251 255
-1.56468 -0.660518 5.83328 227 251 255
-1.56221 -0.552926 5.82928 223 251 255
-1.53838 0.21933 5.75438 208 240 255
-1.55079 -0.360354 5.81394 255 254 251
-1.54473 -0.251063 5.79281 217 247 255
-1.55085 -0.374261 5.81571 255 250 242
-1.53494 0.233789 5.75852 205 241 255
-1.52943 0.411037 5.74054 204 237 255
-1.54345 -0.0830076 5.79347 94 109 116
-1.54924 -0.394662 5.81531 168 157 171
-1.54601 -0.3942 5.81919 144 123 138
-1.5436 -0.308784 5.81169 149 144 184
-1.55235 -0.722292 5.84961 228 252 255
-1.55139 -0.765454 5.84989 228 252 255
-1.52598 0.219358 5.76091 206 239 254
-1.52598 0.219358 5.76091 206 239 254
-1.52134 0.226294 5.75921 207 239 254
-1.5442 -0.729702 5.84707 228 252 255
-1.53517 -0.352259 5.8144 240 235 232
-1.51812 0.358084 5.7539 206 239 255
-1.58126 -1.10821 6.00076 233 254 255
-1.52108 0.068629 5.77655 209 241 254
-1.5259 -0.224976 5.79716 217 247 255
-1.5259 -0.224976 5.79716 217 247 255
-1.52255 -0.00869409 5.78587 212 241 255
-1.52266 -0.0447664 5.78673 206 244 255
-1.53743 -0.675352 5.84823 227 251 255
-1.5161 0.138939 5.77157 69 67 88
-1.52281 -0.261959 5.79784 218 247 255
-1.52293 -0.271324 5.80854 217 247 255
-1.53351 -0.712568 5.85116 228 252 255
-1.52586 -0.495657 5.82939 224 249 255
-1.52226 -0.331585 5.81667 148 150 149
-1.52138 -0.338271 5.81379 146 147 151
-1.503 0.399161 5.7459 204 237 254
-1.52059 -0.289603 5.81208 218 247 255
-1.51987 -0.358695 5.81628 248 250 249
-1.51182 -0.039948 5.78777 142 171 213
-1.51427 -0.271986 5.80728 217 247 255
-1.51836 -0.541582 5.83577 225 250 255
-1.51786 -0.527655 5.8342 225 250 255
-1.50584 -0.124072 5.7964 125 130 150
-1.50584 -0.124072 5.7964 125 130 150
-1.50387 -0.0509229 5.79088 145 165 215
-1.50343 -0.0805259 5.79414 112 110 132
-1.50351 -0.143349 5.80044 106 118 134
-1.51361 -0.590711 5.84127 227 250 255
-1.50981 -0.520409 5.83299 225 250 255
-1.51528 -0.721662 5.85606 230 251 255
-1.50178 -0.394 5.82262 250 249 245
-1.49576 -0.23488 5.80069 217 246 254
-1.50036 -0.422911 5.82705 254 245 240
-1.50045 -0.492344 5.83518 225 250 255
-1.49965 -0.535309 5.83486 223 251 255
-1.49214 -0.138412 5.809 79 93 106
-1.50398 -0.717069 5.85498 228 252 254
-1.48422 -0.248155 5.79331 218 247 255
-1.4923 -0.643315 5.85149 226 250 254
-1.47224 -0.258689 5.77731 218 247 255
-1.50318 -0.960557 5.92906 98 105 131
-1.46241 -0.223886 5.79064 207 200 207
-1.4595 -0.26798 5.78412 219 248 255
-1.49024 -0.960741 5.93665 87 102 133
-1.45042 0.584509 5.78538 204 237 255
-1.38926 -0.793766 5.85191 50 70 97
-1.37757 -0.800382 5.85829 49 64 97
-1.13195 0.622743 5.01962 203 239 255
-1.54463 -1.30682 7.05273 91 118 139
-1.38775 -0.0426161 6.59114 76 91 122
-1.50871 -1.45671 7.18338 241 255 255
-1.5055 -1.47036 7.19217 239 253 253
-1.37893 -0.0386335 6.59704 45 69 107
-1.3708 -0.707949 6.63914 37 51 80
-1.36821 -0.515338 6.65434 48 60 82
-1.36471 -0.492024 6.65704 48 59 87
-1.48513 -1.53214 7.25158 96 129 180
-1.3688 -0.783912 6.68998 39 56 82
-1.47314 -1.5366 7.25772 95 120 151
-1.47314 -1.5366 7.25772 95 120 151
-1.32632 0.512646 6.57325 44 60 86
-1.47114 -1.60653 7.29165 124 117 169
-1.34297 -0.60298 6.66493 54 71 99
-1.33169 -0.744603 6.64529 40 58 80
-1.33148 -0.752491 6.6463 39 55 81
-1.32423 0.0155795 6.62406 50 69 99
-1.31957 -0.0482467 6.63297 63 79 112
-1.44303 -1.55961 7.28339 125 142 172
-1.43586 -1.51572 7.24878 133 115 105
-1.30681 0.116292 6.62742 51 63 89
-1.30522 -0.134174 6.62491 49 59 86
-1.36828 -1.11786 6.95173 59 66 85
-1.36668 -1.14554 6.94925 29 37 58
-1.42338 -1.48917 7.23897 247 255 255
-1.30605 -0.0609265 6.64424 63 76 110
-1.30605 -0.0609265 6.64424 63 76 110
-1.30844 -0.334583 6.66074 37 52 75
-1.2997 0.186397 6.62447 116 146 182
-1.30523 -0.393358 6.66995 34 45 73
-1.36026 -1.15678 6.95048 28 39 57
-1.29557 0.0157841 6.62913 53 73 100
-1.29557 0.0157841 6.62913 53 73 100
-1.30626 -0.611786 6.68777 51 68 94
-1.295 -0.047487 6.64329 78 91 123
-1.23279 0.71553 6.32639 43 57 83
-1.30225 -0.62749 6.69083 51 62 90
-1.30083 -0.63281 6.68729 43 57 86
-1.27802 0.481969 6.58684 50 61 93
-1.41326 -1.55459 7.29226 108 125 153
-1.2848 0.138106 6.63167 46 60 86
-1.28517 0.152482 6.63398 34 54 78
-1.2841 -0.0359807 6.6375 79 91 117
-1.28626 -0.520003 6.69192 40 54 80
-1.39729 -1.54368 7.28205 82 96 135
-1.27279 -0.0368313 6.65043 29 47 67
-1.27904 -0.626125 6.69841 56 67 97
-1.26622 -0.121446 6.64849 43 59 84
-1.26622 -0.121446 6.64849 43 59 84
-1.3195 -1.0834 6.94111 35 45 70
-1.38329 -1.55535 7.30121 129 153 189
-1.26725 -0.566985 6.69968 51 62 92
-1.26516 -0.553197 6.69445 54 65 95
-1.37572 -1.54989 7.2977 122 146 184
-1.36787 -1.55564 7.30343 95 109 154
-1.24953 -0.353897 6.6796 32 44 70
-1.24667 -0.545226 6.69866 45 64 94
-1.24389 -0.515239 6.69738 35 55 79
-1.23884 -0.279535 6.67729 5 29 67
-1.23126 0.0188952 6.65729 151 141 132
-1.22204 0.464245 6.61416 54 69 98
-1.22204 0.464245 6.61416 54 69 98
-1.22309 0.380369 6.62279 37 57 81
-1.22309 0.380369 6.62279 37 57 81
-1.34815 -1.5469 7.30369 96 102 160
-1.34671 -1.5544 7.30923 34 42 89
-1.21701 0.0617212 6.64873 140 141 127
-1.22655 -0.537876 6.71142 44 60 93
-1.22422 -0.489236 6.70006 36 52 78
-1.20866 -0.0512232 6.65576 126 97 83
-1.3221 -1.5607 7.32051 43 57 83
-1.2003 -0.00955654 6.64739 153 151 139
-1.20178 -0.185301 6.66946 39 53 79
-1.19121 -0.173362 6.67415 44 56 80
-1.19397 -0.576213 6.71336 41 56 85
-1.29181 -1.55307 7.32571 95 107 133
-1.18034 -0.274903 6.70887 39 58 91
-1.17383 -0.154658 6.6793 42 54 80
-1.18027 -0.803957 6.74939 128 118 106
-1.18019 -0.922153 6.76613 146 146 148
-1.27592 -1.54714 7.3297 94 103 118
-1.27787 -1.57975 7.34191 140 143 148
-1.10707 0.736796 6.36252 44 58 84
-1.27296 -1.55345 7.33433 140 139 144
-1.1559 -0.137208 6.66665 59 64 94
-1.2659 -1.50874 7.30178 142 141 146
-1.15655 -0.143676 6.68098 49 56 82
-1.14825 -0.137615 6.67141 48 63 86
-1.15017 -0.151401 6.68495 49 60 78
-1.15811 -0.97068 6.75572 120 101 84
-1.15693 -0.964412 6.75633 125 113 87
-1.14064 -0.124483 6.66709 74 85 103
-1.13539 -0.120126 6.66958 83 92 107
-1.12825 -0.337343 6.75627 36 55 85
-1.1021 -0.117099 6.61592 82 90 103
-1.10947 0.0668341 6.66937 100 110 137
-1.22438 -1.58097 7.36491 150 138 114
-1.11126 -0.72811 6.69832 62 76 102
-1.12112 -0.937976 6.77886 139 136 121
-1.11379 -0.39717 6.76843 54 70 95
-1.10456 -0.665878 6.73455 64 70 106
-1.09819 -0.702314 6.71113 43 59 84
-1.10475 -0.301955 6.76051 128 147 190
-1.10509 -0.386804 6.76437 51 68 96
-1.10543 -0.437174 6.7711 118 105 89
-1.10706 -0.964495 6.78478 139 132 114
-1.1978 -1.54978 7.34952 171 148 116
-1.08324 0.0422212 6.68166 104 118 144
-1.19499 0.0320204 7.41224 109 121 145
-1.07649 0.0292918 6.67792 109 121 145
-1.07531 0.0773201 6.67635 95 110 139
-1.17358 -1.51185 7.33195 165 149 134
-1.07715 -0.507923 6.73162 101 101 113
-1.17734 -1.57741 7.37719 173 160 151
-1.06538 -0.181019 6.69135 42 58 74
-1.07375 -0.241407 6.76363 22 45 79
-1.07356 -0.393913 6.77152 40 57 83
-1.0705 -0.400483 6.77005 37 53 76
-1.06977 -0.305653 6.76838 111 130 172
-1.06989 -0.433211 6.78147 120 109 103
-1.06989 -0.433211 6.78147 120 109 103
-1.07045 -0.991908 6.79194 64 71 90
-1.16018 -1.57606 7.38664 175 168 160
-1.15804 -1.56728 7.38166 174 167 159
-1.05346 -0.300953 6.77639 31 46 75
-1.04154 -0.968052 6.78915 155 146 137
-1.03844 -0.960942 6.79021 135 126 121
-1.03844 -0.960942 6.79021 135 126 121
-1.02804 -0.95919 6.7908 163 154 155
-1.08808 -1.53201 7.37541 159 159 161
-1.08918 -1.54929 7.38892 159 160 162
-1.08173 -1.49703 7.35195 159 167 156
-1.07782 -1.50462 7.35798 156 161 154
-0.974284 -0.294955 6.75081 30 53 85
-0.975382 -0.445495 6.75954 151 149 154
-1.06504 -1.54868 7.40097 159 139 114
-0.967851 -0.962828 6.80694 115 120 140
-0.967575 -0.891305 6.82308 98 121 171
-0.949418 -0.0173784 6.70952 143 142 138
-0.958966 -0.890078 6.82148 86 119 162
-0.957084 -0.957543 6.81536 111 133 156
-0.958456 -0.9024 6.82655 72 106 154
-0.950625 -0.504545 6.77489 72 106 154
-0.948625 -0.426965 6.77139 136 136 148
-0.933143 0.0272963 6.72857 67 103 155
-0.93273 -0.105844 6.74402 105 113 132
-1.01306 -1.54625 7.40757 178 173 167
-0.920179 -0.367903 6.77321 34 59 89
-0.914481 0.0398977 6.73626 69 100 154
-0.914481 0.0398977 6.73626 69 100 154
-1.00049 -1.55132 7.40662 167 157 155
-0.91066 0.011701 6.74152 75 99 143
-0.914421 -0.332506 6.77215 62 66 77
-0.914774 -0.413495 6.77904 113 125 151
-0.905572 0.331767 6.71696 38 51 83
-0.906827 0.190694 6.72696 133 133 159
-0.905247 -0.00916406 6.7328 97 114 142
-0.909541 -0.30647 6.77731 177 165 139
-0.909541 -0.30647 6.77731 177 165 139
-0.907564 -0.283022 6.77073 166 153 121
-0.91035 -0.610477 6.79506 82 91 108
-0.899309 -0.0855946 6.75233 132 118 105
-0.899889 -0.172086 6.76157 176 167 134
-0.980561 -1.53701 7.41849 173 172 168
-0.8978 -0.54801 6.79646 114 109 106
-0.874324 0.1241 6.74088 156 140 114
-0.879524 -0.366803 6.78502 97 84 68
-0.875988 -0.214694 6.76995 105 88 81
-0.914015 -1.07454 7.06503 97 82 61
-0.877869 -0.450486 6.7964 137 121 105
-0.879626 -0.651297 6.81241 144 141 126
-0.878332 -0.617241 6.81329 144 136 117
-0.825469 0.647394 6.46822 59 79 112
-0.848691 0.491735 6.71856 92 116 152
-0.894034 -1.07935 7.07928 121 103 91
-0.85512 -0.182284 6.77926 129 112 86
-0.811109 0.657726 6.46953 45 69 105
-0.845935 -0.216273 6.78421 146 131 108
-0.848711 -0.608998 6.81704 145 120 90
-0.847452 -0.590433 6.8096 123 97 62
-0.919058 -1.51061 7.41825 115 110 91
-0.838703 -0.0325018 6.7722 167 144 113
-0.839151 -0.200907 6.78089 142 129 120
