ply
format ascii 1.0 
element vertex 1343
property float32 x 
property float32 y 
property float32 z
property uchar red  
property uchar green
property uchar blue
element face 0
property list uchar int vertex_indices
end_header
0.83353 0.304442 7.36205 180 164 193
0.853205 -0.565787 7.48031 101 122 151
0.857553 -0.0473454 7.41017 106 121 152
0.879285 -0.140615 7.42588 105 120 151
0.881629 0.241051 7.38865 107 126 156
0.889108 -0.380305 7.44445 94 109 138
0.888026 -0.10579 7.42087 104 118 147
0.896939 -0.293841 7.45005 98 115 145
0.923173 -0.735577 7.63921 94 114 141
0.900259 -0.139974 7.43011 100 117 145
0.907102 0.0389098 7.41542 99 113 142
0.935957 -0.721328 7.64073 98 115 143
0.914274 -0.126637 7.44564 99 113 142
0.922217 -0.184257 7.45244 102 118 144
0.926109 -0.243999 7.46881 97 115 139
0.912953 0.565678 7.36052 174 177 168
0.912953 0.565678 7.36052 174 177 168
0.924199 0.431774 7.37988 118 129 151
0.930558 0.0435491 7.42893 98 108 135
0.941961 -0.159894 7.45614 106 117 145
0.945878 -0.327485 7.46978 83 102 132
0.945878 -0.327485 7.46978 83 102 132
0.95359 -0.406417 7.49075 89 105 130
0.919942 0.965394 7.22652 255 250 240
0.966131 -0.725352 7.55714 88 104 130
0.95393 0.0398188 7.4432 91 104 136
0.948012 0.590978 7.36537 175 165 164
0.954475 0.197133 7.41081 103 112 143
0.965388 -0.437091 7.48796 90 104 130
0.962745 -0.500797 7.45702 95 106 136
0.886965 0.0820858 6.86277 107 116 147
0.953233 0.702748 7.3629 252 245 226
0.953233 0.702748 7.3629 252 245 226
1.05873 -1.38993 8.1625 87 108 129
0.967395 0.0123923 7.43998 105 116 144
1.06046 -1.46136 8.13067 92 103 131
0.979469 0.088282 7.46562 111 119 138
0.986641 -0.457649 7.5041 95 111 137
0.976532 0.257534 7.41853 113 119 143
0.994664 -0.57878 7.53475 90 99 128
0.994664 -0.57878 7.53475 90 99 128
0.978627 0.35329 7.40826 162 160 165
0.983904 0.141565 7.42798 111 117 141
0.989625 -0.0958491 7.46542 95 104 137
0.971278 -0.581912 7.29165 88 109 130
1.00708 -0.596339 7.54738 92 108 131
1.00671 -0.737827 7.54369 92 107 130
1.08299 -1.47085 8.08611 87 106 123
1.08299 -1.47085 8.08611 87 106 123
1.01008 -0.565485 7.53542 94 110 133
1.01422 -0.772713 7.54582 91 108 134
0.991557 0.692394 7.37672 255 248 237
1.0159 -0.758129 7.53965 87 105 129
1.0159 -0.758129 7.53965 87 105 129
1.01884 -0.708843 7.55605 80 94 121
1.01194 -0.485371 7.48734 91 101 126
0.97 0.922691 7.17049 255 254 242
1.01827 -0.448393 7.51551 91 106 129
1.09476 -1.31846 8.07273 89 100 130
1.02635 -0.575766 7.54665 90 104 130
1.10191 -1.32394 8.06997 85 101 127
1.01473 0.743162 7.40293 241 224 217
1.1118 -1.39155 8.09115 76 96 121
1.0325 -0.263595 7.49105 84 99 120
1.12167 -1.39912 8.09326 79 95 120
1.12167 -1.39912 8.09326 79 95 120
1.04927 -0.752331 7.57035 94 106 130
0.991321 0.825066 7.14451 152 136 172
1.02686 0.699706 7.39669 212 197 190
1.03959 -0.181282 7.48117 84 100 125
1.12663 -1.16282 8.06655 84 105 126
1.1335 -1.45625 8.10305 83 98 121
1.13423 -1.43812 8.10758 86 101 124
1.13794 -1.16454 8.0667 88 103 126
1.00624 0.786217 7.12266 124 125 146
1.047 0.63668 7.40202 99 106 134
1.07133 -0.72813 7.56974 82 96 123
1.05301 0.323611 7.43754 94 110 135
1.07584 -0.551145 7.59384 85 101 126
1.07584 -0.551145 7.59384 85 101 126
1.04829 0.741994 7.38833 97 109 133
1.05358 0.385332 7.42345 88 100 126
1.05045 0.709999 7.40146 101 114 149
1.15921 -1.4848 8.1077 75 91 114
1.16622 -1.49555 8.11097 77 92 111
1.16747 -1.47971 8.10646 80 95 116
1.067 0.705409 7.4048 96 106 131
1.06773 0.722677 7.39536 100 111 131
1.1105 -0.770406 7.59367 82 94 116
1.10093 -0.327698 7.51853 91 107 130
1.12389 -0.582384 7.62666 75 97 120
1.11485 -0.30191 7.52891 83 101 123
1.11727 -0.483059 7.5287 85 99 126
1.10868 0.223837 7.46777 89 101 125
1.15382 -0.647214 7.59836 73 91 113
1.16335 -0.762005 7.61256 68 84 109
1.15064 0.212277 7.45424 73 89 105
1.16972 0.687126 7.49087 28 60 37
1.18398 0.424868 7.52688 44 60 59
1.29546 -1.34134 8.2047 69 75 99
1.21322 -0.28635 7.56194 66 83 99
1.20247 0.305054 7.49261 26 58 34
1.22038 -0.479747 7.57151 70 83 100
1.2205 0.0669356 7.52632 38 59 50
1.23341 -0.364009 7.57719 41 58 74
1.3449 -1.37968 8.24019 64 79 98
1.3446 -1.38643 8.2378 63 79 95
1.22633 0.204773 7.50583 26 63 30
1.3506 -1.30455 8.22701 79 94 115
1.35002 -1.42105 8.20985 62 77 96
1.35252 -1.33588 8.22354 61 81 92
1.35132 -1.46327 8.18294 54 71 79
1.35132 -1.46327 8.18294 54 71 79
1.25196 -0.478738 7.57761 103 107 116
1.35598 -1.44397 8.19803 72 86 99
1.25249 -0.109495 7.57175 28 56 34
1.24592 0.246911 7.52335 43 71 33
1.24592 0.246911 7.52335 43 71 33
1.35808 -1.45514 8.18855 57 70 87
1.36229 -1.27323 8.20299 59 78 93
1.36138 -1.22639 8.19295 54 71 87
1.25101 0.205405 7.51242 45 69 33
1.36625 -1.19797 8.19646 56 71 92
1.26122 -0.0391898 7.56497 26 55 33
1.36659 -1.28467 8.19511 69 85 101
1.36682 -1.34493 8.18977 58 82 86
1.27508 -0.474242 7.59247 21 54 47
1.27609 -0.292149 7.59329 24 51 32
1.37859 -1.4454 8.19789 62 80 92
1.28076 -0.43759 7.61009 25 49 36
1.28542 -0.381568 7.61034 23 52 32
1.27335 0.241976 7.5384 34 59 30
1.28009 -0.488133 7.56075 31 54 34
1.2892 -0.434414 7.60962 21 51 23
1.39201 -1.44622 8.19959 63 71 82
1.29297 -0.408751 7.61349 27 52 30
1.3973 -1.46233 8.20522 55 73 85
1.29409 -0.223288 7.59776 6 38 14
1.28919 -0.494917 7.55514 23 53 27
1.28162 0.493603 7.51173 37 61 39
1.29148 0.0417271 7.56453 27 52 30
1.30119 -0.447259 7.61495 24 49 30
1.2989 -0.127891 7.58848 27 50 30
1.40676 -1.44522 8.21747 69 81 95
1.29009 0.290881 7.53425 37 60 34
1.30097 -0.486863 7.53945 28 53 31
1.41975 -1.41061 8.21031 63 77 88
1.41975 -1.41061 8.21031 63 77 88
1.42067 -1.30226 8.20133 57 70 87
1.31276 0.241311 7.55317 25 53 28
1.31429 -0.382409 7.56033 14 49 19
1.42788 -1.37299 8.20271 32 49 56
1.42633 -1.26212 8.18658 30 55 52
1.31536 0.71608 7.50312 32 63 29
1.42979 -1.22655 8.14687 21 52 34
1.32406 0.561902 7.52438 21 58 17
1.33091 -0.40641 7.51929 22 54 17
1.33916 -0.402942 7.52737 26 56 20
1.46444 -1.45183 8.23132 25 48 28
1.32848 -0.55716 7.46288 37 52 29
1.42689 -1.11396 8.00603 22 55 24
1.34186 -0.0148973 7.52397 25 53 31
1.45197 -1.26369 8.13299 21 51 25
1.45394 -1.25458 8.11843 17 50 21
1.3484 0.379126 7.5108 30 59 29
1.44005 -1.13996 8.01122 21 53 29
1.34901 0.721232 7.48968 27 56 28
1.35197 0.465949 7.50396 62 86 38
1.48682 -1.4395 8.23795 22 52 28
1.4895 -1.44973 8.2375 23 52 24
1.35682 0.0607045 7.48167 26 54 32
1.35682 0.0607045 7.48167 26 54 32
1.35443 0.815073 7.46512 27 52 22
1.35759 0.085126 7.47272 20 47 32
1.50286 -1.44214 8.24517 21 49 26
1.50286 -1.44214 8.24517 21 49 26
1.50286 -1.44214 8.24517 21 49 26
1.4618 -1.17563 7.9987 19 50 18
1.36604 -0.405086 7.46288 24 55 24
1.51608 -1.48121 8.26729 26 53 20
1.51409 -1.40098 8.25487 9 43 18
1.36563 0.198661 7.43464 32 55 29
1.47984 -1.2553 8.04477 12 44 20
1.37617 0.276202 7.46669 27 57 29
1.48415 -1.26442 8.04728 21 46 27
1.38828 -0.190745 7.51193 27 52 23
1.38737 -0.0165744 7.49877 24 49 28
1.4746 -1.15523 7.95986 19 49 23
1.52993 -1.44267 8.25654 21 50 22
1.52993 -1.44267 8.25654 21 50 22
1.3722 -0.511695 7.37254 24 55 24
1.49537 -1.27814 8.03235 22 53 22
1.54485 -1.44732 8.25708 25 48 30
1.3791 -0.540128 7.35579 16 46 20
1.54986 -1.46037 8.26502 22 51 29
1.55086 -1.45678 8.25782 17 49 25
1.38449 -0.525772 7.34813 20 44 18
1.55927 -1.42391 8.26906 25 54 26
1.56551 -1.45277 8.26732 24 51 20
1.41124 -0.0299172 7.44829 27 55 33
1.57125 -1.46578 8.26734 22 45 17
1.41616 -0.037995 7.43478 27 52 30
1.41761 -0.0280019 7.43471 22 51 23
1.40025 0.0796654 7.31908 15 45 17
1.42394 -0.399119 7.34109 18 48 24
1.42699 -0.31168 7.3523 18 45 26
1.4332 -0.301318 7.34481 20 50 24
1.43506 -0.0886356 7.33471 24 50 15
1.43586 -0.815626 7.32743 20 48 23
1.54989 -1.30806 7.90766 27 56 28
1.5509 -1.30626 7.91108 27 56 28
1.42999 -0.531519 7.24923 20 60 23
1.44951 -0.291543 7.3086 27 57 31
1.4506 -0.822795 7.30446 21 51 23
1.44873 0.10658 7.28963 24 49 30
1.44873 0.10658 7.28963 24 49 30
1.45038 -0.759347 7.2954 24 50 23
1.4415 0.952454 7.24061 14 49 19
1.45323 -0.780879 7.29493 18 49 18
1.45308 -0.82455 7.28394 25 51 22
1.45761 -0.0609629 7.28422 17 45 22
1.45761 -0.0609629 7.28422 17 45 22
1.45772 -0.43235 7.25339 0 0 0
1.46161 0.0128314 7.26482 0 0 0
1.46674 -0.00160421 7.25326 0 0 0
1.45728 -0.566068 7.19076 0 0 0
1.47055 -0.816622 7.25421 0 0 0
1.47055 -0.816622 7.25421 0 0 0
1.47784 -0.360255 7.27051 0 0 0
1.47133 0.703004 7.2351 0 0 0
1.4754 0.554017 7.24567 0 0 0
1.47001 -0.559299 7.1859 0 0 0
1.47961 0.451678 7.23273 0 0 0
1.47961 0.451678 7.23273 0 0 0
1.47616 0.177201 7.20743 0 0 0
1.4964 -0.782553 7.29117 0 0 0
1.47801 0.772482 7.17747 0 0 0
1.48619 0.73285 7.20723 0 0 0
1.48216 -0.49562 7.18501 0 0 0
1.49172 0.198773 7.22684 0 0 0
1.47997 -0.559364 7.13304 0 0 0
1.48995 0.857484 7.18332 0 0 0
1.49995 -0.637973 7.22551 0 0 0
1.61425 -1.34273 7.77145 0 0 0
1.49246 -0.529421 7.18397 0 0 0
1.49649 -0.402188 7.1628 0 0 0
1.49891 -0.449111 7.16964 0 0 0
1.50866 0.231393 7.20193 0 0 0
1.50866 0.231393 7.20193 0 0 0
1.6268 -1.33048 7.75187 0 0 0
1.49786 -0.568362 7.12053 0 0 0
1.63003 -1.3404 7.74371 0 0 0
1.50842 -0.4276 7.16067 0 0 0
1.54113 -0.813817 7.29464 0 0 0
1.54831 -0.807781 7.30617 0 0 0
1.50741 -0.464694 7.1081 0 0 0
1.56047 -0.869193 7.35348 0 0 0
1.56047 -0.869193 7.35348 0 0 0
1.54952 -0.804409 7.29726 0 0 0
1.53833 -0.696716 7.22619 0 0 0
1.6496 -1.34886 7.70404 0 0 0
1.6496 -1.34886 7.70404 0 0 0
1.53117 -0.501326 7.12771 0 0 0
1.51926 0.930166 7.07049 0 0 0
1.56348 0.396035 7.16936 0 0 0
1.53457 -0.565891 7.03062 0 0 0
1.67662 -1.36005 7.65059 0 0 0
1.67662 -1.36005 7.65059 0 0 0
1.56363 -0.47563 7.06186 0 0 0
1.54885 -0.585541 6.97858 0 0 0
1.56644 0.240086 7.03523 0 0 0
1.56644 0.240086 7.03523 0 0 0
1.69218 -1.36562 7.5927 0 0 0
1.69218 -1.36562 7.5927 0 0 0
1.57026 -0.361299 7.04283 0 0 0
1.57534 -0.437627 7.0561 0 0 0
1.5765 -0.367802 7.03206 0 0 0
1.5765 -0.367802 7.03206 0 0 0
1.56326 -0.584177 6.96994 0 0 0
1.70546 -1.36964 7.58779 0 0 0
1.5816 -0.325321 7.03068 0 0 0
1.58154 -0.174471 7.0265 0 0 0
1.58397 -0.269244 7.02428 0 0 0
1.57801 0.138619 6.9983 0 0 0
1.7132 -1.36639 7.58944 0 0 0
1.58606 -0.262216 7.02504 0 0 0
1.587 -0.197827 7.01565 0 0 0
1.58345 0.0608115 6.9991 0 0 0
1.58791 0.146544 7.01034 0 0 0
1.58954 0.288565 7.01568 0 0 0
1.59037 -0.191926 7.01414 0 0 0
1.58257 -0.0232726 6.9801 0 0 0
1.59053 0.333312 7.00976 0 0 0
1.59294 -0.0727267 7.0058 0 0 0
1.59314 0.0814882 6.99952 0 0 0
1.72719 -1.53551 7.57292 0 0 0
1.73177 -1.48871 7.58943 0 0 0
1.59488 0.0360294 6.98541 0 0 0
1.59833 -0.0412535 6.9943 0 0 0
1.59764 0.0429724 6.98947 0 0 0
1.60545 -0.549639 6.97515 0 0 0
1.59856 0.913869 6.94681 0 0 0
1.60725 -0.511163 6.96984 0 0 0
1.60725 -0.511163 6.96984 0 0 0
1.60776 0.390198 6.96272 0 0 0
1.60782 0.141645 6.95729 0 0 0
1.61274 0.397831 6.95481 0 0 0
1.52928 0.369232 6.56682 0 0 0
1.62065 0.388684 6.95552 0 0 0
1.61875 0.565371 6.93344 0 0 0
1.62463 0.157433 6.95053 0 0 0
1.61427 0.00103758 6.89442 0 0 0
1.62176 0.426726 6.91956 0 0 0
1.62054 0.840005 6.90722 0 0 0
1.62534 0.0158443 6.91939 0 0 0
1.62534 0.0158443 6.91939 0 0 0
1.76298 -1.31468 7.50255 0 0 0
1.61919 0.900816 6.84649 0 0 0
1.78722 -1.36512 7.54895 0 0 0
1.64971 -0.64648 6.96805 0 0 0
1.65467 -0.641745 6.97328 0 0 0
1.63868 0.122724 6.89444 0 0 0
1.78899 -1.30375 7.50807 0 0 0
1.63668 0.903242 6.82494 0 0 0
1.68291 -0.272624 6.97704 0 0 0
1.65253 0.660886 6.84902 0 0 0
1.71272 -0.724021 7.08567 0 0 0
1.70354 -0.170033 6.97161 0 0 0
1.71603 -0.51278 7.02193 0 0 0
1.66887 0.637294 6.82846 0 0 0
1.71129 -0.130447 6.959 0 0 0
1.71095 -0.00135546 6.9287 0 0 0
1.73568 -0.233157 6.99371 0 0 0
1.73964 -0.576994 7.00563 0 0 0
1.75139 -0.517327 7.03733 0 0 0
1.75772 -0.408765 7.02661 0 0 0
1.73047 0.535088 6.9012 0 0 0
1.75628 -0.0943498 6.98365 0 0 0
1.75459 -0.0380661 6.97445 0 0 0
1.73827 0.625287 6.88971 0 0 0
1.7501 0.31414 6.92698 0 0 0
1.7501 0.31414 6.92698 0 0 0
1.81751 -0.783579 7.17013 0 0 0
1.75487 0.381563 6.92082 0 0 0
1.78872 -0.509147 7.04971 0 0 0
1.7571 0.419914 6.91652 0 0 0
1.7714 0.243283 6.94916 0 0 0
1.76963 0.263813 6.94111 0 0 0
1.78099 0.0605138 6.97382 0 0 0
1.7648 0.563123 6.90849 0 0 0
1.79042 -0.0934382 6.99649 0 0 0
1.9171 -1.16665 7.47458 0 0 0
1.76428 -0.474891 6.84356 0 0 0
1.81743 -0.329514 7.04203 0 0 0
1.79376 0.273986 6.95132 0 0 0
1.82494 -0.487709 7.06871 0 0 0
1.84503 -0.646727 7.0967 0 0 0
1.83561 -0.335677 7.04897 0 0 0
1.84978 -0.844671 7.10111 0 0 0
1.82323 0.159076 6.98356 0 0 0
1.84222 -0.168525 7.02419 0 0 0
1.83853 0.101739 6.99668 0 0 0
1.83017 0.321648 6.96476 0 0 0
1.8469 -0.113339 7.02543 0 0 0
1.84125 0.173804 6.98921 0 0 0
1.83774 0.258895 6.9727 0 0 0
1.86542 -0.390602 7.04532 0 0 0
1.83837 0.635269 6.92679 0 0 0
1.8591 0.167762 6.99203 0 0 0
1.85002 0.491575 6.95477 0 0 0
1.8836 -0.572487 7.06538 0 0 0
1.85116 0.628165 6.93759 0 0 0
1.99184 -1.0821 7.44891 0 0 0
1.85714 0.599825 6.94374 0 0 0
1.88588 0.0342384 7.01724 0 0 0
1.91424 0.670163 6.94341 0 0 0
1.93299 0.22224 7.00785 0 0 0
2.04747 -0.778062 7.2029 0 0 0
2.01142 0.772482 6.98171 0 0 0
2.05363 0.602485 7.04804 0 0 0
2.06657 0.33825 7.09277 0 0 0
2.03361 0.750166 6.97788 0 0 0
2.08484 -0.378213 7.13783 0 0 0
2.09238 -0.258651 7.13767 0 0 0
2.08325 0.228421 7.08719 0 0 0
2.11278 0.209539 7.10287 0 0 0
2.11088 0.00744668 7.0824 0 0 0
2.14906 -0.251723 7.17142 0 0 0
2.14645 -0.210235 7.15842 0 0 0
2.12211 0.546262 7.05857 0 0 0
2.20123 -0.740793 7.31916 0 0 0
2.16393 -0.286156 7.18166 0 0 0
2.14618 0.204255 7.10437 0 0 0
2.19402 -0.304485 7.19152 0 0 0
2.17634 0.0946286 7.11978 0 0 0
2.17881 0.331196 7.1078 0 0 0
2.1793 0.404547 7.09543 0 0 0
2.20476 -0.101596 7.17006 0 0 0
2.19142 0.257303 7.11855 0 0 0
2.19426 0.3146 7.11492 0 0 0
2.17255 -0.475339 7.0384 0 0 0
2.21778 0.0433749 7.15678 0 0 0
2.20814 0.249517 7.12466 0 0 0
2.20169 0.509078 7.08953 0 0 0
2.22661 0.222064 7.13427 0 0 0
2.24774 -0.180255 7.18287 0 0 0
2.2565 0.100647 7.16599 0 0 0
2.25955 0.215853 7.15197 0 0 0
2.28021 -0.578301 7.21254 0 0 0
2.27403 -0.0623886 7.18458 0 0 0
2.29204 0.148637 7.16897 0 0 0
2.3275 -0.526019 7.27708 0 0 0
2.29609 0.177157 7.17333 0 0 0
2.31706 -0.556181 7.23617 0 0 0
2.28696 0.590395 7.11848 0 0 0
2.34197 -0.530427 7.27374 0 0 0
2.33895 -0.551216 7.24957 0 0 0
2.30148 0.604822 7.11065 0 0 0
2.34171 -0.592257 7.23238 0 0 0
2.31501 0.43436 7.1484 0 0 0
2.34765 -0.0707822 7.22982 0 0 0
-2.31715 0.593727 5.31748 255 255 255
-2.29661 0.589205 5.32272 255 255 255
-2.2787 0.525226 5.3332 255 255 255
-2.18703 0.71357 5.32046 255 255 255
-2.21327 0.676424 5.33915 255 255 255
-2.1776 0.632873 5.34353 255 255 255
-2.20016 0.634976 5.35449 255 255 255
-2.23497 0.410842 5.38781 255 255 255
-2.32526 -0.720186 5.44827 255 255 255
-2.34929 -0.307917 5.4738 255 255 255
-2.3825 -0.722152 5.5092 255 255 255
-2.30547 -0.647496 5.48451 255 255 255
-2.17473 0.305192 5.42661 255 255 255
-2.17473 0.305192 5.42661 255 255 255
-2.17233 0.347606 5.42778 255 255 255
-2.27393 -0.250602 5.48737 255 255 255
-2.07732 0.522077 5.39445 255 255 255
-2.24799 -0.156082 5.49122 255 255 255
-2.24434 -0.288853 5.50211 255 255 255
-2.26963 -0.42919 5.51908 255 255 255
-2.33289 -0.754039 5.56097 255 255 255
-2.14091 0.249035 5.45201 255 255 255
-2.11126 0.424372 5.43467 255 255 255
-2.15704 0.159731 5.4652 255 255 255
-2.15019 0.163739 5.46753 255 255 255
-2.09584 0.321163 5.45525 255 255 255
-2.09772 0.348234 5.45635 255 255 255
-2.08653 0.295191 5.4647 255 255 255
-2.16554 -0.23214 5.5287 255 255 255
-2.10432 0.0941112 5.49263 255 255 255
-2.10124 0.0327458 5.49201 255 255 255
-2.14932 -0.247763 5.53313 255 255 255
-2.12086 -0.17606 5.53103 255 255 255
-2.14497 -0.374137 5.5558 255 255 255
-2.0419 0.0120528 5.49995 255 255 255
-2.12395 -0.327391 5.55816 255 255 255
-1.89608 0.569747 5.44876 255 255 255
-1.925 0.492157 5.48384 255 255 255
20.6132 0.0584589 -8.01156 255 255 255
20.6132 0.0584589 -8.01156 255 255 255
-1.95196 0.221094 5.54335 255 255 255
-1.90752 -0.0366907 5.54706 255 255 255
-2.07848 -0.967445 5.67312 255 255 255
-1.98349 -0.673912 5.61514 255 255 255
-2.07986 -0.961762 5.67727 255 255 255
-1.85907 0.237447 5.5391 255 255 255
-2.03859 -0.748254 5.68452 255 255 255
-1.96203 -0.552101 5.63688 255 255 255
-1.83165 0.270286 5.55929 255 255 255
-1.80241 0.230141 5.55972 255 255 255
-1.78664 0.386333 5.55158 255 255 255
-1.76349 0.424201 5.55362 255 255 255
-1.75569 0.314943 5.5593 255 255 255
-1.79576 -0.0381108 5.60286 255 255 255
-1.79159 0.00235731 5.61321 255 255 255
-1.78075 0.0101696 5.61336 255 255 255
-1.77758 -0.142188 5.63411 255 255 255
-1.77215 -0.241434 5.64549 255 255 255
-1.73076 -0.0312803 5.62473 255 255 255
-1.81487 -0.621464 5.68852 255 255 255
-1.81174 -0.580681 5.69131 255 255 255
-1.66621 0.365512 5.59243 100 119 162
-1.77725 -0.394024 5.66987 255 255 255
-1.7224 -0.0215445 5.63325 255 255 255
-1.7224 -0.0215445 5.63325 255 255 255
-1.69782 0.0614648 5.62915 255 255 255
-1.62966 0.530602 5.5831 255 255 255
-1.66726 0.195715 5.61539 255 255 255
-1.72015 -0.220637 5.65669 255 255 255
-1.63594 0.352261 5.60017 100 121 168
-1.63594 0.352261 5.60017 100 121 168
-1.62945 0.364599 5.60419 88 115 160
-1.72812 -0.398795 5.68452 255 255 255
-1.72812 -0.398795 5.68452 255 255 255
-1.60983 0.407808 5.60254 255 255 255
-1.69415 -0.21472 5.6637 255 255 255
-1.62963 0.170181 5.62415 255 255 255
-1.65717 -0.0282691 5.64897 255 255 255
-1.68246 -0.28511 5.67856 255 255 255
-1.72471 -0.610203 5.72253 255 255 255
-1.88723 -0.952883 5.84057 255 255 255
-1.67136 -0.360825 5.69572 255 255 255
-1.63863 -0.287299 5.6941 255 255 255
-1.65481 -0.428546 5.70866 255 255 255
-1.65343 -0.521797 5.71316 255 255 255
-1.66046 -0.573609 5.73766 255 255 255
-1.53632 -0.122867 5.65445 255 255 255
-1.56686 -0.184319 5.6824 255 255 255
-1.62071 -0.726286 5.7236 255 255 255
-1.56545 -0.103022 5.68414 255 255 255
-1.52185 -0.0770787 5.68359 255 255 255
-1.59983 -0.610393 5.74494 255 255 255
-2.06819 -1.51699 6.08117 255 255 255
-2.1376 -1.51997 6.12612 255 255 255
-1.57423 0.269016 5.73069 255 255 255
-1.77017 -0.971576 5.88955 255 255 255
-1.5754 -0.180243 5.75158 255 255 255
-2.13703 -1.57179 6.14566 255 255 255
-2.14819 -1.63793 6.16439 255 255 255
-2.06718 -1.49108 6.11398 255 255 255
-1.57946 -0.120051 5.76644 255 255 255
-2.14423 -1.65234 6.17191 255 255 255
-2.12613 -1.57655 6.16414 255 255 255
-2.12613 -1.57655 6.16414 255 255 255
-1.54056 -0.659892 5.76079 255 255 255
-2.1303 -1.64335 6.17523 255 255 255
-1.52443 -0.709586 5.75364 255 255 255
-1.53483 -0.088131 5.75851 255 255 255
-2.13243 -1.67183 6.18154 255 255 255
-2.13243 -1.67183 6.18154 255 255 255
-2.13243 -1.67183 6.18154 255 255 255
-2.11603 -1.53694 6.17216 255 255 255
-1.5937 -0.283172 5.80853 255 255 255
-2.11973 -1.56797 6.18317 255 255 255
-1.54161 -0.07857 5.77655 255 255 255
-1.58491 -0.310359 5.80781 255 255 255
-1.61045 -0.172697 5.83357 255 255 255
-2.04277 -1.50916 6.15774 255 255 255
-1.60098 -0.416033 5.84536 255 255 255
-1.61724 -0.38224 5.86092 255 255 255
-1.60393 -0.558125 5.85478 255 255 255
-1.60312 -0.437518 5.8558 255 255 255
-1.76594 -0.889187 6.05081 255 255 255
-2.15257 -1.46917 6.33082 255 255 255
-1.62721 -0.499904 5.96391 255 255 255
-1.71505 -0.786662 6.04944 255 255 255
-2.16783 -1.46035 6.38047 255 255 255
-1.64897 -0.125135 6.00051 255 255 255
-1.68519 0.122375 6.0419 186 187 189
-1.67077 -0.100385 6.03477 255 255 255
-2.18439 -1.41883 6.43762 255 255 255
-1.6725 0.091972 6.07238 163 165 180
-1.69641 -0.156972 6.09926 255 255 255
-1.69641 -0.156972 6.09926 255 255 255
-1.68928 -0.29593 6.09651 255 255 255
-1.69272 -0.328227 6.10316 255 255 255
-1.69272 -0.328227 6.10316 255 255 255
-1.71859 0.78463 6.10877 131 156 176
-1.69051 -0.844844 6.12061 255 255 255
-1.71423 -0.169673 6.13476 255 255 255
-1.67306 -0.902183 6.11813 255 255 255
-2.21203 -1.4035 6.52198 255 255 253
-2.21203 -1.4035 6.52198 255 255 253
-1.63974 -0.942606 6.10383 255 254 255
-2.21996 -1.39993 6.54503 169 173 184
-1.65705 -0.626846 6.19887 255 252 255
-1.7818 0.273332 6.3153 153 169 195
-1.77256 0.635089 6.30946 127 128 133
-1.77252 0.176709 6.32953 100 117 147
-2.33252 -1.50729 6.78072 170 169 185
-2.29664 -1.3974 6.75633 228 207 250
-1.7876 -0.0615376 6.35758 127 151 179
-1.78616 -0.0393145 6.36281 133 148 177
-2.31583 -1.52531 6.78733 148 154 170
-2.30735 -1.48844 6.78257 157 161 172
-2.26016 -1.4744 6.74896 157 161 172
-1.74348 0.557621 6.33564 98 107 146
-1.79409 -0.205048 6.38858 137 155 195
-1.79303 -0.0882183 6.38618 116 133 163
-1.78552 0.00219953 6.38004 104 107 124
-1.76026 0.292468 6.36263 105 129 165
-1.79025 -0.304382 6.39756 107 131 169
-1.79979 -0.360337 6.41215 108 140 179
-2.24794 -1.3278 6.78855 255 255 255
-2.24794 -1.3278 6.78855 255 255 255
-1.80751 -0.507689 6.44802 101 131 165
-1.70532 0.355787 6.35892 97 121 149
-1.70532 0.355787 6.35892 97 121 149
-1.7474 0.0765298 6.39665 245 255 255
-1.74076 0.0925633 6.39152 150 179 209
-1.6919 0.5473 6.35276 115 143 183
-1.78204 -0.496467 6.43977 105 130 160
-1.77524 -0.284453 6.43246 99 123 161
-1.7927 -0.425798 6.44944 125 151 184
-2.21236 -1.35495 6.7908 255 255 255
-1.72843 0.171655 6.39174 93 112 145
-2.2785 -1.52953 6.84568 123 130 158
-2.23423 -1.60471 6.81409 112 131 173
-1.79888 -0.538468 6.46409 114 139 170
-1.75156 -0.137314 6.42395 102 123 154
-1.70431 0.2209 6.3857 107 122 153
-1.76473 -0.448107 6.44961 123 150 180
-2.22408 -1.54133 6.83252 109 130 161
-2.22241 -1.57537 6.85804 113 139 166
-2.36286 -1.39287 6.976 176 150 198
-2.30246 -1.22557 6.93649 255 253 255
-1.67285 -0.003325 6.42393 140 160 185
-1.70144 -0.453952 6.4587 121 147 180
-1.70008 -0.555007 6.4606 102 124 161
-1.76725 -0.655068 6.51681 106 127 170
-1.64793 0.530287 6.41951 71 86 107
-2.39977 -1.34213 7.05224 255 255 255
-1.76819 -0.718372 6.54585 112 127 158
-1.6841 -0.0754896 6.4777 93 113 148
-1.71835 -0.832073 6.54096 162 190 212
-1.68388 -0.338157 6.51872 95 119 153
-1.6229 -0.834912 6.56216 104 124 159
-1.49406 0.242342 6.44356 180 177 170
-1.49406 0.242342 6.44356 180 177 170
-1.62923 -0.623635 6.58765 96 119 153
-2.0388 -1.31198 6.93597 170 182 198
-1.59301 -0.654127 6.56058 94 118 156
-1.59301 -0.654127 6.56058 94 118 156
-2.06397 -1.54811 6.96356 106 124 160
-1.9947 -1.10608 6.90542 129 153 165
-2.04497 -1.418 6.95238 125 141 166
-2.02344 -1.31595 6.9427 117 125 146
-1.9964 -1.18014 6.92706 152 166 175
-1.5159 -0.276433 6.51632 101 124 158
-1.57151 -0.637654 6.57428 96 118 157
-1.99474 -1.47575 6.95192 106 130 156
-1.41858 0.470699 6.43957 85 101 134
-1.42109 0.530802 6.4438 107 113 161
-1.5256 -0.614067 6.5547 94 121 151
-1.4239 0.446434 6.45282 77 98 127
-1.41661 0.460148 6.44675 75 96 125
-1.44542 0.180278 6.47651 171 171 171
-1.43411 0.177164 6.4687 156 155 153
-1.42606 0.304377 6.46311 124 119 113
-1.54151 -0.740266 6.59343 95 119 145
-1.52318 -0.657833 6.58366 95 115 152
-2.52418 0.701047 7.39179 62 77 106
-1.50084 -0.624198 6.57449 94 117 149
-1.38089 0.511943 6.45825 137 165 205
-1.38089 0.511943 6.45825 137 165 205
-1.97171 -1.5853 6.99321 102 120 158
-1.37779 0.432434 6.46656 79 97 135
-1.37779 0.432434 6.46656 79 97 135
-1.42689 -0.0176064 6.51696 88 107 140
-1.96822 -1.58218 7.00418 102 122 157
-1.43175 -0.279921 6.53189 98 121 155
-1.37526 0.349345 6.47229 141 144 153
-1.37526 0.349345 6.47229 141 144 153
-1.49614 -0.63504 6.5927 98 117 159
-1.37994 0.261007 6.48574 149 142 136
-1.37994 0.261007 6.48574 149 142 136
-1.49793 -0.818896 6.61322 92 107 130
-1.37517 0.0973529 6.49872 148 147 143
-1.43291 -0.466471 6.5704 91 122 143
-1.41715 -0.405945 6.57024 94 109 142
-1.33746 0.296771 6.49155 134 141 151
-1.41512 -0.465505 6.57344 97 108 140
-1.33644 0.0410325 6.49716 168 171 164
-1.36097 -0.0187473 6.52558 88 107 139
-1.39141 -0.324972 6.55805 90 117 147
-1.39141 -0.324972 6.55805 90 117 147
-1.35623 -0.0364049 6.52666 93 107 146
-1.39435 -0.515173 6.58265 92 116 152
-1.35706 -0.0474272 6.54403 90 109 142
-1.34859 -0.183455 6.55238 94 113 146
-1.34642 -0.204481 6.55625 90 108 144
-1.34658 -0.242677 6.56061 90 113 145
-2.08273 -1.52243 7.2763 97 118 149
-2.08217 -1.51209 7.27951 93 116 147
-2.11896 -1.44563 7.34828 92 111 143
-1.31944 -0.685938 6.64828 179 179 179
-1.31944 -0.685938 6.64828 179 179 179
-1.18877 0.349151 6.56912 64 76 100
-1.22846 -0.237062 6.64469 108 125 141
-1.1782 0.271903 6.58995 178 178 178
-1.18986 -0.540865 6.61843 91 107 132
-1.72123 -1.34882 7.12753 81 98 128
-1.23957 -0.81822 6.68588 104 111 139
-1.09364 0.274624 6.56827 162 171 176
-1.20023 -0.876512 6.70135 86 103 131
-1.13319 -0.535018 6.63837 90 106 142
-1.13319 -0.535018 6.63837 90 106 142
-1.11625 -0.53841 6.64304 88 107 140
-1.07835 0.0350342 6.59564 139 149 161
-1.06784 -0.0949829 6.62826 132 146 172
-1.70466 -1.5375 7.25595 143 162 177
-1.03358 0.194399 6.6005 193 185 164
-1.69974 -1.55481 7.26229 112 136 164
-1.11034 -0.658168 6.71014 127 153 178
-1.09283 -0.615375 6.71028 120 138 152
-1.02598 -0.0344272 6.637 182 176 162
-1.69979 -1.66876 7.30473 149 141 130
-1.09663 -0.826382 6.72881 114 126 142
-0.998098 0.200483 6.61303 171 161 151
-1.7041 -1.61716 7.31327 156 153 148
-1.034 -0.267914 6.66032 186 187 181
-1.70562 -1.63604 7.31705 144 135 128
-1.70562 -1.63604 7.31705 144 135 128
-1.08835 -0.748503 6.73368 109 136 166
-1.03189 -0.321059 6.67686 115 141 164
-1.03189 -0.321059 6.67686 115 141 164
-1.02478 -0.426972 6.67831 117 137 161
-1.13307 -0.773187 6.81778 146 153 163
-1.01165 -0.146328 6.68689 171 158 142
0.335042 0.431366 5.40733 144 136 123
-0.964889 0.0822844 6.64545 180 176 167
-0.984635 -0.530693 6.682 169 169 159
-0.962004 -0.00169329 6.64844 175 167 146
-0.938099 0.248805 6.62755 161 161 159
-1.00265 -0.469388 6.71522 140 133 125
-0.965699 -0.205042 6.67928 158 155 148
-0.941891 0.0931549 6.65797 171 161 136
-0.895882 0.488907 6.60796 171 169 156
-0.94769 -0.113621 6.67776 154 149 143
-1.53641 -1.43561 7.27145 141 133 122
-1.12599 -0.802069 6.86597 169 168 164
-0.896682 0.401089 6.61753 176 172 163
-0.945636 -0.130778 6.68137 168 162 148
-0.901618 0.317476 6.63018 178 171 163
-0.949093 -0.233042 6.68992 145 140 137
-0.89799 0.251764 6.63738 164 155 138
-0.902584 -0.438729 6.71558 175 173 161
-0.868784 0.0309604 6.67495 181 175 161
-1.4676 -1.43564 7.30526 146 138 135
-0.86182 0.37543 6.68193 171 162 155
-0.86182 0.37543 6.68193 171 162 155
-0.910115 -0.606653 6.76903 157 161 164
-0.833668 0.288205 6.67405 149 145 134
-0.867262 -0.324973 6.73139 154 154 152
-0.884788 -0.224668 6.76777 180 179 174
-1.41612 -1.463 7.3361 140 142 137
-0.806583 0.525529 6.68704 181 181 179
-0.837855 -0.0504554 6.75931 181 181 173
-0.750984 0.176955 6.68657 133 126 118
-1.04106 -0.968036 7.01434 132 128 125
-0.885621 -0.76088 6.8541 160 159 155
-0.805781 -0.259849 6.78409 155 161 149
-0.815094 -0.855265 6.82523 114 105 110
-1.31711 -1.42828 7.3449 152 146 150
-0.81437 -0.844683 6.83081 176 177 172
-0.766925 -0.820631 6.84816 169 168 166
-0.716445 -0.744692 6.85103 141 158 178
-0.716445 -0.744692 6.85103 141 158 178
-0.714435 -0.749296 6.85147 116 127 149
-1.17394 -1.42596 7.40005 150 150 142
-0.432595 0.16899 6.63326 134 165 193
-0.445957 -0.550177 6.68995 174 174 172
-0.445957 -0.550177 6.68995 174 174 172
-0.445957 -0.550177 6.68995 174 174 172
-0.527024 -0.679826 6.78079 138 165 194
-0.412052 0.505932 6.63974 173 174 178
-0.412052 0.505932 6.63974 173 174 178
-0.379901 0.0595218 6.62603 154 157 148
-0.440862 -0.428414 6.70781 166 163 158
-0.41019 -0.120101 6.69115 131 136 140
-0.402773 -0.113157 6.68354 146 147 152
-0.419257 -0.368839 6.71415 133 152 169
-0.39612 -0.592744 6.70774 173 169 166
-0.39612 -0.592744 6.70774 173 169 166
-1.04471 -1.40475 7.42863 150 150 150
-0.409519 -0.368759 6.71976 138 159 178
-1.05254 -1.4247 7.45427 133 133 131
-0.358002 -0.586808 6.72206 164 164 162
-1.0067 -1.42037 7.4573 125 126 128
-0.912389 -1.34763 7.35591 158 167 164
-0.35257 -0.536494 6.72931 132 123 126
-0.969892 -1.42011 7.47227 92 99 117
-0.369814 -0.639553 6.80283 131 153 174
-0.251202 0.190048 6.65792 93 114 143
-0.31339 -0.449664 6.75705 162 164 159
-0.234598 0.1433 6.66571 81 106 128
-0.288475 -0.411946 6.76616 85 95 107
-0.275305 -0.532557 6.75639 118 108 116
-0.324054 -0.644634 6.81569 94 101 129
-0.793637 -1.59235 7.39549 131 122 117
-0.259403 -0.332487 6.76087 99 116 146
-0.303761 -0.688226 6.82998 97 115 135
-0.780681 -1.53708 7.39629 118 112 112
-0.782894 -1.54757 7.40249 128 123 117
-0.290799 -0.698683 6.83065 99 110 132
-0.284174 -0.639074 6.82151 85 101 126
-0.74607 -1.39176 7.3779 116 127 123
-0.735207 -1.30515 7.3662 163 174 170
-0.740059 -1.35517 7.37787 120 125 131
-0.761609 -1.37797 7.40245 118 123 126
-0.746436 -1.43777 7.39404 124 116 114
-0.746436 -1.43777 7.39404 124 116 114
-0.764188 -1.46369 7.41411 123 124 116
-0.747827 -1.45849 7.39716 123 124 116
-0.218489 0.536043 6.72783 155 151 142
-0.298613 -0.679688 6.86082 137 146 151
-0.27151 -0.900891 6.84698 105 108 125
-0.733071 -1.3807 7.38807 93 91 94
-0.241288 -0.584928 6.81058 146 151 157
-0.742343 -1.60893 7.41552 132 122 113
-0.722201 -1.36612 7.38899 108 108 108
-0.176523 0.362991 6.74563 165 158 148
-0.209337 0.541111 6.7754 133 126 116
-0.707641 -1.62724 7.43261 121 125 134
-0.174367 0.339109 6.76393 168 169 161
-0.218657 -0.900359 6.87197 151 153 150
-0.210284 -0.892958 6.86566 154 150 149
-0.77899 -1.59094 7.60623 125 134 115
-0.133274 0.327705 6.7846 169 172 165
-0.186668 -0.95352 6.89571 151 153 148
-0.138564 -0.431421 6.82127 151 155 154
-0.129661 0.321933 6.7885 169 171 168
-0.129256 0.32871 6.78769 169 171 170
-0.0684747 0.147386 6.73179 162 155 149
-0.146275 0.327207 6.82406 152 157 160
-0.172732 -0.995246 6.91572 137 141 140
-0.0901702 -0.508035 6.83368 133 120 129
-0.141412 -0.951974 6.9199 155 148 138
-0.092213 0.344353 6.81169 161 157 146
-0.130465 -0.960415 6.91698 148 144 141
-0.149586 -0.808499 6.93528 152 143 146
-0.149586 -0.808499 6.93528 152 143 146
-0.071314 0.00687509 6.8115 141 138 123
-0.079531 -0.479101 6.84452 103 99 98
-0.110764 0.294742 6.84829 130 126 114
-0.103695 -0.959975 6.91812 140 140 132
-0.0326315 0.471269 6.80275 158 164 164
-0.498552 -1.38362 7.43607 120 117 124
-0.0783406 -0.890752 6.92511 154 156 155
-0.0794117 -0.899097 6.92873 152 156 159
-0.544466 -1.57763 7.53415 138 134 125
-0.480975 -1.40144 7.46009 91 98 104
0.120244 0.661203 6.65666 134 129 133
-0.0473468 -0.872312 6.92876 102 92 93
-0.433894 -1.40367 7.44652 89 107 119
-0.0190616 -0.64854 6.92181 59 66 72
-0.448758 -1.43706 7.5053 91 103 127
0.037137 -0.530707 6.87463 116 112 111
-0.000369655 -0.891513 6.94238 150 153 146
-0.00876425 -0.888555 6.95432 147 149 146
-0.0285311 -0.701937 6.97045 61 61 71
0.000486315 -0.69496 6.93765 61 61 71
-0.556126 -1.80075 7.6841 152 158 156
0.0253456 -0.642435 6.93935 60 68 70
-0.55629 -1.81344 7.71003 149 157 160
-0.404062 -1.42568 7.51434 84 98 124
-0.549436 -1.80722 7.7112 149 160 164
-0.551727 -1.82118 7.71472 149 154 157
0.0296698 -0.644393 6.94687 68 77 84
-0.523948 -1.77666 7.68845 152 161 166
-0.515719 -1.79773 7.69323 128 135 145
-0.0717072 -0.84406 7.10577 103 101 104
0.135396 0.160073 6.81017 109 129 166
0.0515095 -0.669581 6.95965 107 132 162
0.0637909 -0.622576 6.94756 118 127 158
-0.0666634 -0.880374 7.1265 110 104 108
-0.497141 -1.66811 7.71338 97 112 131
0.0749802 -0.637593 6.94972 58 60 85
0.0583786 -0.605881 6.99618 140 146 146
-0.528713 -2.00297 7.798 187 181 157
0.181463 0.0725453 6.82256 122 135 170
-0.303793 -1.38239 7.53824 104 111 117
0.150771 -0.266821 6.91942 131 136 142
-0.284627 -1.42843 7.56212 77 96 110
-0.423465 -1.79843 7.76154 142 152 153
-0.264336 -1.40085 7.54086 72 95 111
-0.462425 -1.85068 7.82578 177 181 180
-0.462425 -1.85068 7.82578 177 181 180
0.193971 -0.544001 6.94661 110 115 109
-0.421688 -1.79029 7.82571 112 122 121
-0.237531 -1.43249 7.57993 76 98 111
0.240698 -0.569947 6.94676 130 136 136
0.187128 -0.640752 7.03847 50 56 80
0.206451 -0.612274 7.02041 108 113 116
0.192118 -0.645774 7.04134 50 62 74
0.271591 0.168866 6.91238 90 100 135
0.270263 0.0328612 6.92635 116 117 122
0.25083 -0.395401 6.97522 99 118 150
-0.270894 -1.39451 7.73112 111 115 114
0.280416 0.02542 6.93702 130 134 135
0.213653 0.456606 7.05982 138 143 147
0.218961 0.385878 7.06287 121 122 117
0.218961 0.385878 7.06287 121 122 117
0.206831 -0.093169 7.11593 136 146 145
0.0816232 -0.743695 7.32543 52 60 63
0.209686 -0.286002 7.13417 104 119 140
0.253431 0.189471 7.07216 77 70 86
0.253431 0.189471 7.07216 77 70 86
0.21009 -0.274618 7.15864 128 126 129
0.226476 -0.160255 7.13066 135 143 146
0.217972 -0.35461 7.15639 80 100 125
-0.115222 -1.58024 7.67319 78 88 115
0.244262 0.00857701 7.11828 133 138 141
0.241222 0.0723184 7.11965 121 138 164
-0.0745836 -1.4408 7.63239 124 133 150
-0.0909785 -1.56908 7.66219 70 83 102
-0.0605013 -1.19898 7.61442 116 129 137
0.252553 -0.152619 7.13922 138 137 145
0.257011 -0.114524 7.13677 133 133 143
-0.059582 -1.23725 7.63094 105 113 115
0.271979 -0.501697 7.14538 108 102 112
-0.0380148 -1.20142 7.62675 111 124 141
-0.0463965 -1.34896 7.64606 68 75 85
-0.0271072 -1.26991 7.64082 119 124 130
-0.0410299 -1.49503 7.67301 112 129 136
-0.0373984 -1.48181 7.6688 112 126 129
0.24353 -0.768665 7.24391 90 113 121
0.109074 -0.913822 7.43967 125 143 153
-0.0332359 -1.42008 7.66182 93 98 101
-0.0315758 -1.19979 7.65996 96 98 97
-0.0371938 -1.59363 7.70778 78 82 111
0.000107326 -1.17807 7.63844 100 102 99
-0.0124497 -1.21121 7.6571 113 129 129
0.31887 0.54938 7.13005 95 96 114
0.305547 -0.756561 7.23672 101 108 114
0.147103 -0.934162 7.47024 94 96 134
0.147103 -0.934162 7.47024 94 96 134
-0.102591 -1.54308 7.86791 76 85 84
0.313334 0.0212068 7.21701 122 135 144
-0.132813 -1.53252 7.94571 102 113 119
-0.167005 -1.53485 8.00672 105 117 131
-0.15713 -1.54731 7.9991 103 115 129
0.334839 -0.796666 7.26495 87 96 105
-0.028187 -1.39499 7.82372 101 112 132
0.353418 -0.782296 7.25486 118 133 138
-0.165071 -1.54619 8.04031 103 115 131
-0.0167903 -1.35746 7.81953 101 108 124
0.375542 0.697108 7.14986 98 102 105
0.396757 -0.500219 7.19836 95 99 108
0.346723 -0.789901 7.30168 94 105 125
0.375102 -0.81876 7.2715 105 118 137
0.378092 -0.782504 7.2729 88 102 115
-0.0145721 -1.4088 7.87558 47 63 78
0.402054 -0.306886 7.22729 111 123 147
0.42972 0.208512 7.16169 67 80 96
0.400187 -0.025645 7.22342 65 84 99
0.0308946 -1.38137 7.83398 85 96 114
0.0370143 -1.39894 7.85506 43 67 95
0.449367 0.0704998 7.18584 69 86 106
0.422068 -0.78261 7.28645 87 97 122
0.471126 0.0884215 7.16638 76 95 109
0.05845 -1.38448 7.85772 91 108 128
0.421434 0.022712 7.24619 80 93 112
0.432495 -0.0821034 7.24259 69 84 105
0.462558 -0.507907 7.24029 87 98 116
0.476714 -0.497615 7.23422 85 100 119
0.437407 -0.72427 7.30919 47 60 76
0.465355 0.0690976 7.24012 84 102 114
0.4303 -0.633404 7.33905 91 103 125
0.0558781 -1.53792 7.9498 53 63 73
0.496751 0.190346 7.19572 62 76 87
0.493742 0.0762682 7.21267 105 113 136
0.495249 -0.497528 7.25101 83 96 115
0.481984 -0.549426 7.27513 72 86 99
0.113673 -1.36616 7.87406 56 65 80
0.113673 -1.36616 7.87406 56 65 80
0.473499 -0.783298 7.31479 71 85 114
0.489715 -0.433375 7.27679 67 88 105
0.475261 -0.589199 7.32249 50 65 86
0.51727 0.21269 7.22119 67 75 94
0.53283 -0.534834 7.25152 56 62 78
0.519104 -0.383292 7.26555 90 102 116
0.521943 -0.0232833 7.24648 72 89 107
0.522572 -0.187867 7.25921 73 88 109
0.53939 0.357823 7.21553 104 109 129
0.540085 0.27477 7.22315 61 73 97
0.541742 -0.14598 7.25447 62 80 102
0.540564 -0.091415 7.26069 67 83 108
0.169887 -1.37887 7.90242 108 133 153
0.416385 -0.769007 7.49114 84 106 119
0.16584 -1.39532 7.91482 111 133 156
0.438732 -0.766956 7.46619 85 108 122
0.167738 -1.41457 7.9175 113 134 161
0.531988 -0.348117 7.30104 70 83 102
0.552641 0.0909808 7.25084 71 82 110
0.574715 0.197714 7.21785 56 69 88
0.586597 -0.514088 7.27954 94 112 134
0.591327 -0.520435 7.28306 104 126 139
0.585838 0.180406 7.25358 80 94 103
0.577334 -0.185825 7.29064 81 93 107
0.577334 -0.185825 7.29064 81 93 107
0.571595 -0.150505 7.29713 76 96 107
0.574333 -0.1564 7.29495 78 94 109
0.576368 -0.105717 7.28943 87 99 125
0.576368 -0.105717 7.28943 87 99 125
0.580206 -0.0120487 7.27793 87 100 119
0.572436 -0.275247 7.3064 110 132 143
0.572436 -0.275247 7.3064 110 132 143
0.226597 -1.39953 7.94031 248 242 228
0.235885 -1.37031 7.92765 239 236 219
0.592678 0.197529 7.29235 121 131 141
0.617481 0.687589 7.23121 87 101 110
0.468194 -0.882237 7.56806 127 146 163
0.606576 -0.242593 7.32086 114 130 155
0.599873 -0.41581 7.34277 117 139 162
0.610421 -0.133261 7.31092 115 135 160
0.610421 -0.133261 7.31092 115 135 160
0.624609 0.445038 7.25484 102 121 136
0.613258 -0.399288 7.32594 117 134 162
0.610274 -0.173334 7.3199 116 136 160
0.615465 -0.258598 7.31789 113 131 155
0.619851 -0.147041 7.31364 114 136 160
0.626794 0.13311 7.28853 117 135 159
0.617092 -0.569761 7.3718 120 132 146
0.646384 -0.489099 7.32274 126 140 167
0.620341 -0.601117 7.37736 233 236 217
0.640922 -0.0560853 7.31867 116 132 158
0.640877 -0.145716 7.32466 116 133 159
0.661623 0.203722 7.26993 115 131 154
0.661623 0.203722 7.26993 115 131 154
0.637248 -0.229301 7.33868 118 134 159
0.618306 -0.233149 7.36652 118 134 159
0.627864 -0.592108 7.37871 237 229 216
0.293178 -1.3763 7.95766 248 241 233
0.634514 -0.715794 7.39666 243 234 227
0.63712 -0.650226 7.39219 247 240 230
0.66671 0.0565553 7.30588 119 137 157
0.319074 -1.36828 7.95983 249 241 238
0.672282 -0.48204 7.34601 255 247 238
0.698673 -0.487645 7.34165 252 245 239
0.680035 -0.493331 7.36986 252 245 239
0.696423 -0.492733 7.37994 252 245 239
0.711116 0.0308438 7.32949 255 248 238
0.692587 0.0287826 7.35703 255 248 238
0.691561 -0.74222 7.42499 255 253 245
0.698603 -0.803212 7.42612 254 247 241
0.368689 -1.38424 8.00631 255 250 244
0.775496 -0.47873 7.28637 244 237 231
0.794179 0.278412 7.21288 248 238 229
0.732582 0.281906 7.31453 244 234 224
0.749586 -0.311269 7.33082 248 241 233
0.744906 -0.48771 7.37148 250 245 241
0.764982 -0.502298 7.37415 249 239 237
0.755574 -0.349969 7.38093 254 250 241
0.72129 -0.800442 7.46607 253 248 242
0.747384 -0.353595 7.40559 255 248 242
0.764303 -0.349046 7.37935 255 248 242
0.775677 0.2938 7.32987 250 245 239
0.784375 -0.505873 7.37227 254 247 241
0.751835 -0.0196747 7.41175 251 244 236
0.764756 -0.773749 7.4436 254 246 243
0.790924 0.209935 7.35286 255 251 248
0.774055 -0.801194 7.46045 247 237 235
0.780232 -0.653381 7.47546 247 239 236
0.47412 -1.38029 8.04437 239 231 228
0.792915 -0.768048 7.46843 255 249 243
0.799188 -0.772786 7.46019 251 244 238
0.522944 -1.34328 8.02762 255 249 241
0.839065 -0.551189 7.4418 254 245 240
0.851021 -0.531311 7.42308 255 249 243
0.853233 0.0818417 7.39259 253 248 242
0.831538 -0.649061 7.49452 255 248 243
0.522566 -1.39319 8.09417 246 239 231
0.539828 -1.37597 8.06611 243 236 226
0.543564 -1.35958 8.06164 249 242 236
0.850576 -0.58872 7.48649 255 253 246
0.857171 -0.590453 7.49332 255 245 239
0.887588 -0.440947 7.46518 245 237 226
0.847925 -0.610889 7.54545 245 236 229
0.891265 -0.222882 7.45059 248 238 228
0.901787 0.280505 7.40446 255 240 235
0.910755 -0.482807 7.45001 248 244 233
0.912148 -0.535501 7.45319 251 241 232
0.907258 0.524552 7.38748 255 245 241
0.900556 -0.0852854 7.44638 249 240 231
0.893316 -0.0299777 7.45796 251 242 235
0.779232 -0.887128 7.74764 242 232 230
0.913048 -0.296336 7.47233 249 241 228
0.924788 0.719017 7.3769 248 242 230
0.910832 -0.360879 7.48387 255 249 241
0.910832 -0.360879 7.48387 255 249 241
0.915241 -0.345812 7.47699 251 238 230
0.909069 -0.317653 7.48678 242 234 223
0.795863 -0.894659 7.75603 207 197 188
0.795863 -0.894659 7.75603 207 197 188
0.930097 -0.162339 7.46517 245 235 226
0.929524 -0.188949 7.47815 251 242 233
0.925317 -0.254209 7.49119 255 245 235
0.92986 -0.274933 7.48644 255 250 242
0.801546 -0.934228 7.76406 249 241 228
0.933446 -0.00698472 7.46205 244 234 225
0.937807 -0.246044 7.48203 243 233 221
0.938476 0.142552 7.45154 255 255 244
0.811425 -0.954033 7.77956 222 206 191
0.957492 -0.492504 7.48566 251 242 233
0.946144 0.0203653 7.47543 0 0 0
0.949247 0.204916 7.45734 0 0 0
0.962329 0.0386543 7.45978 0 0 0
0.977831 0.241332 7.4225 0 0 0
0.977831 0.241332 7.4225 0 0 0
0.955331 -0.315488 7.50686 0 0 0
0.955665 -0.181616 7.50023 0 0 0
0.975906 0.35398 7.4419 0 0 0
0.970355 0.269213 7.45879 0 0 0
0.967065 -0.25146 7.50604 0 0 0
0.972538 -0.0135411 7.47797 0 0 0
0.971523 -0.0456788 7.48363 0 0 0
0.975095 0.464679 7.43975 0 0 0
0.974444 0.187585 7.46443 0 0 0
0.972222 -0.113529 7.49185 0 0 0
0.9767 0.342529 7.44979 0 0 0
0.847519 -0.897764 7.78187 0 0 0
0.975014 -0.140854 7.49433 0 0 0
0.977714 0.282677 7.45798 0 0 0
0.977714 0.282677 7.45798 0 0 0
0.977714 0.282677 7.45798 0 0 0
0.982237 0.453133 7.44018 0 0 0
0.996915 0.214291 7.44376 0 0 0
0.963498 -0.594086 7.5703 0 0 0
0.70513 -1.33632 8.10104 0 0 0
0.858861 -0.900247 7.7925 0 0 0
0.696325 -1.39493 8.1257 0 0 0
1.01115 -0.38812 7.51695 0 0 0
0.691857 -1.50428 8.197 0 0 0
1.0031 -0.584706 7.56957 0 0 0
0.720336 -1.36549 8.15116 0 0 0
1.00749 -0.57279 7.56773 0 0 0
1.03513 0.196518 7.47081 0 0 0
1.04519 -0.48844 7.52423 0 0 0
1.03966 0.312451 7.4746 0 0 0
1.05843 0.0927039 7.49481 0 0 0
1.0437 -0.767321 7.62246 0 0 0
1.10244 0.221033 7.50092 0 0 0
1.0932 -0.219701 7.60623 0 0 0
1.0932 -0.219701 7.60623 0 0 0
1.12905 0.299536 7.52566 0 0 0
1.68194 -0.0309042 6.887 0 0 0
1.673 -0.00262086 6.90445 0 0 0
1.68654 -0.341145 6.96865 0 0 0
1.69177 0.330979 6.9057 0 0 0
1.69446 -0.338974 6.96795 0 0 0
1.69062 -0.091854 6.95102 0 0 0
1.69152 0.240826 6.91692 0 0 0
1.69902 -0.00344978 6.92826 0 0 0
1.69383 -0.284196 6.96863 0 0 0
1.70058 -0.330116 6.97262 0 0 0
1.70225 0.22719 6.91799 0 0 0
1.70457 -0.244863 6.96307 0 0 0
1.70083 -0.52212 6.9985 0 0 0
1.70759 -0.132061 6.95078 0 0 0
1.7126 0.462353 6.89339 0 0 0
1.70866 0.375364 6.91142 0 0 0
1.71039 0.57383 6.88892 0 0 0
1.71182 0.432967 6.89984 0 0 0
1.70689 -0.249474 6.97973 0 0 0
1.71753 0.626291 6.87504 0 0 0
1.71052 0.275879 6.92417 0 0 0
1.71111 -0.164873 6.97306 0 0 0
1.71281 0.385462 6.91546 0 0 0
1.71708 0.473835 6.8984 0 0 0
1.71541 0.153157 6.93329 0 0 0
1.71238 -0.151101 6.97061 0 0 0
1.71499 -0.345736 6.9869 0 0 0
1.71315 -0.0803683 6.96578 0 0 0
1.71825 0.586281 6.89453 0 0 0
1.71669 0.263005 6.94388 0 0 0
1.7215 0.392415 6.92566 0 0 0
1.72672 0.365388 6.91876 0 0 0
1.72742 0.380469 6.9162 0 0 0
1.7244 0.478592 6.91323 0 0 0
1.7283 0.639557 6.89349 0 0 0
1.72803 0.246131 6.93609 0 0 0
1.7317 -0.0435655 6.96652 0 0 0
1.73875 0.0650716 6.95354 0 0 0
1.73865 -0.333289 6.99797 0 0 0
1.73675 -0.390825 7.01273 0 0 0
1.73998 -0.122122 6.99368 0 0 0
1.75048 -0.438862 7.02356 0 0 0
1.7504 0.190586 6.96526 0 0 0
1.75068 0.263998 6.95877 0 0 0
1.75944 -0.353622 7.00774 0 0 0
1.76211 -0.179644 6.98845 0 0 0
1.75577 0.064611 6.98092 0 0 0
1.75816 -0.310588 7.01546 0 0 0
1.7594 -0.488574 7.03529 0 0 0
1.76013 -0.0586678 7.00173 0 0 0
1.766 0.258411 6.95661 0 0 0
1.77843 -0.602131 7.01726 0 0 0
1.76947 0.0657667 6.97807 0 0 0
1.77737 -0.112327 7.00246 0 0 0
1.78487 -0.280412 7.0287 0 0 0
1.78615 -0.354651 7.04157 0 0 0
1.78924 -0.312612 7.03254 0 0 0
1.7908 -0.270604 7.03162 0 0 0
1.79266 -0.186697 7.02465 0 0 0
1.79271 -0.17261 7.02882 0 0 0
1.79271 -0.17261 7.02882 0 0 0
1.79379 -0.101453 7.01965 0 0 0
1.79384 -0.0580629 7.01686 0 0 0
1.79054 -0.0506241 7.02403 0 0 0
1.7982 -0.0872403 7.01762 0 0 0
1.80819 -0.489647 7.0435 0 0 0
1.80797 -0.235334 7.0432 0 0 0
1.80767 0.44502 6.97359 0 0 0
1.81157 -0.249247 7.03818 0 0 0
1.80673 -0.221914 7.04845 0 0 0
1.81039 -0.164879 7.03771 0 0 0
1.81447 0.365745 6.97409 0 0 0
1.82053 -0.078305 7.01463 0 0 0
1.81122 -0.0794064 7.03329 0 0 0
1.81553 -0.256969 7.04879 0 0 0
1.8184 0.148318 7.01154 0 0 0
1.83085 -0.344609 7.04054 0 0 0
1.81843 -0.355532 7.06752 0 0 0
1.81672 0.501861 6.98064 0 0 0
1.81929 0.373863 6.99354 0 0 0
1.8366 -0.313491 7.04493 0 0 0
1.82433 0.49624 6.98503 0 0 0
1.82764 -0.200593 7.05425 0 0 0
1.82764 -0.200593 7.05425 0 0 0
1.83433 0.534593 6.97991 0 0 0
1.852 -0.466455 7.05556 0 0 0
1.83862 0.530556 6.98154 0 0 0
1.83862 0.530556 6.98154 0 0 0
1.83774 0.178887 7.0232 0 0 0
1.87126 -0.622999 7.04936 0 0 0
1.84656 0.374855 7.00062 0 0 0
1.84564 -0.698236 7.11932 0 0 0
1.84537 0.462337 6.99517 0 0 0
1.87794 0.127388 7.01774 0 0 0
1.88917 -0.0212949 7.03795 0 0 0
1.73766 -1.34678 7.53963 0 0 0
1.88449 -0.0157709 7.05647 0 0 0
1.92925 -0.365273 7.00169 0 0 0
1.8949 -0.374603 7.08931 0 0 0
1.8949 -0.374603 7.08931 0 0 0
1.74522 -1.3634 7.56328 0 0 0
1.73257 -1.47875 7.60917 0 0 0
1.73257 -1.47875 7.60917 0 0 0
1.74369 -1.38747 7.58655 0 0 0
1.74369 -1.38747 7.58655 0 0 0
1.74468 -1.4319 7.61043 0 0 0
1.76449 -1.41334 7.59649 0 0 0
1.91389 0.666514 7.00324 0 0 0
1.76519 -1.4301 7.60158 0 0 0
1.91193 -0.154265 7.12657 0 0 0
1.93918 0.209508 7.07173 0 0 0
1.93881 -0.747665 7.21215 0 0 0
1.93881 -0.747665 7.21215 0 0 0
1.94611 -0.283054 7.16944 0 0 0
1.96822 -0.264332 7.16347 0 0 0
1.96595 -0.115038 7.16166 0 0 0
1.98972 0.216901 7.07206 0 0 0
1.98055 0.408767 7.11414 0 0 0
1.98153 -0.23824 7.20171 0 0 0
2.01218 -0.796298 7.21658 0 0 0
2.00004 -0.0501278 7.17411 0 0 0
2.00943 -0.0483098 7.15255 0 0 0
2.03003 -0.373134 7.17657 0 0 0
2.01374 0.373328 7.12702 0 0 0
2.03078 0.00805932 7.1435 0 0 0
1.9708 -1.03062 7.44058 0 0 0
2.03207 -0.788911 7.26529 0 0 0
2.06998 -0.624125 7.1627 0 0 0
2.03017 0.344544 7.14936 0 0 0
2.04991 0.230951 7.14263 0 0 0
2.04991 0.230951 7.14263 0 0 0
2.06087 -0.66998 7.23514 0 0 0
2.05776 -0.318501 7.21241 0 0 0
2.07954 0.560507 7.14271 0 0 0
2.05439 -0.951848 7.42803 0 0 0
2.10046 -0.23983 7.21286 0 0 0
2.10243 -0.197178 7.21271 0 0 0
2.10254 -0.0631957 7.20032 0 0 0
2.11311 0.00621253 7.16516 0 0 0
2.10834 0.0598642 7.17822 0 0 0
2.10958 -0.0775178 7.20352 0 0 0
2.13876 -0.622555 7.19985 0 0 0
2.12299 0.106153 7.15659 0 0 0
2.07077 -0.953197 7.44806 0 0 0
2.12656 0.406441 7.15507 0 0 0
2.13295 -0.30945 7.24576 0 0 0
2.13426 -0.18949 7.2355 0 0 0
2.12892 0.108135 7.21156 0 0 0
2.10863 -0.872985 7.40642 0 0 0
2.14309 0.255162 7.18436 0 0 0
2.15134 0.651575 7.14052 0 0 0
2.1492 0.246156 7.20498 0 0 0
2.15482 0.3365 7.19441 0 0 0
2.16511 0.109092 7.22824 0 0 0
2.1711 -0.0682705 7.25495 0 0 0
2.17693 -0.0389431 7.24129 0 0 0
2.19396 0.309125 7.18331 0 0 0
2.18852 -0.0371366 7.24904 0 0 0
2.19012 0.467728 7.18756 0 0 0
2.21397 -0.546926 7.29011 0 0 0
2.20734 -0.253572 7.27218 0 0 0
2.20956 -0.195793 7.26663 0 0 0
2.21453 0.110391 7.21203 0 0 0
2.21279 -0.490955 7.30558 0 0 0
2.20928 -0.11091 7.26201 0 0 0
2.21243 -0.103223 7.26005 0 0 0
2.21587 -0.372621 7.29677 0 0 0
2.21386 0.658142 7.16109 0 0 0
2.22161 0.0182911 7.23197 0 0 0
2.22308 -0.414324 7.2912 0 0 0
2.21907 -0.302837 7.28911 0 0 0
2.22461 -0.274488 7.28036 0 0 0
2.22251 -0.20298 7.28338 0 0 0
2.22656 -0.181795 7.27641 0 0 0
2.22505 -0.0752041 7.27541 0 0 0
2.22505 -0.0752041 7.27541 0 0 0
2.28365 -0.0528956 7.10803 0 0 0
2.22989 -0.0592342 7.26663 0 0 0
2.23396 -0.350824 7.30164 0 0 0
2.23436 -0.335032 7.29895 0 0 0
2.24096 -0.181115 7.28834 0 0 0
2.23999 -0.166529 7.29033 0 0 0
2.2399 0.524862 7.19808 0 0 0
2.2399 0.524862 7.19808 0 0 0
2.23999 0.283838 7.24833 0 0 0
2.24491 0.357911 7.24074 0 0 0
2.25112 0.460454 7.22114 0 0 0
2.25651 0.159 7.25907 0 0 0
2.25608 0.532996 7.20951 0 0 0
2.25972 0.209677 7.2564 0 0 0
2.27604 0.61719 7.21103 0 0 0
-2.28173 0.744264 5.27222 236 254 254
-2.14158 0.64604 5.33214 241 255 255
-2.12955 0.299091 5.37482 249 255 255
-2.22625 -0.660711 5.433 255 255 255
-2.21739 -0.553738 5.45312 255 255 255
-2.21739 -0.553738 5.45312 255 255 255
-2.21737 -0.568571 5.45562 255 255 255
-2.22087 -0.635997 5.47274 255 255 255
-2.2376 -0.741298 5.48631 255 255 255
-2.23049 -0.75346 5.48506 255 255 255
-1.96355 -0.00200694 5.45432 255 255 255
-1.91412 0.164107 5.51281 255 255 255
-1.83247 0.222938 5.49229 253 255 254
-1.88337 -0.187853 5.56658 255 255 255
-1.75017 0.435508 5.5031 251 255 255
-1.75099 0.312001 5.51025 253 255 254
-1.67735 0.570809 5.50279 251 255 255
-1.74556 -0.151216 5.57487 255 255 255
-1.58634 0.398883 5.55489 253 255 254
-1.59206 0.192689 5.58157 255 255 255
-1.59206 0.192689 5.58157 255 255 255
-1.57246 -0.106033 5.60275 255 255 255
-1.56655 0.00993172 5.60251 255 255 255
-1.45298 0.629449 5.57755 251 255 255
-1.48395 -0.0899461 5.61326 255 255 255
