ply
format ascii 1.0 
element vertex 1333
property float32 x 
property float32 y 
property float32 z
property uchar red  
property uchar green
property uchar blue
element face 0
property list uchar int vertex_indices
end_header
-1.36967 -1.29843 7.23304 99 95 83
-1.13257 -0.209571 6.63069 155 153 140
-1.13257 -0.209571 6.63069 155 153 140
-1.23958 -0.967114 6.92711 124 121 106
-1.23075 -0.911592 6.9231 127 119 116
-1.12164 -0.176787 6.66315 83 70 61
-1.23351 -0.975232 6.95763 100 92 79
-1.23351 -0.975232 6.95763 100 92 79
-1.09538 -0.136595 6.63227 121 101 90
-1.12141 -0.531998 6.71242 130 117 101
-1.12141 -0.531998 6.71242 130 117 101
-1.09598 -0.290134 6.6651 121 111 101
-1.07946 0.0528529 6.65058 157 152 133
-1.18225 -0.923792 6.94635 121 106 111
-1.08593 -0.286006 6.69276 96 88 85
-1.08372 -0.506068 6.71014 107 99 88
-1.07354 -0.170242 6.68578 122 117 113
-1.07016 -0.247565 6.68277 116 106 104
-1.06459 -0.657005 6.75524 101 96 92
-1.26053 -1.3226 7.30679 53 56 45
-1.10294 -0.873051 6.89593 129 131 120
-1.03164 -0.431721 6.73624 123 119 108
-0.980771 -0.451241 6.7138 100 91 84
-1.00596 -0.813739 6.80817 114 109 105
-0.994287 -0.347418 6.79076 82 68 67
-0.974023 -0.561297 6.75753 122 124 113
-0.956878 -0.35271 6.81092 112 112 104
-0.954084 -0.822848 6.81551 112 105 99
-0.926456 -0.829523 6.83296 93 102 117
-0.922095 -0.780663 6.84948 91 104 121
-0.880185 -0.131242 6.74092 141 134 124
-0.873203 0.0470383 6.73151 65 78 113
-0.87838 0.0459102 6.74924 65 78 113
-1.04458 -1.3106 7.4159 82 71 67
-1.04166 -1.31663 7.41588 81 74 68
-0.808629 -0.277738 6.8098 135 139 142
-0.8682 -0.917859 7.12229 129 122 114
-0.713522 -0.61005 6.67831 80 70 71
-0.844275 -0.906353 7.09974 114 110 107
-0.845542 -0.918693 7.12803 122 122 120
-0.898026 -1.19801 7.30467 58 76 96
-0.90675 -1.24566 7.35126 101 106 109
-0.880917 -1.12857 7.2703 64 74 99
-0.702976 -0.560688 6.72193 133 133 131
-0.833256 -1.02413 7.13524 122 116 104
-0.871848 -1.31295 7.30385 59 55 56
-0.875171 -1.23838 7.33936 96 114 138
-0.637962 -0.607941 6.70893 80 76 73
-0.637962 -0.607941 6.70893 80 76 73
-0.633498 -0.61432 6.70719 68 66 67
-0.851301 -1.26987 7.45194 117 123 113
-0.591932 -0.275553 6.72544 131 136 140
-0.577255 -0.616701 6.70375 69 63 67
-0.551091 -0.141199 6.63654 134 139 143
-0.577005 -0.65034 6.73371 124 131 124
-0.595235 -0.733018 6.83962 52 63 83
-0.560881 -0.607751 6.74045 76 70 70
-0.540563 -0.118064 6.67671 125 129 128
-0.534551 -0.0449467 6.69028 44 65 86
-0.567356 -0.67675 6.80884 117 107 106
-0.546562 -0.664293 6.77689 126 126 124
-0.565363 -0.69068 6.8428 107 107 107
-0.678822 -1.20029 7.26044 52 60 71
-0.357467 -0.628526 6.2587 94 101 109
-0.478763 -0.0591391 6.68393 120 114 100
-0.516807 -0.6782 6.81802 94 101 109
-0.506652 -0.664341 6.79868 105 108 115
-0.515664 -0.688085 6.82962 118 126 129
-0.503276 -0.708754 6.83463 86 79 73
-0.459413 -0.646581 6.74834 111 105 93
-0.474524 -0.681351 6.8 118 109 100
-0.435998 -0.0367313 6.68671 126 113 94
-0.463681 -0.717924 6.81952 107 107 107
-0.452127 -0.730593 6.82087 114 114 114
-0.613507 -1.30434 7.42191 102 89 98
-0.453242 -0.69602 6.84635 102 101 107
-0.600147 -1.32099 7.46277 52 51 59
-0.402196 -0.602818 6.81311 67 77 78
-0.646425 -1.50704 7.74839 130 126 123
-0.387691 -0.154331 6.80308 121 119 124
-0.387691 -0.154331 6.80308 121 119 124
-0.390894 0.0699737 6.81966 125 124 119
-0.54872 -1.31942 7.44205 70 66 55
-0.373135 0.29444 6.79387 120 124 123
-0.376835 0.0759949 6.81789 88 80 69
-0.37736 -0.606877 6.83107 104 92 92
-0.604037 -1.72264 7.69319 90 76 73
-0.363292 -0.602647 6.82717 79 75 72
-0.562206 -1.45628 7.58993 98 98 86
-0.355889 -0.579371 6.84519 117 121 120
-0.522506 -1.32394 7.48126 59 55 54
-0.353133 -0.86978 6.87005 112 105 99
-0.366459 -0.981109 6.93529 86 78 75
-0.355114 -0.846103 6.90077 109 104 100
-0.358675 -0.924872 6.91528 76 66 65
-0.360959 -0.994922 6.9273 99 95 96
-0.499573 -1.32245 7.48549 109 101 98
-0.34245 -0.977461 6.90318 109 105 102
-0.346197 -0.974857 6.91984 108 107 102
-0.331518 -0.98207 6.92819 114 113 109
-0.307814 0.0408703 6.84385 64 62 65
-0.301818 0.0976145 6.84925 136 137 129
-0.297623 -0.605837 6.84723 79 69 78
-0.296303 0.0515346 6.86172 73 82 99
-0.460209 -1.43252 7.55661 110 98 86
-0.268496 -0.0353713 6.80627 74 91 107
-0.292029 -0.375359 6.90668 86 88 83
-0.266742 -0.17238 6.85911 105 103 104
-0.262473 0.0618965 6.88247 42 60 74
-0.265634 -0.567068 6.89742 109 115 111
-0.274448 -0.907216 6.93757 96 92 89
-0.245284 0.0729841 6.88067 34 53 70
-0.252846 -0.895656 6.92174 109 107 108
-0.256276 -0.872957 6.94012 112 110 111
-0.256276 -0.872957 6.94012 112 110 111
-0.216173 -0.205051 6.87602 124 126 121
-0.346292 -1.19683 7.43203 67 81 94
-0.211124 -0.201778 6.88488 119 123 122
-0.341385 -1.20156 7.43549 61 77 90
-0.205503 -0.679585 6.91801 97 102 96
-0.196462 -0.733896 6.96136 72 84 108
-0.192259 -0.683888 6.95612 108 113 106
-0.336006 -1.26279 7.64946 71 69 83
-0.344104 -1.26718 7.67918 71 69 83
-0.157672 -0.629755 6.91276 64 63 68
-0.157994 -0.700252 6.94274 110 108 111
-0.132345 -0.642394 6.88639 63 58 64
-0.122564 -0.694868 7.00751 107 112 106
-0.245919 -1.44923 7.6122 97 100 89
-0.229461 -1.30928 7.61066 107 100 107
-0.226074 -1.19877 7.61175 78 85 137
-0.22383 -1.19738 7.60533 79 85 137
-0.220902 -1.11963 7.59903 103 97 101
-0.219646 -1.21319 7.59355 28 34 50
-0.203658 -1.21473 7.6123 25 40 63
-0.192088 -1.36946 7.63547 52 47 53
-0.177297 -1.13153 7.61066 45 56 74
-0.0227754 -0.646242 6.92578 59 58 63
-0.0226249 -0.651923 6.95003 69 60 63
-0.0277237 -0.396169 6.97558 105 103 104
0.00641214 -0.141713 6.85191 111 122 126
-0.182279 -1.33781 7.80643 100 99 104
-0.134046 -1.32831 7.58064 57 47 56
-0.141791 -1.29617 7.7643 69 90 111
0.00847262 -0.693855 7.04149 95 100 103
-0.123399 -1.35988 7.68161 81 72 91
-0.0756863 -0.944087 7.46314 99 100 104
-0.133961 -1.28984 7.76719 86 98 112
0.0268463 -0.578808 7.02108 95 99 108
-0.103622 -1.36478 7.67776 57 49 64
0.0311034 -0.657642 7.03397 49 48 56
-0.0460479 -0.936581 7.44019 90 91 93
-0.0310968 -0.916524 7.43417 76 86 96
-0.0802522 -1.22879 7.69903 25 30 52
0.060933 -0.194959 6.98846 102 101 109
-0.0818155 -1.29365 7.82009 23 53 55
-0.0464313 -1.32407 7.8561 76 89 97
0.0842375 -0.585637 7.19053 85 93 96
0.106429 -0.0367749 7.10831 57 85 125
-0.0294576 -1.31296 7.85881 59 80 97
0.121041 -0.586162 7.19947 89 101 115
0.0126196 -1.2947 7.84189 67 66 62
0.133329 -0.426075 7.22294 60 65 68
0.0251035 -1.26345 7.83966 69 66 59
0.134594 -0.805348 7.24376 76 75 70
0.0272814 -1.27855 7.8505 73 70 63
0.20609 -0.0151324 7.19921 54 71 81
0.200572 -0.835921 7.28893 58 63 69
0.214851 -0.593009 7.23219 64 74 76
0.232218 -0.579036 7.25345 81 95 108
0.246959 -0.632664 7.28826 72 80 99
0.146902 -1.29017 7.92136 10 37 46
0.271838 -0.444642 7.29658 41 43 58
0.18451 -1.25863 7.87408 16 29 38
0.180126 -1.26193 7.89687 16 29 38
0.172647 -1.32148 7.94492 67 83 96
0.175513 -1.32783 7.93689 71 83 99
0.239912 -0.913322 7.54771 39 64 71
0.281256 -0.687056 7.29679 41 49 62
0.295427 -0.588944 7.23195 70 81 101
0.295292 -0.602142 7.2316 65 78 95
0.196618 -1.23881 7.86295 31 42 62
0.24822 -0.876433 7.54459 17 31 42
0.195308 -1.28585 7.90833 13 32 38
0.300661 -0.189674 7.27039 51 63 79
0.301251 -0.642842 7.29294 69 80 100
0.263235 -0.903775 7.57733 52 59 77
0.263235 -0.903775 7.57733 52 59 77
0.203704 -1.29181 7.96182 17 30 46
0.318404 -0.0235258 7.24219 49 67 79
0.326943 -0.502149 7.26216 52 60 79
0.281603 -0.896249 7.56255 21 33 45
0.332682 -0.492969 7.25897 39 50 72
0.330856 -0.374368 7.29212 57 69 83
-0.712761 0.54809 14.2786 61 73 87
0.347905 -0.544771 7.29379 48 48 60
0.348422 -0.203971 7.2879 57 66 83
0.361414 -0.104265 7.24948 73 87 100
0.367715 -0.0334591 7.24995 83 91 112
0.365152 -0.183507 7.28209 54 67 84
0.368385 -0.581706 7.2707 37 49 65
0.362963 -0.583576 7.29916 37 49 65
0.360742 -0.445704 7.31904 30 43 60
0.37025 -0.588438 7.29044 36 42 64
0.379832 -0.156669 7.30553 78 79 100
0.406504 -0.598465 7.3174 58 68 80
0.415746 -0.00799074 7.29546 57 70 87
0.431075 -0.512518 7.36143 81 96 115
0.445126 -0.150032 7.30799 94 109 128
0.440319 -0.632893 7.35848 73 92 109
0.421578 -0.841163 7.48514 86 102 117
0.443126 -0.248903 7.3382 88 105 123
0.437421 -0.647668 7.39321 80 97 113
0.448029 -0.260021 7.33562 94 106 128
0.458011 -0.0402962 7.28601 93 109 134
0.454306 -0.368375 7.31892 87 106 121
0.457764 0.0134919 7.30848 94 109 130
0.457764 0.0134919 7.30848 94 109 130
0.459332 -0.302972 7.30746 91 106 129
0.343305 -1.12809 8.17348 178 175 158
0.45611 -0.680369 7.4101 226 224 203
0.478058 -0.303169 7.32811 234 234 210
0.498736 0.166635 7.30003 242 235 217
0.500973 0.00517559 7.2873 236 230 204
0.485551 -0.77792 7.41187 239 227 215
0.498597 -0.575761 7.32702 244 230 219
0.431289 -1.28156 8.0112 255 247 251
0.514018 -0.805154 7.39023 244 234 224
0.519803 -0.827497 7.43532 233 220 211
0.542364 -0.799867 7.40889 247 237 228
0.549963 -0.606916 7.36608 243 230 222
0.475796 -1.28314 8.01717 93 113 140
0.568619 -0.161029 7.34033 247 237 228
0.568619 -0.161029 7.34033 247 237 228
0.588097 -0.0140381 7.35284 247 234 226
0.594418 -0.850157 7.42761 245 236 227
0.52636 -1.48485 8.12578 84 99 130
0.534902 -1.38568 8.10666 63 85 109
0.535021 -1.49002 8.1278 79 99 124
0.541395 -1.35972 8.08748 92 108 134
0.538729 -1.42013 8.12264 83 100 128
0.551308 -1.33768 8.08569 89 103 132
0.548529 -1.34032 8.10424 89 103 132
0.568363 -1.32671 8.08855 113 125 141
0.62441 -0.896285 7.69992 234 219 212
0.658517 -0.611465 7.4086 242 233 226
0.592751 -1.23291 8.0378 212 198 195
0.628365 -0.93432 7.71829 238 228 218
0.666087 -0.109068 7.37147 254 245 238
0.676391 -0.642339 7.48156 241 230 224
0.687411 -0.128992 7.39699 248 237 231
0.679075 -0.759861 7.49768 236 223 214
0.679075 -0.759861 7.49768 236 223 214
0.684679 -0.80612 7.47822 237 225 213
0.688502 -0.677568 7.49375 240 223 216
0.698043 -0.627996 7.45926 244 231 223
0.706184 -0.572475 7.44042 246 233 224
0.679092 -0.900931 7.72871 239 230 215
0.65586 -1.1988 8.00975 230 218 202
0.739228 -0.144033 7.42158 242 227 220
0.707843 -0.928208 7.76383 243 234 217
0.711881 -0.889915 7.73261 241 224 214
0.736178 -0.470734 7.48314 224 212 200
0.737723 -0.418811 7.47772 241 231 221
0.750998 -0.691311 7.50888 230 216 203
0.769814 -0.204716 7.44657 154 176 91
0.781897 -0.33727 7.45469 171 192 101
0.768773 -0.79218 7.66263 185 203 93
0.777799 -0.781314 7.65934 190 209 102
0.798687 0.0735047 7.43325 166 186 87
0.801671 0.0730573 7.41248 166 186 87
0.814405 -0.117434 7.31817 178 197 89
0.800165 -0.283509 7.48343 173 192 102
0.762088 -1.07496 7.93299 178 199 78
0.804229 -0.182875 7.47598 168 192 82
0.77268 -1.10059 7.9534 187 215 68
0.817923 -0.387875 7.49884 155 178 74
0.782143 -1.08894 7.95639 180 206 70
0.824545 -0.538085 7.49036 166 191 73
0.83165 0.0115932 7.45832 162 182 71
0.835721 -0.117902 7.46118 169 192 78
0.830948 -0.799904 7.54549 180 198 76
0.841727 0.0378542 7.44266 201 219 107
0.849982 0.301399 7.41679 159 185 84
0.849982 0.301399 7.41679 159 185 84
0.844687 -1.46871 7.52723 24 57 30
0.859 -0.643555 7.53485 184 206 71
0.867663 -0.0109574 7.44662 166 190 80
0.880272 -0.57181 7.5073 194 217 77
0.823407 -1.09157 8.36708 184 206 97
0.886906 -0.757865 7.57259 186 210 74
0.893182 -0.608139 7.51432 163 189 62
0.857448 -1.36029 8.19941 29 60 26
0.881686 -1.35988 8.163 55 83 35
0.939606 -0.821929 7.6128 165 199 52
0.940711 -0.825517 7.59736 172 202 56
0.918003 -1.37455 8.06549 23 61 24
0.928296 -1.37196 8.06433 19 54 24
0.963041 -0.459162 7.54308 177 201 79
0.941429 -1.30939 8.07633 66 96 32
0.944789 -1.2851 8.06424 82 120 37
0.944401 -1.37069 8.0795 34 60 33
0.949953 -1.25589 8.06118 115 147 46
0.963792 -1.37182 8.07819 51 81 27
1.00275 0.0501622 7.5036 179 205 80
0.967979 -1.31008 8.08487 113 143 43
0.967756 -1.31092 8.08737 113 143 43
0.975806 -1.11656 8.07131 168 196 59
0.981272 -1.09188 8.06541 175 199 59
1.02146 -0.19596 7.59155 161 185 63
0.996284 -0.939346 8.04698 174 198 74
0.996827 -1.30854 8.09305 132 161 55
0.9975 -1.37644 8.08311 49 79 25
1.03015 -0.191904 7.59541 149 177 54
1.00388 -1.38564 8.10231 53 87 27
1.00388 -1.38564 8.10231 53 87 27
1.03237 -0.635939 7.61058 178 203 57
1.00664 -1.16984 8.09124 166 195 55
1.00913 -1.13691 8.08321 170 200 54
1.01135 -1.39145 8.09134 66 93 38
1.0126 -1.37896 8.09447 88 118 46
1.01755 -1.01823 8.07928 169 190 59
1.02401 -0.927954 8.07075 169 190 61
1.07222 0.0494678 7.53614 149 175 50
1.07464 -0.62816 7.6305 176 200 60
1.0747 -0.628415 7.63021 176 200 60
1.08682 -0.344755 7.58703 192 215 81
1.08857 -0.311613 7.593 193 214 73
1.08857 -0.311613 7.593 193 214 73
1.10632 0.0239358 7.56087 175 203 56
1.12202 -0.174513 7.59814 180 204 66
1.12202 -0.174513 7.59814 180 204 66
1.12899 -0.0531046 7.57394 188 209 68
1.12901 -0.227641 7.59838 175 201 52
1.13196 0.0432195 7.56018 163 188 60
1.13449 -0.19606 7.5877 159 179 48
1.09639 -1.27605 8.57244 156 184 61
1.13798 -0.549352 7.63589 139 158 50
1.14336 -0.102076 7.57634 186 208 73
1.15601 -0.27291 7.60313 165 189 53
1.16245 -0.150146 7.59185 182 209 70
1.1773 0.16437 7.55851 165 186 85
1.18948 -0.0979472 7.56629 166 191 71
1.17654 -1.36323 8.2144 139 171 64
1.21356 -0.0815832 7.54136 185 210 83
1.19432 -1.36889 8.17517 149 181 44
1.19692 -1.35693 8.18112 175 209 63
1.20116 -1.36265 8.17816 161 190 50
1.22465 -0.817448 7.46036 181 209 62
1.23265 -0.822811 7.42291 176 203 48
1.21037 -1.33547 8.18411 152 184 49
1.21281 -1.36965 8.1678 128 161 56
1.21319 -1.27751 8.18574 164 196 37
1.23568 -0.820328 7.43777 159 184 40
1.21476 -1.28853 8.17593 168 200 57
1.21748 -1.36805 8.17856 122 158 52
1.21763 -1.36798 8.17653 122 158 52
1.22405 -1.35398 8.17742 124 160 62
1.25112 -0.824885 7.39423 184 210 39
1.2575 -0.603833 7.31912 0 0 0
1.23579 -1.32925 8.18941 0 0 0
1.25495 -1.35975 8.18852 0 0 0
1.26181 -1.32834 8.20284 0 0 0
1.26181 -1.32834 8.20284 0 0 0
1.26215 -1.35616 8.20159 0 0 0
1.26215 -1.35616 8.20159 0 0 0
1.27072 -1.38953 8.24319 0 0 0
1.27203 -1.35998 8.19997 0 0 0
1.28966 -1.35481 8.21162 0 0 0
1.29621 -1.38969 8.25703 0 0 0
1.30819 -1.38698 8.24421 0 0 0
1.33095 0.204877 7.25758 0 0 0
1.3395 -0.788798 7.26353 0 0 0
1.32558 -1.38299 8.24705 0 0 0
1.35536 -0.503353 7.15894 0 0 0
1.34548 -1.23706 7.99412 0 0 0
1.34353 -1.3528 8.23146 0 0 0
1.34353 -1.3528 8.23146 0 0 0
1.34467 -1.38198 8.2541 0 0 0
1.36333 -0.625552 7.08415 0 0 0
1.34722 -1.38606 8.26376 0 0 0
1.35506 -1.3508 8.23623 0 0 0
1.36889 -0.771981 7.26935 0 0 0
1.36027 -1.38318 8.25607 0 0 0
1.37619 -0.477151 7.15799 0 0 0
1.38051 -0.59847 7.13758 0 0 0
1.39613 -0.83402 7.28246 0 0 0
1.40264 -1.36674 8.244 0 0 0
1.43359 -0.661155 6.91078 0 0 0
1.43359 -0.661155 6.91078 0 0 0
1.44323 -0.183811 6.99612 0 0 0
1.44486 0.0241559 7.0139 0 0 0
1.45402 -0.270474 6.99912 0 0 0
1.46107 -0.0954814 6.98472 0 0 0
1.46339 -0.640541 6.92723 0 0 0
1.47598 -0.654888 6.91814 0 0 0
1.48558 -1.25847 7.71989 0 0 0
1.48552 -0.0523435 6.95979 0 0 0
1.49938 -0.360037 6.97626 0 0 0
1.50217 -0.737209 7.02815 0 0 0
1.50658 -0.800906 7.08318 0 0 0
1.50671 -0.789156 7.07455 0 0 0
1.51146 -0.786528 7.07549 0 0 0
1.5111 -0.168402 6.90142 0 0 0
1.52274 -1.27362 7.62304 0 0 0
1.53997 -0.919269 7.19635 0 0 0
1.53951 0.18771 6.8995 0 0 0
1.55068 -0.469341 6.97205 0 0 0
1.55273 -0.429863 6.97552 0 0 0
1.55361 -0.517076 6.98209 0 0 0
1.55722 -0.582486 7.00312 0 0 0
1.55811 -0.272255 6.96153 0 0 0
1.56359 -1.06583 7.32235 0 0 0
1.56693 0.0826354 6.90557 0 0 0
1.57012 -0.662347 6.97978 0 0 0
1.5785 -1.45904 7.54483 0 0 0
1.57841 -1.43757 7.54165 0 0 0
1.57495 -0.397119 6.98578 0 0 0
1.58493 -1.36565 7.52946 0 0 0
1.58556 -1.46568 7.55191 0 0 0
1.58548 -1.33916 7.52698 0 0 0
1.58565 -1.37794 7.53429 0 0 0
1.57793 -0.253672 6.96652 0 0 0
1.57782 -0.211775 6.96129 0 0 0
1.58705 -1.45505 7.54563 0 0 0
1.58706 -1.34834 7.52915 0 0 0
1.58844 -1.29101 7.49551 0 0 0
1.58289 -0.242336 6.96466 0 0 0
1.59256 -1.25848 7.47711 0 0 0
1.59323 -1.44445 7.55638 0 0 0
1.59387 -1.30585 7.51028 0 0 0
1.59884 -1.2272 7.46318 0 0 0
1.59164 0.251235 6.89464 0 0 0
1.59164 0.251235 6.89464 0 0 0
1.59259 -0.294752 6.97006 0 0 0
1.60284 -1.32374 7.52325 0 0 0
1.59518 -0.281744 6.97661 0 0 0
1.59606 0.193418 6.90081 0 0 0
1.60619 -1.3614 7.54116 0 0 0
1.60457 -1.19986 7.45045 0 0 0
1.59911 0.238266 6.89808 0 0 0
1.59966 0.0519115 6.92389 0 0 0
1.60068 0.324103 6.89053 0 0 0
1.61082 -1.35652 7.54868 0 0 0
1.61177 -1.28174 7.5081 0 0 0
1.61163 -1.28353 7.51615 0 0 0
1.60384 -0.459145 6.99154 0 0 0
1.60348 0.283075 6.88943 0 0 0
1.61603 -1.3459 7.52942 0 0 0
1.60615 -0.21909 6.9637 0 0 0
1.60602 0.149431 6.92503 0 0 0
1.60727 0.233536 6.90433 0 0 0
1.6179 -1.19413 7.4473 0 0 0
1.61058 -0.571041 7.031 0 0 0
1.62228 -1.30378 7.52054 0 0 0
1.61373 -0.259203 6.98406 0 0 0
1.63516 -1.22391 7.46763 0 0 0
1.6377 -1.29311 7.52586 0 0 0
1.6377 -1.29311 7.52586 0 0 0
1.64235 -1.28261 7.53234 0 0 0
1.6426 -1.27974 7.51647 0 0 0
1.63324 -0.51029 7.02762 0 0 0
1.64404 -1.21096 7.47569 0 0 0
1.63288 0.00559916 6.93652 0 0 0
1.63288 0.00559916 6.93652 0 0 0
1.64532 -1.27003 7.51907 0 0 0
1.63451 -0.27151 6.98866 0 0 0
1.6433 -0.854639 7.17659 0 0 0
1.64205 -0.130623 6.97397 0 0 0
1.64299 -0.127471 6.96908 0 0 0
1.64299 -0.127471 6.96908 0 0 0
1.64487 0.0246161 6.96486 0 0 0
1.65139 -0.841174 7.17928 0 0 0
1.64968 -0.264213 7.00625 0 0 0
1.66282 -1.19385 7.47114 0 0 0
1.65397 -0.230174 6.98688 0 0 0
1.66595 -1.2098 7.48555 0 0 0
1.65524 -0.458191 7.01862 0 0 0
1.65759 -0.713762 7.08866 0 0 0
1.66131 -0.247176 7.06704 0 0 0
1.67176 -1.23905 7.50101 0 0 0
1.6596 -0.392018 7.008 0 0 0
1.66108 -0.672332 7.02257 0 0 0
1.66247 0.187846 6.94408 0 0 0
1.66269 0.186992 6.92985 0 0 0
1.66269 0.186992 6.92985 0 0 0
1.68212 -1.23768 7.49424 0 0 0
1.67212 -0.218542 7.00452 0 0 0
1.67329 -0.453218 7.03225 0 0 0
1.67757 -0.84675 7.13083 0 0 0
1.67989 -0.149152 6.9993 0 0 0
1.68496 -0.703164 7.07628 0 0 0
1.68434 -0.308881 7.01792 0 0 0
1.68558 -0.297237 7.01821 0 0 0
1.68723 -0.381776 7.04314 0 0 0
1.68723 -0.381776 7.04314 0 0 0
1.6879 -0.514121 7.04676 0 0 0
1.68856 -0.137877 6.99011 0 0 0
1.69045 -0.469204 7.03611 0 0 0
1.68887 0.0629058 6.97645 0 0 0
1.69701 -0.804649 7.10424 0 0 0
1.69469 0.192303 6.94967 0 0 0
1.70463 -0.804225 7.10999 0 0 0
1.7046 -0.26958 7.02272 0 0 0
1.70695 -0.704491 7.10194 0 0 0
1.70601 0.186735 6.96987 0 0 0
1.71073 -0.292625 7.03088 0 0 0
1.71071 0.213834 6.95555 0 0 0
1.71071 0.213834 6.95555 0 0 0
1.7129 -0.616312 7.06302 0 0 0
1.71137 0.145804 6.95805 0 0 0
1.71137 0.145804 6.95805 0 0 0
1.71372 -0.544221 7.04705 0 0 0
1.71223 0.325512 6.96286 0 0 0
1.71333 -0.229175 7.01889 0 0 0
1.71621 0.204754 6.96621 0 0 0
1.72173 -0.867774 7.08942 0 0 0
1.72003 0.0963361 6.96867 0 0 0
1.72427 -0.863414 7.09958 0 0 0
1.72079 0.25604 6.94254 0 0 0
1.7236 -0.325099 7.02502 0 0 0
1.72169 0.358655 6.93369 0 0 0
1.7231 0.0931021 6.98984 0 0 0
1.7316 -0.0770821 6.9917 0 0 0
1.73455 -0.299537 7.03648 0 0 0
1.73626 0.22733 6.95865 0 0 0
1.73617 0.228959 6.97587 0 0 0
1.73768 0.183036 6.95649 0 0 0
1.74145 0.313764 6.94524 0 0 0
1.74568 -0.16729 7.01302 0 0 0
1.75142 -0.861764 7.10871 0 0 0
1.75328 -0.368361 7.04151 0 0 0
1.75997 -0.0910069 7.00887 0 0 0
1.76509 -0.0882125 6.98044 0 0 0
1.7674 0.255355 6.99559 0 0 0
1.7772 -0.775423 7.16556 0 0 0
1.76999 0.348456 6.93843 0 0 0
1.77925 -0.861372 7.12054 0 0 0
1.79982 -1.09627 7.45883 0 0 0
1.78334 0.454062 6.94494 0 0 0
1.79208 -0.892481 7.16498 0 0 0
1.79332 -0.895358 7.13527 0 0 0
1.79332 -0.895358 7.13527 0 0 0
1.79031 0.230613 6.98271 0 0 0
1.79985 -0.913835 7.15435 0 0 0
1.80156 -0.880011 7.15801 0 0 0
1.81983 -1.05279 7.43116 0 0 0
1.81015 -0.419857 7.11981 0 0 0
1.80878 -0.636465 7.07918 0 0 0
1.83278 -1.03782 7.42844 0 0 0
1.82024 0.112243 7.05862 0 0 0
1.82368 0.173617 7.02007 0 0 0
1.84327 -1.01196 7.40427 0 0 0
1.83955 -0.881827 7.1585 0 0 0
1.8432 -0.338235 7.12592 0 0 0
1.84896 -0.821927 7.19343 0 0 0
1.868 -0.445453 7.15802 0 0 0
1.86908 -0.3677 7.14211 0 0 0
1.87752 -0.861513 7.17357 0 0 0
1.87778 -0.634698 7.10457 0 0 0
1.88232 -0.806226 7.16484 0 0 0
1.91175 -0.950858 7.38508 0 0 0
1.90392 -0.861143 7.17197 0 0 0
1.90557 -0.798893 7.19138 0 0 0
1.89992 0.0753792 7.06146 0 0 0
1.89992 0.0753792 7.06146 0 0 0
1.9045 -0.474079 7.15352 0 0 0
1.90469 0.112484 7.10096 0 0 0
1.91788 -0.837617 7.19867 0 0 0
1.90529 0.429961 6.98548 0 0 0
1.53202 -0.0453799 1.13535 0 0 0
1.91942 0.0125652 7.10549 0 0 0
1.93025 -0.194417 7.09868 0 0 0
1.92919 0.465519 7.01337 0 0 0
1.92919 0.465519 7.01337 0 0 0
1.93735 -0.252339 7.10219 0 0 0
1.95262 -0.471276 7.16302 0 0 0
1.96173 -0.598758 7.1913 0 0 0
1.96861 -0.698432 7.22602 0 0 0
1.97651 -0.24122 7.11505 0 0 0
1.97651 -0.24122 7.11505 0 0 0
1.97687 -0.0868854 7.08339 0 0 0
1.98193 -0.400811 7.16958 0 0 0
1.98299 -0.210444 7.12235 0 0 0
1.98433 0.257239 7.09282 0 0 0
1.9911 -0.229001 7.16526 0 0 0
1.99437 -0.244231 7.13521 0 0 0
1.99645 -0.133777 7.11248 0 0 0
2.00291 -0.603896 7.19092 0 0 0
2.00213 -0.326794 7.17695 0 0 0
2.01117 -0.227902 7.13726 0 0 0
2.01312 -0.292902 7.14486 0 0 0
2.01426 0.0169891 7.09261 0 0 0
2.01426 0.0169891 7.09261 0 0 0
2.02234 -0.355777 7.16646 0 0 0
2.02555 -0.56336 7.21615 0 0 0
2.01968 0.184917 7.11039 0 0 0
2.02013 0.147709 7.084 0 0 0
2.02605 -0.323537 7.1888 0 0 0
2.02268 0.0308176 7.13083 0 0 0
2.02631 -0.288864 7.15769 0 0 0
2.02789 -0.278402 7.18374 0 0 0
2.02444 0.255927 7.10549 0 0 0
2.02982 -0.362595 7.16104 0 0 0
2.02982 -0.362595 7.16104 0 0 0
2.02734 0.299139 7.10102 0 0 0
2.03102 -0.00304188 7.14783 0 0 0
1.87635 0.415036 5.1655 0 0 0
1.87635 0.415036 5.1655 0 0 0
2.03268 0.0480868 7.10406 0 0 0
2.03458 0.0823546 7.14119 0 0 0
2.03464 0.0818805 7.13239 0 0 0
2.03664 0.151549 7.12908 0 0 0
2.03803 0.0864515 7.14078 0 0 0
2.04106 -0.148193 7.1708 0 0 0
2.04185 -0.0622361 7.13121 0 0 0
2.04267 0.251662 7.09098 0 0 0
2.04991 -0.422459 7.20699 0 0 0
2.04991 -0.422459 7.20699 0 0 0
2.04398 0.125366 7.09747 0 0 0
2.05195 -0.455889 7.22031 0 0 0
2.04803 0.00119176 7.13527 0 0 0
2.05215 0.32922 7.10745 0 0 0
2.06271 -0.0945771 7.17141 0 0 0
2.05921 0.400059 7.08241 0 0 0
2.07134 -0.438887 7.19876 0 0 0
2.08402 -0.49179 7.25073 0 0 0
2.08227 0.0587155 7.12535 0 0 0
2.08525 -0.158644 7.14099 0 0 0
2.08725 0.181898 7.114 0 0 0
2.09742 -0.300029 7.18602 0 0 0
2.10299 -0.544755 7.21634 0 0 0
2.10372 -0.22139 7.18371 0 0 0
2.10524 -0.331652 7.18671 0 0 0
2.1054 -0.0550079 7.15544 0 0 0
2.11202 -0.338021 7.19819 0 0 0
2.11202 -0.338021 7.19819 0 0 0
2.11484 -0.328209 7.2274 0 0 0
2.11461 -0.282865 7.19089 0 0 0
2.11752 -0.272662 7.2218 0 0 0
2.11776 -0.238502 7.19018 0 0 0
2.11893 -0.250073 7.18713 0 0 0
2.12412 -0.400355 7.20795 0 0 0
2.13094 -0.692933 7.26139 0 0 0
2.12054 0.266413 7.11685 0 0 0
2.12795 -0.340223 7.20859 0 0 0
2.12652 0.0496263 7.17899 0 0 0
2.13002 -0.321534 7.19838 0 0 0
2.14078 -0.38438 7.23749 0 0 0
2.14987 -0.0627255 7.16952 0 0 0
2.14698 0.325448 7.1272 0 0 0
2.15885 -0.630009 7.253 0 0 0
2.16611 -0.694058 7.27475 0 0 0
2.15645 0.0723872 7.15446 0 0 0
2.1579 0.106791 7.186 0 0 0
2.17061 0.334377 7.12602 0 0 0
2.17295 0.312528 7.1276 0 0 0
2.21623 -0.629387 7.24767 0 0 0
2.21683 -0.148677 7.20798 0 0 0
2.21683 -0.148677 7.20798 0 0 0
2.22139 -0.0604291 7.20524 0 0 0
2.2261 -0.629931 7.25405 0 0 0
2.22511 -0.17409 7.21236 0 0 0
2.23189 -0.64851 7.27641 0 0 0
2.23289 -0.176944 7.21082 0 0 0
2.23492 -0.085894 7.19842 0 0 0
2.23711 -0.0859005 7.2328 0 0 0
2.23876 -0.170941 7.20464 0 0 0
2.23509 0.367111 7.15601 0 0 0
2.24264 -0.0795539 7.19831 0 0 0
2.10206 0.467799 5.87783 0 0 0
2.24804 -0.167286 7.23666 0 0 0
2.32701 0.489805 6.16506 0 0 0
2.51327 -0.35379 7.22574 0 0 0
2.52519 -0.36214 7.2157 0 0 0
2.54194 -0.434969 7.22684 0 0 0
2.54936 -0.283601 7.25899 0 0 0
2.54364 -0.291132 7.20549 0 0 0
2.54817 -0.20876 7.18709 0 0 0
2.55228 -0.277753 7.21545 0 0 0
2.54846 -0.340045 7.18337 0 0 0
2.55706 -0.324874 7.18797 0 0 0
2.56429 0.480526 6.23836 0 0 0
-2.98869 0.469299 5.52011 194 240 255
-2.3837 -0.217058 5.37328 226 254 255
-2.37985 -0.209048 5.36963 225 255 255
-2.38092 -0.221398 5.37713 225 255 255
-2.37663 -0.213177 5.37488 226 254 255
-2.37663 -0.213177 5.37488 226 254 255
-2.37695 -0.194445 5.38279 225 253 255
-2.38298 -0.685935 5.39622 237 255 255
-2.39772 -0.696296 5.41178 239 255 255
-2.37046 -0.0766759 5.37536 218 253 255
-2.37118 -0.0866115 5.37739 219 253 254
-2.37653 -0.22574 5.38773 225 253 254
-2.40716 -0.666748 5.45703 237 255 255
-2.38044 -0.641556 5.43967 237 255 255
-2.38044 -0.641556 5.43967 237 255 255
-2.35818 -0.544201 5.41841 235 255 254
-2.37433 -0.595297 5.44091 236 254 254
-2.37433 -0.595297 5.44091 236 254 254
-2.29041 0.252647 5.338 211 248 254
-2.37169 -0.589041 5.44417 237 255 255
-2.35657 -0.587049 5.42832 237 255 255
-2.37209 -0.482928 5.44452 232 253 254
-2.29975 0.113734 5.36665 216 251 255
-2.27922 0.260772 5.34507 212 249 255
-2.38361 -0.72458 5.48484 241 255 255
-2.2969 0.0915591 5.37879 217 252 255
-2.34638 -0.624608 5.44611 239 255 255
-2.27702 0.232149 5.36097 215 250 255
-2.35496 -0.725128 5.46073 241 255 255
-2.27248 0.273206 5.35591 212 249 255
-2.27859 0.22183 5.36578 216 249 255
-2.27603 0.143849 5.37479 214 252 255
-2.27603 0.121896 5.37802 217 252 255
-2.23742 0.281894 5.33783 214 249 255
-2.31106 -0.669538 5.43142 239 255 255
-2.28853 -0.0755239 5.40103 222 253 255
-2.28232 -0.0797921 5.41222 223 254 255
-2.28743 -0.454523 5.45576 235 255 254
-2.30159 -0.624267 5.4774 239 255 255
-2.22775 0.0942629 5.38543 218 251 255
-2.22795 -0.023991 5.39862 219 253 255
-2.32874 -0.805642 5.53167 243 255 255
-2.25395 -0.492004 5.454 236 254 254
-2.31818 -0.804867 5.53266 243 255 255
-2.18744 0.286218 5.38948 216 249 255
-2.17665 0.131575 5.41587 221 250 255
-2.16908 7.20463e-05 5.43609 220 254 255
-2.19215 -0.32011 5.47289 233 254 255
-2.18394 -0.405297 5.46692 235 255 254
-2.16154 -0.2798 5.43847 231 255 255
-2.14307 0.208906 5.41454 215 253 255
-2.14447 0.173453 5.41665 218 252 254
-2.20926 -0.479491 5.50414 237 255 255
-2.18392 -0.40692 5.47684 235 255 254
-2.1797 -0.395659 5.47232 235 255 255
-2.19819 -0.430155 5.49778 235 255 254
-2.12742 0.0709882 5.41378 222 253 255
-2.13458 -0.00273116 5.42556 222 253 255
-2.14889 -0.0830353 5.45399 225 255 255
-2.15869 -0.27546 5.48588 229 255 254
-2.26209 -0.915489 5.63751 249 255 255
-2.15392 -0.440752 5.50798 237 255 255
-2.1466 -0.506901 5.50642 241 255 255
-2.15333 -0.463491 5.51472 239 255 255
-2.08831 -0.127923 5.43876 227 255 255
-2.10117 -0.392639 5.49507 236 254 254
-2.09234 -0.457099 5.49114 239 255 255
-2.09966 -0.708592 5.50398 246 254 255
-2.14266 -0.742252 5.56131 247 255 255
-2.06493 -0.233121 5.47944 231 255 255
-2.11872 -0.797158 5.58556 249 255 255
-2.09842 -0.587955 5.56062 245 255 255
-2.05789 0.0359029 5.51238 225 255 255
-2.05789 0.0359029 5.51238 225 255 255
-2.02182 0.273353 5.48228 218 252 254
-2.01704 -0.104535 5.48755 229 255 254
-2.01704 -0.104535 5.48755 229 255 254
-2.07949 -0.890618 5.57725 251 255 255
-2.08563 -0.792467 5.58386 249 255 255
-2.02521 -0.0293207 5.52086 227 255 255
-2.01989 0.0199012 5.51855 228 254 255
-2.06652 -0.875225 5.58759 251 255 255
-2.01139 0.0364357 5.51612 226 254 255
-2.00504 -0.674261 5.55877 249 255 255
-1.94966 -0.208498 5.49185 234 254 255
-1.90945 0.281694 5.43986 221 252 255
-1.95862 0.194117 5.50328 215 253 255
-1.96503 -0.0533661 5.52161 229 255 254
-1.96205 0.0717324 5.5207 226 254 255
-1.93171 0.284258 5.48311 222 253 255
-1.93586 0.276592 5.49461 222 253 255
-2.0225 -0.915998 5.67443 253 254 255
-1.90976 -0.5976 5.58294 247 255 255
-1.91924 -0.584154 5.59917 246 254 255
-1.83442 0.2747 5.48657 221 252 254
-1.85518 0.21291 5.5175 223 254 255
-1.85518 0.21291 5.5175 223 254 255
-1.93433 -0.899275 5.6477 253 254 255
-1.85059 0.135178 5.53099 55 56 123
-1.84306 -0.0581308 5.53433 234 254 255
-1.87328 -0.295661 5.57681 240 255 255
-1.87392 -0.687457 5.59224 249 255 255
-1.85018 -0.0775979 5.55668 231 255 255
-1.82846 0.0515353 5.54704 229 255 254
-1.90056 -0.800316 5.65891 253 254 255
-1.85386 -0.248752 5.59594 239 255 255
-1.84681 -0.27021 5.58876 239 255 255
-1.834 -0.458715 5.60799 245 255 255
-1.82122 -0.451593 5.60981 246 254 255
-1.76221 0.148149 5.53509 220 255 255
-2.12277 -1.45294 6.02694 255 255 255
-1.79931 -0.166374 5.59172 237 255 255
-1.79931 -0.166374 5.59172 237 255 255
-1.77828 0.0111589 5.57155 233 254 255
-1.77828 0.0111589 5.57155 233 254 255
-2.05695 -1.21531 5.95032 255 255 255
-1.81914 -0.559813 5.63948 249 255 255
-2.11714 -1.47214 6.04282 255 255 255
-1.78892 -0.247251 5.59972 241 255 255
-2.11127 -1.49091 6.03647 255 255 255
-2.11021 -1.44913 6.03976 255 255 255
-2.1135 -1.44833 6.04338 255 255 255
-2.1135 -1.44833 6.04338 255 255 255
-2.11053 -1.48718 6.0464 255 255 255
-2.11053 -1.48718 6.0464 255 255 255
-1.82015 -0.64951 5.6559 251 255 255
-2.10305 -1.36923 6.04774 252 252 254
-2.10444 -1.36811 6.0491 252 252 254
-1.77298 -0.318545 5.6048 243 255 255
-2.10289 -1.43674 6.05183 255 255 255
-2.10751 -1.36402 6.06149 169 196 189
-1.75698 -0.000624412 5.58658 233 254 255
-1.76826 -0.353414 5.60505 243 255 255
-1.73446 0.139021 5.5666 91 108 134
-1.75973 -0.249905 5.61462 241 255 255
-1.99872 -1.1828 5.94951 162 166 178
-1.71017 0.248226 5.55291 224 254 255
-1.69515 0.245034 5.5371 224 254 255
-1.97061 -1.14167 5.91729 133 133 143
-1.78536 -0.636273 5.66793 253 254 255
-1.71007 0.225097 5.56146 194 223 253
-1.78124 -0.649123 5.66798 251 255 255
-1.74226 -0.278873 5.61839 243 254 255
-1.70525 0.224223 5.5657 196 226 250
-1.75681 -0.401344 5.64291 246 254 255
-1.69632 0.280972 5.55579 224 255 255
-1.91619 -1.03893 5.86267 255 255 255
-1.76946 -0.688853 5.668 251 255 255
-1.74837 -0.366936 5.63835 245 255 255
-1.72442 -0.130493 5.61037 236 254 254
-1.69207 0.199662 5.57485 77 91 138
-1.72814 -0.296864 5.63643 243 255 255
-1.72981 -0.485068 5.64533 249 255 255
-1.89172 -1.02848 5.86811 255 255 255
-1.71366 -0.407069 5.63312 246 254 255
-1.70202 -0.0959539 5.61462 185 194 209
-1.71022 -0.302195 5.64086 243 255 255
-1.71031 -0.324952 5.64558 243 255 255
-2.38926 -1.40697 6.57968 135 153 193
-1.71519 -0.48538 5.66168 249 255 255
-1.7235 -0.644393 5.67453 248 252 251
-1.71554 -0.536054 5.66534 249 255 255
-2.38451 -1.3888 6.58609 126 151 181
-1.7004 -0.352018 5.64871 245 255 255
-2.3821 -1.37022 6.59009 80 101 148
-1.8153 -0.930498 5.81783 255 255 255
-1.70565 -0.543541 5.66718 249 255 255
-1.70469 -0.631766 5.68096 164 200 222
-1.69584 -0.490336 5.67254 248 253 255
-1.79663 -0.921894 5.81763 244 255 255
-1.61153 0.307999 5.55982 225 253 255
-2.34814 -1.35107 6.60278 71 98 141
-1.65304 -0.288211 5.65578 138 179 201
-2.33559 -1.35121 6.61433 72 95 137
-2.31252 -1.32252 6.6127 76 99 141
-2.29475 -1.26456 6.59112 91 106 139
-1.6038 -0.198692 5.635 83 88 118
-2.29299 -1.33657 6.61884 71 93 140
-2.29355 -1.32403 6.62447 72 95 136
-2.29584 -1.32429 6.62737 72 95 136
-2.28195 -1.256 6.60898 88 96 132
-1.67916 -0.0112949 5.79899 49 64 97
-1.70385 -0.756875 5.86026 253 255 254
-2.27045 -1.344 6.66926 74 95 138
-2.26029 -1.32767 6.68628 67 90 134
-2.25942 -1.36733 6.68779 136 166 200
-1.76188 -0.777001 5.98881 255 255 255
-1.75699 -0.820985 5.98891 255 255 255
-2.24932 -1.3646 6.69666 125 155 189
-2.49125 -1.24393 7.05549 242 230 255
-2.49746 -1.24565 7.06384 242 230 255
-2.49222 -1.35512 7.07897 85 99 144
-1.72884 -0.858849 6.00518 113 108 162
-1.87007 -0.245968 6.31154 62 85 119
-1.87306 -0.168246 6.3263 60 80 115
-1.85358 -0.562656 6.38218 51 70 110
-1.82714 -0.213123 6.34317 57 72 111
-1.80256 -0.599158 6.36746 46 68 105
-2.07592 -1.21064 6.78343 87 110 141
-2.0792 -1.36547 6.7898 59 79 116
-2.05413 -1.01444 6.75848 90 111 138
-2.05285 -1.19094 6.78716 89 102 136
-2.05068 -1.20486 6.78863 89 104 147
-1.76871 -0.21082 6.37276 45 64 104
-2.05843 -1.32381 6.82291 122 152 186
-2.02979 -1.30688 6.80902 134 173 206
-1.7702 -0.695582 6.4515 38 63 93
-2.08394 -1.04271 6.95783 83 103 128
-2.13945 -1.17099 7.14617 102 113 158
-1.69603 -0.851331 6.4835 44 64 97
-1.63615 -0.181793 6.41595 51 69 105
-1.63615 -0.181793 6.41595 51 69 105
-1.63728 -0.776825 6.49544 47 67 104
-1.62045 -0.797932 6.50015 54 71 101
-1.61313 -0.819663 6.50534 144 144 132
-1.61076 -0.693388 6.50688 68 88 115
-1.81865 -1.10673 6.85348 63 79 113
-1.59036 -0.655818 6.49216 149 157 160
-1.55227 -0.175274 6.43333 58 72 109
-1.58575 -0.814899 6.52444 120 115 109
-1.5384 -0.52558 6.49455 139 140 135
-1.53298 -0.518419 6.49476 133 135 132
-1.49343 -0.0907688 6.45608 101 139 188
-1.49866 -0.210123 6.47083 143 140 147
-1.50253 -0.354612 6.49424 134 134 134
-1.5181 -0.709789 6.56649 50 69 101
-1.4698 -0.640074 6.48992 143 147 148
-1.48322 -0.494885 6.51514 32 53 72
-1.46406 -0.311164 6.50116 82 114 155
-1.46406 -0.311164 6.50116 82 114 155
-1.46279 -0.345727 6.50721 152 157 160
-1.7875 -1.31841 7.09052 167 162 158
-1.75163 -1.29156 7.06562 165 164 170
-1.75163 -1.29156 7.06562 165 164 170
-1.77666 -1.39053 7.12213 84 72 82
-1.78118 -1.46591 7.13185 92 86 98
-1.44538 -0.650919 6.56513 153 156 163
-1.76406 -1.41569 7.11082 114 103 109
-1.75726 -1.34563 7.10163 160 162 159
-1.56859 -0.958768 6.78027 110 126 152
-1.44337 -0.67417 6.5728 127 130 139
-1.44382 -0.707268 6.58194 57 72 111
-1.76961 -1.43169 7.1408 100 95 99
-1.76961 -1.43169 7.1408 100 95 99
-1.4454 -0.796672 6.58914 68 88 123
-1.76923 -1.48292 7.14855 72 70 75
-1.76923 -1.48292 7.14855 72 70 75
-1.54868 -0.962552 6.7779 118 131 147
-1.54868 -0.962552 6.7779 118 131 147
-1.74954 -1.39622 7.12627 92 92 100
-1.74581 -1.41894 7.1251 106 101 105
-1.74581 -1.41894 7.1251 106 101 105
-1.74764 -1.37056 7.13185 115 112 121
-1.69017 -1.28313 7.09459 145 159 170
-1.3938 -0.814542 6.59847 73 90 120
-1.6986 -1.32179 7.12999 153 161 163
-1.3608 -0.837851 6.60441 142 138 126
-1.62453 -1.30068 7.14029 89 100 106
-1.32287 -0.837392 6.63414 130 122 103
-1.28705 -0.81252 6.63045 122 123 127
-1.53747 -1.26348 7.11376 147 144 153
-1.53747 -1.26348 7.11376 147 144 153
-1.23611 -0.143884 6.56813 64 57 64
-1.25954 -0.816456 6.63534 123 133 135
-1.18265 -0.0401637 6.54114 123 131 134
-1.49141 -1.31973 7.17926 153 160 170
-1.16443 -0.0960738 6.58503 153 155 152
-1.49146 -1.30158 7.2051 135 150 153
-1.2006 -0.659606 6.66897 128 126 127
-1.18033 -0.653873 6.66128 132 134 129
-1.13639 -0.0196886 6.58814 147 152 156
-1.12848 -0.352343 6.64024 143 144 148
-1.12848 -0.352343 6.64024 143 144 148
-1.23984 -0.904482 6.89365 84 91 101
-1.11503 -0.486037 6.66916 122 116 116
-1.08626 -0.023041 6.61682 157 159 156
-1.11166 -0.551887 6.67291 86 99 116
-1.09397 -0.355944 6.65964 98 104 116
-1.08192 -0.188331 6.63715 117 122 125
-1.06009 -0.504442 6.59997 132 135 140
-1.09018 -0.508495 6.65726 132 135 140
-1.08344 -0.274382 6.6458 70 92 116
-1.22398 -0.939375 6.91676 67 90 124
-1.09545 -0.528213 6.67216 134 135 140
-1.05061 -0.520692 6.65816 147 148 152
-1.169 -0.91675 6.89778 82 109 139
-1.18073 -0.960434 6.93735 65 81 107
-1.15104 -0.911341 6.92221 89 105 130
-1.01736 -0.795692 6.72843 113 117 103
-1.02728 -0.820301 6.75006 131 130 125
-1.00048 -0.650342 6.73781 104 127 161
-0.952763 -0.817527 6.75881 131 130 138
-0.943485 -0.862303 6.76006 62 82 117
-0.949775 -0.817536 6.77646 133 132 137
-0.935694 -0.344191 6.75136 95 116 143
-1.15834 -1.29642 7.30679 135 143 145
-0.873192 -0.774227 6.79452 83 80 89
-0.872284 -0.765341 6.81485 80 78 91
-0.872284 -0.765341 6.81485 80 78 91
-1.10973 -1.29067 7.32422 85 94 103
-1.08319 -1.29012 7.33 113 106 98
-0.800096 -0.5135 6.7538 136 139 148
-0.685491 -0.619627 6.62012 61 76 107
-0.983255 -1.35821 7.26643 157 159 154
-0.720084 -0.672699 6.71123 88 98 108
-0.502812 0.485886 6.27846 92 97 103
-0.64774 -0.197645 6.60876 103 112 121
-0.642386 -0.615322 6.63822 110 106 107
-0.680786 -0.689348 6.72744 117 112 109
-0.67814 -0.707056 6.7319 108 107 103
-0.898998 -1.20366 7.28117 108 105 114
-0.887838 -1.17185 7.26277 105 111 109
-0.634352 -0.671028 6.70753 107 115 128
-0.634352 -0.671028 6.70753 107 115 128
-0.773384 -0.926271 7.01965 117 118 122
-0.88093 -1.3714 7.28096 129 115 132
-0.878829 -1.32763 7.27749 155 156 151
-0.880192 -1.2762 7.28867 137 133 134
-0.882184 -1.37254 7.30985 167 155 167
-0.851401 -1.27387 7.24651 105 97 110
-0.864698 -1.44043 7.28021 106 90 93
-0.858145 -1.44783 7.26675 127 111 114
-0.854784 -1.20805 7.26285 85 81 78
-0.85755 -1.38245 7.28507 148 141 135
-0.542493 -0.143511 6.58414 129 134 140
-0.855747 -1.20199 7.29028 106 90 90
-0.571648 -0.603308 6.66801 122 125 130
-0.569085 -0.60065 6.68993 104 110 122
-0.569085 -0.60065 6.68993 104 110 122
-0.553091 -0.645271 6.67992 124 130 130
-0.51994 -0.312192 6.66573 108 113 116
-0.586597 -0.731202 6.82353 80 69 83
-0.530119 -0.670518 6.75852 117 121 122
-0.495051 -0.511092 6.726 113 119 131
-0.573543 -0.868451 6.91602 116 128 128
-0.692122 -1.19021 7.21051 110 107 114
-0.493507 -0.662125 6.7737 110 114 123
-0.437313 -0.516399 6.72184 124 128 137
-0.697817 -1.29019 7.33977 111 118 126
-0.463918 -0.675222 6.79326 109 113 124
-0.427755 -0.44133 6.76429 86 79 95
-0.412022 -0.519307 6.73918 127 128 132
-0.650725 -1.2772 7.33253 132 131 139
-0.681647 -1.43102 7.41151 112 109 104
-0.656231 -1.31868 7.37205 138 142 143
-0.633418 -1.29313 7.33691 126 137 139
-0.422454 -0.770886 6.83132 79 77 82
-0.393613 -0.644014 6.77888 47 66 73
-0.654556 -1.42045 7.4205 72 60 64
-0.4084 -0.922689 6.84722 74 94 121
-0.630115 -1.30605 7.394 132 140 151
-0.378595 -0.440988 6.78528 83 80 91
-0.39675 -0.828597 6.84629 110 117 123
-0.606721 -1.29726 7.36488 128 141 149
-0.68122 -1.46961 7.5628 145 144 124
-0.363636 -0.893862 6.83126 8 36 47
-0.336724 -0.613088 6.77089 54 56 71
-0.650137 -1.58089 7.5542 159 156 147
-0.13701 0.486233 6.29931 100 104 105
-0.644896 -1.67196 7.57946 33 40 58
-0.312937 0.101171 6.76861 106 107 125
-0.312908 0.0714905 6.77668 76 90 119
-0.30543 0.0916251 6.77421 97 115 155
-0.614756 -1.59995 7.5519 149 141 138
-0.341664 -0.998162 6.87339 104 107 112
-0.600812 -1.46321 7.53371 146 149 138
-0.325413 -0.96179 6.86162 82 105 123
-0.324131 -0.782291 6.87479 84 85 90
-0.313785 -0.919586 6.85092 76 79 110
-0.305757 -0.371375 6.83542 92 108 124
-0.321063 -0.983883 6.88144 101 111 120
-0.330095 -0.952945 6.90424 49 59 69
-0.480741 -1.17121 7.29106 88 94 94
-0.317749 -0.782639 6.88653 81 81 89
-0.273029 0.0816366 6.78154 84 107 151
-0.278125 -0.52006 6.81619 113 121 134
-0.287778 -0.355095 6.84378 95 115 140
-0.508394 -1.31218 7.44299 111 119 130
-0.252267 -0.574684 6.82843 47 53 65
-0.262617 -0.267901 6.85592 103 130 160
-0.274136 -0.937574 6.89013 46 46 58
-0.0774919 0.457685 6.39023 82 76 90
-0.498835 -1.33828 7.4796 150 153 160
-0.238823 -0.777733 6.87345 49 45 62
0.0437124 0.51418 6.14627 167 186 200
-0.210103 0.0976219 6.81666 95 102 128
-0.210103 0.0976219 6.81666 95 102 128
-0.237613 -0.823032 6.89512 104 114 123
-0.424196 -1.31444 7.45751 121 130 147
-0.208782 -0.82423 6.89522 91 106 111
-0.208782 -0.82423 6.89522 91 106 111
-0.200626 -0.78416 6.9028 67 76 81
-0.205682 -0.706419 6.91748 90 99 108
-0.153665 -0.0565001 6.78316 115 121 137
-0.176227 -0.626399 6.84341 37 50 58
-0.387935 -1.28367 7.43582 98 104 116
0.0589166 0.499523 6.24997 107 108 112
0.0589166 0.499523 6.24997 107 108 112
-0.170991 -0.437822 6.87749 75 77 92
-0.393836 -1.29041 7.47501 106 114 127
-0.158354 -0.613904 6.85871 22 43 72
-0.167274 -0.656022 6.91671 37 69 80
-0.164358 -0.731933 6.91114 106 109 124
-0.160828 -0.696219 6.90952 104 109 115
-0.362413 -1.29136 7.46352 118 115 126
-0.339798 -1.28612 7.47493 103 112 119
-0.10353 -0.605184 6.86405 80 109 151
-0.370733 -1.38162 7.62058 142 147 151
-0.0994407 -0.696115 6.98851 91 105 116
-0.0755633 -0.656202 6.93687 66 91 122
-0.0856737 -0.698577 6.97493 92 108 131
0.207199 0.532812 6.15932 60 68 89
-0.00726421 -0.462599 6.92707 94 112 132
-0.00399265 -0.259757 6.91706 87 93 105
-0.209394 -1.13623 7.51935 82 98 123
-0.203468 -1.19431 7.52813 54 62 81
-0.0482208 -0.821465 7.1103 40 42 63
-0.196815 -1.25619 7.55738 49 63 64
-0.198039 -1.36227 7.56175 93 97 100
-0.191127 -1.26417 7.54567 56 65 72
-0.205833 -1.47967 7.62217 115 121 121
-0.179367 -1.26173 7.57259 80 92 106
0.0137149 -0.701868 7.02297 79 98 113
0.0449054 -0.446559 6.98544 80 98 120
-0.0752694 -0.913878 7.36542 73 90 116
0.122698 0.393159 6.79698 90 98 111
0.122698 0.393159 6.79698 90 98 111
0.0738019 -0.529777 6.97592 72 86 112
-0.0463391 -0.898651 7.37337 69 83 110
0.104914 -0.595534 6.93825 37 45 64
-0.157605 -1.31376 7.73197 82 103 120
0.116161 -0.0534118 6.96801 57 71 98
0.0798712 -0.379289 7.13497 88 100 124
0.0906048 -0.183579 7.11845 66 73 101
0.135865 -0.633642 6.98645 33 41 62
0.0989847 -0.495012 7.13126 77 88 116
0.107531 -0.580658 7.11846 24 39 60
0.105824 -0.656929 7.18241 36 48 70
0.109309 -0.657379 7.20674 42 55 71
-0.0484674 -1.28548 7.77371 36 43 61
-0.0404508 -1.28946 7.7715 38 53 60
0.172257 -0.396317 7.19874 73 90 110
0.0101117 -1.29927 7.83502 237 228 223
0.0147557 -1.28601 7.82109 241 232 227
0.215628 -0.368258 7.22671 102 119 149
0.231726 -0.69609 7.28682 241 233 231
0.265734 -0.581814 7.18968 239 232 226
0.0882889 -1.29419 7.82778 215 214 219
0.0894111 -1.27722 7.82442 236 233 228
0.31096 -0.580182 7.21239 247 239 236
0.335496 -0.127149 7.18562 244 236 234
0.238772 -0.946966 7.52426 246 241 238
0.144194 -1.28112 7.8557 246 240 240
0.254654 -0.926755 7.52752 247 241 241
0.170026 -1.27771 7.86412 244 240 237
0.354049 -0.600722 7.24541 251 246 243
0.27369 -0.909342 7.54291 243 237 237
0.383005 -0.033746 7.19537 252 244 242
0.19755 -1.27796 7.85324 244 239 235
0.37454 -0.301919 7.2478 254 246 244
0.287166 -0.953063 7.58618 244 238 238
0.40639 -0.600819 7.27138 250 245 242
0.426315 -0.0410029 7.25722 255 250 247
0.43336 0.0126482 7.23267 250 245 242
0.447158 -0.579509 7.26762 247 241 241
0.447653 -0.638308 7.33627 225 218 225
0.317845 -1.27789 7.91476 162 189 82
0.488674 -0.626958 7.33426 250 246 237
0.328638 -1.29295 7.95074 191 213 102
0.508641 -0.573617 7.29774 250 244 244
0.493878 -0.816332 7.36023 170 188 126
0.511261 -0.578439 7.30503 241 230 234
0.499695 -0.803576 7.35358 176 194 134
0.533263 -0.352334 7.30941 254 249 246
0.539847 -0.136947 7.2994 249 244 241
0.519865 -0.762454 7.40254 215 202 194
0.408608 -1.25427 7.9265 179 211 100
0.549294 -0.797824 7.38806 228 223 201
0.553905 -0.802881 7.38881 216 209 191
0.576104 -0.3353 7.38482 251 245 245
0.584983 -0.575017 7.3551 250 245 242
0.581304 -0.837022 7.39579 230 228 205
0.647807 -0.0124636 7.31997 250 242 240
0.521485 -1.25991 7.9899 182 212 100
0.669141 -0.418227 7.41714 255 248 246
0.685825 -0.14092 7.36459 252 247 244
0.686193 -0.140065 7.36425 251 246 243
0.52835 -1.33304 8.05101 179 210 81
0.541811 -1.30346 8.02654 163 197 85
0.539141 -1.3656 8.06461 171 203 76
0.540271 -1.44105 8.06819 177 211 62
0.540496 -1.37362 8.07148 176 211 69
0.541579 -1.3958 8.07266 171 200 72
0.539599 -1.40754 8.08761 168 200 65
0.542498 -1.39064 8.08309 175 206 76
0.544924 -1.42298 8.07251 155 191 55
0.544502 -1.47309 8.08998 187 217 93
0.544502 -1.47309 8.08998 187 217 93
0.562364 -1.24754 8.02053 179 205 78
0.5515 -1.4696 8.0956 168 201 71
0.574194 -1.28225 8.02515 161 192 75
0.567038 -1.30785 8.063 154 184 72
0.718765 -0.919548 7.47108 224 212 214
0.671395 -0.944118 7.68217 224 212 214
0.67224 -0.943721 7.6797 224 212 214
0.672154 -0.955377 7.72131 204 194 192
0.741875 -0.3645 7.42181 254 245 246
0.745997 -0.372185 7.42365 246 238 236
0.745997 -0.372185 7.42365 246 238 236
0.745584 -0.325154 7.43224 247 241 241
0.74379 -0.451872 7.44705 247 239 237
0.757259 -0.101911 7.40499 246 240 240
0.753116 -0.329926 7.42326 244 236 234
0.699725 -0.90384 7.71191 253 245 242
0.76542 -0.416824 7.4473 253 248 245
0.709376 -0.878373 7.69903 248 240 238
0.785876 -0.0237429 7.38684 246 238 236
0.785876 -0.0237429 7.38684 246 238 236
0.720296 -0.878859 7.70675 246 236 234
0.791794 -0.268221 7.43067 242 237 233
0.656544 -1.26383 8.05165 138 162 86
0.802955 -0.0727145 7.4161 249 241 239
0.674945 -1.21249 8.04455 230 223 204
0.874478 0.46343 7.13604 252 247 244
0.682106 -1.20546 8.0473 223 216 206
0.682106 -1.20546 8.0473 223 216 206
0.815024 -0.156639 7.44276 243 238 235
0.778664 -0.773849 7.62811 244 236 233
0.813608 -0.511437 7.47594 246 237 238
0.824625 -0.372434 7.46137 245 240 236
0.807816 -0.66216 7.54519 248 238 236
0.833926 -0.299017 7.45616 250 242 240
0.837741 -0.0385415 7.44134 248 242 242
0.908338 0.461112 7.14212 253 247 247
0.853374 -0.422774 7.49128 238 232 232
0.867555 -0.500603 7.47023 230 222 220
0.860197 -0.802943 7.53687 244 236 234
0.861682 -0.674964 7.54466 244 236 233
0.903302 -0.0317697 7.43558 250 242 240
0.915673 -0.0362892 7.44261 248 240 238
0.895156 -0.795149 7.55927 236 228 225
0.946972 -0.828079 7.57305 242 233 234
0.951032 -0.831387 7.57277 239 230 233
0.952808 -0.835581 7.57006 243 235 233
0.873121 -1.36001 8.15756 248 242 230
0.873121 -1.36001 8.15756 248 242 230
1.01833 -0.799679 7.61094 246 241 238
1.02017 -0.79879 7.60251 246 241 238
0.934642 -1.40794 8.13767 241 234 226
0.934642 -1.40794 8.13767 241 234 226
0.952861 -1.1371 8.05954 252 244 242
1.04827 -0.5755 7.55439 246 237 238
0.960563 -1.30436 8.06085 251 244 234
1.06534 -0.192148 7.55049 241 236 233
0.977443 -1.23996 8.06566 236 228 225
0.977443 -1.23996 8.06566 236 228 225
0.981759 -1.0918 8.06343 244 239 235
0.982975 -1.17196 8.05694 238 230 228
1.06995 -0.574525 7.56581 243 232 236
0.989717 -0.931818 8.04078 242 233 236
0.983784 -1.30671 8.07414 241 233 230
1.07858 -0.579271 7.54462 220 212 210
1.05026 -1.13262 7.74373 236 228 225
0.995682 -1.17697 8.06031 236 228 225
1.07712 -0.634383 7.62657 230 222 219
1.00872 -1.21857 8.0669 245 238 230
1.0657 -0.778022 7.75792 0 0 0
1.01835 -1.08357 8.05912 0 0 0
1.1092 -0.187203 7.57703 0 0 0
1.03603 -0.840433 8.03905 0 0 0
1.1257 -0.39336 7.60524 0 0 0
1.13482 -0.151091 7.58248 0 0 0
1.32845 -0.740121 7.2746 0 0 0
1.22903 -1.3607 8.17731 0 0 0
1.23696 -1.36852 8.1922 0 0 0
1.41068 -0.64244 6.97311 0 0 0
1.24957 -1.33521 8.20054 0 0 0
1.43966 -0.659046 6.91498 0 0 0
1.45217 -0.642083 6.92128 0 0 0
1.27513 -1.38197 8.23827 0 0 0
1.46157 -0.26881 6.99609 0 0 0
1.46441 -0.585202 6.96601 0 0 0
1.29781 -1.37116 8.22656 0 0 0
1.47953 0.35408 6.94656 0 0 0
1.30691 -1.38868 8.25499 0 0 0
1.49093 -0.0693924 6.91201 0 0 0
1.49248 -0.211281 6.91172 0 0 0
1.36569 -1.26565 7.93549 0 0 0
1.4921 -0.697743 6.9961 0 0 0
1.42554 -1.19249 7.52105 0 0 0
1.37526 -1.25355 7.92016 0 0 0
1.5273 0.387746 6.84856 0 0 0
1.52564 0.405545 6.86315 0 0 0
1.53041 -0.016209 6.92544 0 0 0
1.53679 -0.227402 6.91339 0 0 0
1.54123 -0.201837 6.90457 0 0 0
1.54027 -0.51447 6.99277 0 0 0
1.55015 -0.442619 6.98589 0 0 0
1.5551 -0.661715 6.95752 0 0 0
1.52495 -0.944875 7.2203 0 0 0
1.5631 -0.181052 6.94623 0 0 0
1.56079 -0.313934 6.96972 0 0 0
1.56079 -0.313934 6.96972 0 0 0
1.56126 -0.293185 6.97463 0 0 0
1.5587 -0.674705 6.9837 0 0 0
1.56271 -0.270243 6.96674 0 0 0
1.57204 -0.104607 6.96183 0 0 0
1.58054 0.0485817 6.93341 0 0 0
1.57641 -0.52722 7.00547 0 0 0
1.57718 -0.769083 7.06068 0 0 0
1.60162 0.307222 6.9183 0 0 0
1.59246 -0.304098 6.9869 0 0 0
1.60122 0.109554 6.93801 0 0 0
1.60321 0.076653 6.94265 0 0 0
1.60842 0.305397 6.91783 0 0 0
1.61458 0.0814412 6.9662 0 0 0
1.62385 -0.424813 7.01857 0 0 0
1.63251 -0.235823 7.00074 0 0 0
1.58424 -1.34172 7.53959 0 0 0
1.65376 0.271096 6.95461 0 0 0
1.64666 -0.23039 7.02162 0 0 0
1.59025 -1.39841 7.55889 0 0 0
1.59187 -1.4192 7.55141 0 0 0
1.59976 -1.25213 7.48858 0 0 0
1.59976 -1.25213 7.48858 0 0 0
1.60733 -1.19154 7.45606 0 0 0
1.63783 -0.861555 7.19837 0 0 0
1.63783 -0.861555 7.19837 0 0 0
1.60882 -1.26615 7.5148 0 0 0
1.66626 -0.291583 7.02079 0 0 0
1.615 -1.25265 7.48791 0 0 0
1.60694 -1.37976 7.56209 0 0 0
1.60888 -1.35832 7.55961 0 0 0
1.64955 -0.85935 7.18934 0 0 0
1.67086 -0.443491 7.05954 0 0 0
1.67712 -0.381457 7.04336 0 0 0
1.68432 0.0468863 6.99112 0 0 0
1.62895 -1.30675 7.54568 0 0 0
1.69203 -0.692761 7.0995 0 0 0
1.70233 -0.337129 7.04664 0 0 0
1.71077 -0.229411 7.0333 0 0 0
1.72327 0.316466 6.99118 0 0 0
1.71423 -0.754078 7.12937 0 0 0
1.73161 -0.673563 7.05909 0 0 0
1.74569 -0.167041 7.01295 0 0 0
1.74332 -0.695226 7.07271 0 0 0
1.75562 -0.0782814 7.04057 0 0 0
1.79045 0.000112911 7.03986 0 0 0
1.78321 -0.367031 7.12346 0 0 0
1.80512 -0.391082 7.15588 0 0 0
