ply
format ascii 1.0 
element vertex 1344
property float32 x 
property float32 y 
property float32 z
property uchar red  
property uchar green
property uchar blue
element face 0
property list uchar int vertex_indices
end_header
1.9349 -0.443805 7.15311 0 0 0
1.93562 -0.368034 7.14308 0 0 0
1.93655 -0.307571 7.11243 0 0 0
1.94499 -0.24669 7.12949 0 0 0
1.94307 -0.262787 7.09558 0 0 0
1.94805 -0.434958 7.12016 0 0 0
1.95359 -0.203028 7.12156 0 0 0
1.95993 -0.27824 7.13416 0 0 0
1.95965 -0.264975 7.10994 0 0 0
1.97081 -0.605741 7.18244 0 0 0
1.96836 -0.30677 7.14754 0 0 0
1.96718 -0.253571 7.10981 0 0 0
1.97023 -0.166289 7.09319 0 0 0
1.97768 -0.325392 7.13859 0 0 0
1.98078 -0.522465 7.17335 0 0 0
1.97924 -0.280475 7.14354 0 0 0
1.98098 -0.280887 7.159 0 0 0
1.97734 -0.519189 7.14981 0 0 0
1.97819 -0.501758 7.11375 0 0 0
1.98321 -0.275134 7.14753 0 0 0
1.98769 -0.223224 7.14994 0 0 0
1.98675 -0.218106 7.14231 0 0 0
2.00974 -0.666301 7.27593 0 0 0
1.99841 -0.254932 7.11595 0 0 0
1.99697 -0.0164326 7.10486 0 0 0
2.00022 -0.0404358 7.10417 0 0 0
2.01232 -0.305465 7.16385 0 0 0
2.01218 -0.114096 7.13269 0 0 0
2.01797 -0.177231 7.14113 0 0 0
2.01797 -0.177231 7.14113 0 0 0
2.03424 -0.445195 7.15458 0 0 0
2.03174 -0.51404 7.12545 0 0 0
2.05738 -0.3901 7.20802 0 0 0
2.05199 -0.301297 7.15259 0 0 0
2.05617 -0.328527 7.15665 0 0 0
2.06528 -0.420683 7.20739 0 0 0
2.05759 -0.160668 7.13839 0 0 0
2.06124 -0.171094 7.16472 0 0 0
2.07188 -0.38636 7.16659 0 0 0
2.08108 -0.334793 7.2003 0 0 0
2.08799 -0.553025 7.23597 0 0 0
2.08047 -0.123255 7.16474 0 0 0
2.08123 -0.113021 7.16424 0 0 0
2.08608 -0.221646 7.14864 0 0 0
2.09248 -0.160132 7.15929 0 0 0
2.09107 -0.139483 7.14215 0 0 0
2.12044 -0.53823 7.23058 0 0 0
2.12196 -0.54899 7.22527 0 0 0
2.12665 -0.545499 7.20337 0 0 0
2.13621 -0.452622 7.20738 0 0 0
2.13853 -0.533608 7.19584 0 0 0
2.14395 -0.371032 7.19748 0 0 0
2.17801 -0.506543 7.22997 0 0 0
2.17524 -0.489779 7.19943 0 0 0
2.16935 -0.535793 7.15984 0 0 0
2.20011 -0.523667 7.22837 0 0 0
2.20164 -0.517328 7.22438 0 0 0
3.92717 0.982817 16.5658 0 0 0
3.97276 0.925322 16.7655 0 0 0
4.04619 0.978608 16.5233 0 0 0
3.98806 1.08704 16.1803 0 0 0
4.00595 1.08146 16.2548 0 0 0
3.99867 1.06638 16.1645 0 0 0
2.4043 0.614395 7.64149 0 0 0
4.00308 1.05248 16.1546 0 0 0
4.0173 1.0955 16.2223 0 0 0
4.0173 1.0955 16.2223 0 0 0
4.0154 1.15783 16.1601 0 0 0
4.0566 0.959865 16.3561 0 0 0
4.03554 1.04642 16.1816 0 0 0
4.02743 1.19733 16.1328 0 0 0
4.0681 1.1162 16.3151 0 0 0
4.0559 1.08317 16.2464 0 0 0
4.03368 1.02264 16.1266 0 0 0
4.05832 1.00794 16.2108 0 0 0
4.06176 1.11798 16.2087 0 0 0
4.07664 1.1555 16.2757 0 0 0
4.0729 1.13542 16.1907 0 0 0
4.13666 0.998225 16.5123 0 0 0
4.13666 0.998225 16.5123 0 0 0
4.07218 1.20791 16.1684 0 0 0
4.05074 1.20877 16.0433 0 0 0
4.0774 0.945635 16.176 0 0 0
4.0857 1.04957 16.2041 0 0 0
4.05038 1.01952 16.0098 0 0 0
4.07467 1.18543 16.1238 0 0 0
4.07911 0.902798 16.1537 0 0 0
4.08034 1.22698 16.1425 0 0 0
4.07166 1.19366 16.0586 0 0 0
4.09316 1.0866 16.1698 0 0 0
4.08155 1.21498 16.1031 0 0 0
4.0788 1.20122 16.0801 0 0 0
4.11106 1.13863 16.2312 0 0 0
4.14699 1.00193 16.4152 0 0 0
4.11644 1.17796 16.2392 0 0 0
4.09512 1.11966 16.1298 0 0 0
4.09861 1.2253 16.1301 0 0 0
4.10143 1.01245 16.1404 0 0 0
4.10143 1.01245 16.1404 0 0 0
4.11184 1.09185 16.1811 0 0 0
4.12061 1.03888 16.1941 0 0 0
4.11549 1.14815 16.0785 0 0 0
4.11544 0.9329 16.0642 0 0 0
4.12406 1.08745 16.0864 0 0 0
4.14739 1.00927 16.1823 0 0 0
4.14379 1.00744 16.0488 0 0 0
2.47339 -0.25577 7.16811 0 0 0
2.48399 -0.233942 7.19921 0 0 0
2.5037 -0.266596 7.17184 0 0 0
2.50541 -0.337704 7.17396 0 0 0
2.51533 -0.335212 7.16433 0 0 0
-2.57541 0.475369 5.5241 181 225 252
-2.29768 0.114666 5.38075 197 231 255
-2.29152 0.0842207 5.38333 199 234 254
-2.29755 -0.0912866 5.41835 200 235 254
-2.23815 0.396218 5.33704 189 229 254
-2.28955 -0.447234 5.46841 213 243 254
-2.28499 -0.48175 5.47064 216 244 255
-2.29241 -0.620969 5.49471 218 247 255
-2.22692 0.27872 5.37711 193 231 254
-2.21536 0.338352 5.36668 192 229 255
-2.21719 0.246089 5.38255 195 231 255
-2.21719 0.246089 5.38255 195 231 255
-2.22069 0.206044 5.39012 197 231 255
-2.22549 -0.0367862 5.42204 205 236 255
-2.22244 -0.431273 5.48076 214 244 255
-2.20998 -0.198591 5.45478 211 240 255
-2.22222 -0.53146 5.49385 218 247 255
-2.19444 -0.0665227 5.44402 209 238 255
-2.20178 -0.276101 5.46747 212 241 255
-2.17653 0.0124124 5.43561 204 237 255
-2.15423 0.332897 5.38927 195 229 254
-2.12218 0.0488385 5.36273 204 237 255
-2.14173 0.165824 5.40673 202 234 255
-2.17457 -0.383492 5.49151 215 243 255
-2.08421 -0.473887 5.36227 218 247 255
-2.1593 -0.483542 5.49998 218 247 255
-2.12953 -0.377219 5.5101 216 244 255
-2.10339 0.102823 5.44791 204 237 255
-2.05062 -0.108336 5.3895 212 239 255
-2.09961 -0.188603 5.49087 213 241 255
-2.05277 -0.0235746 5.39946 207 239 254
-2.08665 -0.0245713 5.46536 207 239 254
-2.08023 -0.0668627 5.4702 208 240 255
-2.04893 0.345063 5.4104 196 232 254
-2.09754 -0.541303 5.54454 221 248 255
-2.04718 0.449472 5.44143 196 232 255
-2.04629 0.265664 5.44916 199 234 254
-2.06473 -0.181604 5.50455 213 241 255
-2.0787 -0.615751 5.56378 224 249 255
-2.01558 0.378107 5.43282 202 232 255
-1.99792 0.110083 5.47695 204 237 254
-2.02233 -0.422288 5.55507 221 248 255
-1.99164 0.190967 5.50335 206 234 255
-1.97682 0.132606 5.48331 204 237 254
-2.02086 -0.779874 5.6037 231 252 255
-1.94827 0.438205 5.43508 200 232 255
-2.01243 -0.723826 5.60927 228 252 255
-2.12093 -0.979517 5.84124 232 253 254
-1.93075 0.432428 5.44716 200 232 255
-1.42195 0.333404 4.47481 202 235 254
-2.10135 -1.0068 5.86189 234 254 255
-1.96649 -0.364924 5.59915 222 246 255
-1.93841 0.085311 5.54125 50 70 107
-1.89885 0.391098 5.4563 202 234 255
-1.8752 0.441634 5.46482 201 233 254
-1.89905 0.193157 5.5247 207 238 255
-1.93901 -0.803484 5.63744 232 253 254
-2.05697 -1.18407 6.01558 238 255 255
-1.84834 -0.194703 5.57518 221 245 255
-1.83401 0.204694 5.53935 206 237 255
-2.05519 -1.24405 6.04078 241 255 255
-2.05427 -1.23967 6.04075 240 255 255
-1.83855 -0.0428154 5.55846 215 243 255
-2.05147 -1.25142 6.03809 243 254 255
-1.83369 -0.238218 5.60093 220 247 255
-2.02703 -1.25507 6.05166 243 254 255
-1.98341 -1.07088 5.96934 124 135 127
-1.80661 -0.317622 5.62346 225 248 255
-1.80097 -0.340271 5.62512 225 248 255
-1.8024 -0.383791 5.63458 226 249 255
-1.7777 0.0732578 5.57663 235 255 255
-1.7869 -0.168398 5.61098 219 246 255
-1.78115 -0.233724 5.61754 221 248 255
-1.78431 -0.266214 5.62769 224 247 255
-2.23241 -1.19684 6.62341 122 112 110
-2.23102 -1.18934 6.62107 123 116 110
-1.77691 -0.389449 5.63964 226 249 255
-2.21974 -1.19713 6.62439 110 94 105
-1.72025 0.237229 5.569 208 240 255
-1.74534 -0.387766 5.65784 226 249 255
-1.73008 -0.0579614 5.61902 221 245 255
-1.72729 -0.174566 5.62985 223 248 255
-1.82739 -0.87425 5.87088 126 135 144
-1.70018 0.147296 5.58657 209 239 255
-1.69751 0.0703651 5.60734 78 86 99
-1.70956 -0.377819 5.66753 227 251 255
-1.70243 -0.461846 5.67365 230 251 255
-1.66394 0.344684 5.56946 209 238 255
-1.67149 -0.00861662 5.62663 239 253 255
-1.67294 -0.0868177 5.63538 135 134 165
-1.67123 -0.098007 5.63488 143 146 153
-1.67572 -0.211124 5.65665 224 247 253
-1.67973 -0.334172 5.67011 227 252 255
-1.67305 -0.230793 5.65575 224 249 254
-1.67385 -0.220377 5.65811 225 248 255
-1.66244 0.00594761 5.62579 236 242 238
-1.67125 -0.25223 5.65634 221 249 253
-1.65501 0.081767 5.6204 157 154 175
-1.63698 0.0181493 5.58501 110 125 130
-1.64852 -0.347584 5.68289 86 95 112
-1.65118 -0.462597 5.70037 106 111 140
-1.59778 -0.176126 5.63655 115 119 131
-1.65477 -0.680534 5.78309 234 254 255
-1.79263 0.568797 6.2405 67 85 109
-1.81714 0.0967799 6.32839 88 103 126
-1.99117 -0.872333 6.78372 239 255 255
-1.99201 -0.918984 6.79172 241 255 255
-1.99468 -1.09822 6.80947 241 255 255
-1.98831 -1.02922 6.80728 95 102 156
-1.98822 -1.04619 6.8081 241 255 255
-1.98767 -1.05288 6.80724 241 255 255
-1.98743 -1.08427 6.81419 243 255 255
-1.98515 -1.13673 6.81978 151 150 226
-1.80981 -0.357285 6.39538 42 58 84
-1.78916 0.0917886 6.34575 49 70 91
-1.7861 0.0624366 6.34733 46 62 88
-1.79931 -0.296347 6.39247 63 80 110
-1.79103 -0.298296 6.39216 66 77 109
-1.79103 -0.298296 6.39216 66 77 109
-1.76711 0.232107 6.32677 45 62 88
-1.79896 0.304142 6.40363 29 42 61
-1.76773 0.179015 6.33473 70 82 104
-1.76976 0.118847 6.34374 77 100 118
-1.77648 -0.188842 6.38418 58 73 94
-1.73608 0.473172 6.27289 50 61 83
-1.77156 -0.139455 6.38297 51 56 85
-1.76399 -0.413863 6.40109 44 59 82
-1.75615 -0.554898 6.45925 40 56 81
-1.7242 0.0304968 6.36839 42 57 80
-1.7242 0.0304968 6.36839 42 57 80
-1.65609 -0.713756 6.50477 36 51 70
-1.64856 -0.719498 6.49992 41 53 75
-1.60111 0.500483 6.34031 40 52 74
-1.57829 0.0124364 6.42257 41 56 77
-1.56677 -0.538331 6.53744 134 120 107
-1.51432 0.429334 6.39761 67 84 114
-1.53431 -0.522923 6.49381 105 93 79
-1.73074 -1.16494 7.10582 38 62 74
-1.5154 -0.12007 6.50136 55 63 86
-1.49591 0.284266 6.43733 124 115 110
-1.50579 0.0485392 6.47433 46 57 79
-1.51444 -0.224917 6.50721 104 88 72
-1.50634 0.0100511 6.47979 47 53 77
-1.72641 -1.19476 7.11748 39 54 73
-1.50761 -0.112829 6.49596 48 64 89
-1.50606 -0.19025 6.50838 118 112 100
-1.50794 -0.336431 6.52064 65 82 110
-1.50794 -0.336431 6.52064 65 82 110
-1.5078 -0.356463 6.52557 49 60 88
-1.49574 -0.0928272 6.5033 40 51 73
-1.71303 -1.22512 7.13751 55 64 105
-1.49475 -0.313147 6.51125 36 55 70
-1.71274 -1.2701 7.14569 125 150 172
-1.49226 -0.336016 6.53214 45 60 89
-1.70064 -1.2226 7.14955 84 106 127
-1.45771 -0.377113 6.55657 47 60 79
-1.42224 -0.015878 6.51447 50 52 75
-1.39651 -0.652043 6.6324 42 56 82
-1.53057 -1.13011 7.17893 98 81 97
-1.47816 -1.12351 7.19534 157 141 118
-1.30296 -0.724818 6.66125 99 103 128
-1.29114 -0.184492 6.63926 98 119 136
-1.29204 -0.720043 6.67569 79 80 82
-1.19301 0.424351 6.53082 136 109 82
-1.20056 -0.0563074 6.60074 120 110 100
-1.20855 -0.409913 6.65847 129 113 97
-1.1618 0.066285 6.62 148 136 122
-1.12146 -0.185506 6.5004 134 123 105
-1.35077 -1.15034 7.27503 91 87 88
-1.15199 -0.440729 6.68768 149 139 130
-1.12774 -0.228465 6.66776 104 100 91
-1.13359 -0.446691 6.70045 161 154 135
-1.10828 -0.186487 6.6711 111 93 69
-1.11347 -0.310674 6.69235 132 117 96
-1.09748 -0.333193 6.70085 147 143 131
-1.26183 -1.12478 7.29428 156 155 150
-1.25526 -1.12855 7.30153 159 154 151
-1.04821 -0.0492206 6.58678 154 152 140
-1.06085 0.267673 6.62113 145 132 116
-1.07134 -0.147266 6.68602 131 125 109
-1.07134 -0.147266 6.68602 131 125 109
-1.07285 -0.358817 6.71433 112 90 93
-1.06601 -0.340604 6.71082 146 143 134
-1.06699 0.131202 6.73102 128 122 100
-1.03073 0.106463 6.6511 141 130 110
-1.16141 -1.09881 7.31174 162 164 159
-1.16118 -1.1186 7.33945 164 163 159
-1.13927 -1.11737 7.34362 110 98 98
-0.899059 -0.238184 6.56636 87 103 119
-0.996914 -1.09795 7.38601 156 165 172
-0.882652 -0.78321 7.09433 119 110 105
-0.782332 -0.230984 6.81893 56 77 104
-0.751636 -0.968269 6.81739 54 59 39
-0.746137 -0.303211 6.78845 65 79 88
-0.650713 0.0242328 6.66136 55 63 65
-0.671616 -0.696807 6.91443 106 97 90
-0.623105 -0.495887 6.71796 75 71 62
-0.591245 -0.369026 6.75587 75 72 55
-0.591245 -0.369026 6.75587 75 72 55
-0.499393 0.471705 6.32487 147 135 121
-0.574386 -0.354444 6.75456 93 79 78
-0.465683 0.561228 6.23057 117 113 101
-0.527194 -0.478433 6.75351 108 107 103
-0.645782 -1.15336 7.42388 162 141 136
-0.643854 -1.1446 7.41884 152 133 126
-0.364852 -0.508366 6.17936 119 112 93
-0.590516 -1.14855 7.44588 120 101 94
-0.626404 -1.59674 7.6833 128 124 115
-0.309482 -0.540636 6.13991 109 104 98
-0.445586 -0.557329 6.84689 110 107 100
-0.444204 -0.604661 6.86411 96 97 83
-0.428247 -0.485724 6.80002 56 54 55
-0.428247 -0.485724 6.80002 56 54 55
-0.383788 0.175742 6.79884 42 58 74
-0.541603 -1.46543 7.69313 29 38 53
-0.429884 0.147471 7.30539 92 101 108
-0.191253 -0.69892 6.10229 62 78 93
-0.325198 0.166829 6.81989 87 107 134
-0.426436 -1.10136 7.46846 145 135 126
-0.316394 0.172841 6.82511 57 64 82
-0.300438 0.176646 6.82317 93 72 51
-0.314228 -0.641296 6.96008 106 106 96
-0.28538 -0.0986532 6.82469 86 82 79
-0.2827 0.167986 6.84105 83 68 45
-0.27876 0.155236 6.84305 81 70 74
-0.272494 0.392859 6.81187 124 120 117
-0.377089 -1.09394 7.48299 118 116 104
-0.188185 0.494867 6.50509 58 63 56
-0.181569 0.489593 6.49649 108 106 107
-0.231095 0.35219 6.84173 97 93 92
-0.229681 0.363175 6.83575 91 95 94
-0.229681 0.363175 6.83575 91 95 94
-0.319297 -1.01291 7.41951 68 56 68
-0.317681 -1.02011 7.42639 62 52 53
-0.236632 -0.57539 6.9406 80 84 95
-0.12303 0.544036 6.22636 44 39 33
-0.136261 0.517472 6.41986 100 96 85
-0.134714 0.512165 6.4134 98 96 83
-0.119998 0.0635304 6.84542 116 117 119
-0.120763 0.0513066 6.8574 99 101 100
-0.225656 -1.31191 7.67338 74 64 52
-0.223682 -1.30329 7.66383 94 75 68
-0.211407 -1.08165 7.5961 88 87 95
-0.206078 -0.960927 7.58417 91 90 104
-0.203064 -1.13664 7.60981 127 117 108
-0.189473 -0.94401 7.57248 238 235 254
-0.191075 -1.09869 7.61207 89 90 84
-0.190534 -1.15085 7.61516 144 136 123
-0.179874 -0.961038 7.59457 39 44 73
-0.0642172 -0.443735 6.9815 97 101 104
-0.0618325 -0.381548 6.96758 76 61 68
-0.157648 -1.09107 7.74882 93 90 81
-0.031211 -0.521706 6.95051 32 35 40
-0.0269958 -0.488926 6.95812 28 41 47
-0.0208573 -0.161612 6.95154 89 91 90
0.151824 -0.445711 5.70811 46 71 76
0.0139659 -0.473992 6.98299 80 80 90
0.0439399 0.434086 6.87819 93 103 112
0.0439399 0.434086 6.87819 93 103 112
-0.0630701 -1.10694 7.80128 69 70 72
-0.0197051 -0.782764 7.46213 89 93 102
-0.0336315 -1.11091 7.82662 64 70 82
-0.00450532 -1.12078 7.84123 46 51 54
0.129993 0.529315 6.65192 75 80 84
0.116075 -0.496199 6.99684 80 95 102
0.0253381 -1.09452 7.83248 78 86 88
0.113795 -0.64534 7.25227 65 72 80
0.165962 -0.717371 7.27455 61 70 77
0.17465 -0.328399 7.22479 70 81 99
0.203829 -0.259825 7.27071 28 41 49
0.375003 -0.546959 5.54289 53 64 70
0.14981 -1.11481 7.90706 62 72 82
0.28425 -0.993922 6.80756 79 85 99
0.240064 -0.665523 7.30987 22 28 42
0.287384 -0.629072 7.33418 59 76 84
0.304033 -0.526293 7.32506 89 103 116
0.312443 -0.301239 7.27384 92 108 123
0.322981 0.457083 7.16623 101 118 138
0.302415 -0.715874 7.53957 137 137 129
0.496509 -0.287903 5.21276 194 193 175
0.304193 -0.778812 7.59159 248 241 215
0.337207 0.0537837 7.2167 255 255 229
0.346396 -0.0803146 7.25129 243 227 211
0.357652 -0.414032 7.3121 247 234 218
0.366688 -0.13571 7.27767 240 228 212
0.369019 -0.186955 7.28876 249 240 225
0.567504 -0.323654 4.68951 250 238 224
0.386439 -0.458266 7.29454 250 240 230
0.388127 -0.234427 7.30485 241 231 219
0.400164 -0.381904 7.33294 245 231 228
0.405087 -0.198012 7.30372 250 242 229
0.607754 -0.316364 4.47327 121 115 149
0.415238 -0.0169612 7.25689 249 239 229
0.389888 -1.10783 7.99207 96 107 137
0.442184 -0.0588223 7.29884 246 236 227
0.440386 -0.52144 7.37727 100 115 144
0.446681 -0.186489 7.31896 252 244 231
0.475924 -0.258562 7.32599 214 197 213
0.496803 0.262706 7.26603 252 245 237
0.501108 -0.0424621 7.31615 254 244 235
0.469193 -1.10252 8.01672 86 102 128
0.525478 0.491571 7.21225 245 238 230
0.507115 -1.07109 8.00644 82 98 121
0.544354 -0.464864 7.35552 165 155 156
0.589879 -1.02054 6.94357 77 95 117
0.55014 -1.18875 8.10131 61 79 99
0.564338 -1.13293 8.06736 81 99 119
0.610689 -0.00757043 7.34245 255 253 241
0.641553 -0.744019 7.70945 79 95 108
0.668905 -0.559282 7.48259 73 86 94
0.676147 -0.449428 7.40944 86 122 50
0.689649 -0.0862707 7.39416 107 122 57
0.675123 -0.977239 7.96749 46 65 69
0.695311 -0.50658 7.48226 29 58 27
0.698736 -0.788998 7.74025 26 54 31
0.715362 -0.223346 7.42673 40 63 35
0.716957 -0.414208 7.45939 30 61 30
0.722171 0.190205 7.36504 175 198 64
0.718123 -0.727517 7.72447 22 55 28
0.726526 -0.406106 7.46752 34 63 33
0.74609 0.123494 7.39147 142 161 71
0.748192 -0.331155 7.46079 28 54 25
0.758444 0.240739 7.37515 174 193 75
0.775163 -0.426021 7.49184 34 60 23
0.794943 -0.0601559 7.44369 65 75 51
0.796257 -0.278376 7.47245 29 59 31
0.801103 -0.346776 7.47866 30 59 28
0.802642 -0.448719 7.45691 34 58 36
0.815334 -0.0767197 7.44599 35 59 33
0.831794 0.0194282 7.43935 28 63 31
0.832847 0.213177 7.40736 138 156 74
0.85486 -0.507298 7.53734 30 61 27
0.85937 -0.47158 7.4733 46 62 33
0.893613 -0.447758 7.49797 28 58 24
0.908304 -1.06579 7.16138 33 59 34
0.924839 -0.681581 7.56168 22 57 27
0.931822 -1.06334 7.18477 28 54 25
0.934872 -0.946668 7.00674 21 52 20
0.941726 -1.01998 8.04655 24 58 25
0.947535 -1.06693 7.21051 20 57 16
0.960122 -1.05417 8.05252 25 55 21
0.961219 0.489144 7.15163 163 186 80
0.972373 -0.881454 8.02881 26 53 20
0.950838 0.238901 2.55176 191 210 85
0.975993 -1.00574 7.15846 20 54 21
0.98081 -0.78957 8.02457 32 58 33
0.984767 -1.12924 8.07243 18 54 26
0.954191 0.235484 2.55472 190 207 69
1.03328 0.312196 14.2221 40 65 33
0.989005 -1.09309 7.28987 27 61 26
0.990654 -1.07989 7.27187 23 56 29
0.999873 -0.918694 8.04916 28 57 26
1.00629 -0.913756 8.04985 24 56 19
1.00271 0.0394913 7.48333 20 57 24
1.06171 -1.10958 8.55028 27 60 29
1.05884 -0.967921 7.53521 23 58 25
1.13324 -0.311067 11.2905 13 50 19
1.06927 -0.230152 7.56635 13 50 19
1.08916 -1.12747 8.56104 22 52 26
1.0951 -0.122779 7.5626 37 63 34
1.09823 0.238289 7.50095 24 56 15
1.10849 0.230354 7.5121 23 58 16
1.28645 0.145283 15.2901 24 58 25
1.11323 0.0707861 7.51942 27 60 29
1.11724 0.418817 7.48642 25 61 15
1.12051 -0.419862 7.62211 28 57 29
1.11905 0.209366 7.51892 26 60 25
1.13407 0.071837 7.53353 25 55 21
1.27325 -0.232792 12.8517 23 53 25
1.15556 -1.08941 7.48867 24 52 27
1.29103 0.426041 12.1096 17 54 13
1.17777 -1.16392 8.15864 21 51 23
1.17768 -1.18459 8.13985 24 53 22
1.16128 -1.0842 7.4943 25 54 23
1.17559 0.462607 7.49017 41 61 33
1.17559 0.462607 7.49017 41 61 33
1.19615 -1.17096 8.15835 26 53 20
1.177 0.496763 7.48076 26 57 25
1.20352 -1.17754 8.15121 24 52 14
1.18474 0.573589 7.46386 26 59 28
1.20623 -1.17096 8.16176 21 48 15
1.19213 -1.05672 7.51067 11 49 12
1.21069 -1.08884 7.55844 22 57 15
1.22672 -1.11686 7.62981 26 57 16
1.26649 -1.16435 8.18664 15 50 17
1.2688 -1.191 8.21392 19 50 19
1.25264 -1.11838 7.65599 26 55 24
1.28225 -1.16826 8.18701 20 51 17
1.29623 -1.19346 8.22893 17 43 6
1.29451 -1.15998 8.18714 17 48 14
1.29451 -1.15998 8.18714 17 48 14
1.27592 -1.12003 7.69696 20 48 10
1.29482 -1.09212 7.67125 22 54 13
1.29886 -1.12309 7.72006 20 55 22
1.30722 -1.09081 7.67684 17 48 14
1.31066 -1.12311 7.72848 16 47 15
1.30957 -0.687619 7.24703 33 60 27
1.33612 0.476665 7.74339 24 58 23
1.46879 0.597329 10.2369 24 55 24
1.31661 0.236585 7.22668 25 54 23
1.35209 -1.11251 7.74774 19 48 20
1.33375 -0.613798 6.99601 0 0 0
1.456 -0.391871 6.94226 0 0 0
1.50608 -0.758705 7.16764 0 0 0
1.53905 -1.22022 7.34214 0 0 0
1.54336 -1.15389 7.31727 0 0 0
1.51485 -0.56175 6.94284 0 0 0
1.54508 -1.16597 7.32551 0 0 0
1.56234 -1.26718 7.53524 0 0 0
1.56261 -1.25886 7.53573 0 0 0
1.52004 -0.353481 6.96365 0 0 0
1.56783 -1.27481 7.5391 0 0 0
1.55397 -1.2277 7.35588 0 0 0
1.52461 -0.375765 6.97275 0 0 0
1.52873 -0.230335 6.94728 0 0 0
1.56136 -1.11729 7.31608 0 0 0
1.55702 -1.02869 7.24771 0 0 0
1.56992 -1.14606 7.33919 0 0 0
1.54167 -0.349641 6.9734 0 0 0
1.5426 -0.360172 6.97814 0 0 0
1.54035 -0.0852845 6.91813 0 0 0
1.58975 -1.13634 7.51311 0 0 0
1.57969 -0.439119 7.37103 0 0 0
1.5447 -0.20023 6.94672 0 0 0
1.58481 -1.02392 7.42163 0 0 0
1.5486 -0.167404 6.94138 0 0 0
1.55111 -0.25629 6.95711 0 0 0
1.58093 -1.10004 7.32484 0 0 0
1.55529 -0.468609 6.99781 0 0 0
1.55529 -0.468609 6.99781 0 0 0
1.55426 -0.203696 6.95337 0 0 0
1.55579 -0.183115 6.94917 0 0 0
1.55504 0.301322 6.87026 0 0 0
1.56212 -0.0724011 6.91606 0 0 0
1.5938 -1.03007 7.28455 0 0 0
1.56529 -0.0302173 6.92844 0 0 0
1.56388 0.138474 6.90089 0 0 0
1.56356 0.300896 6.87405 0 0 0
1.60102 -1.08055 7.33414 0 0 0
1.57078 -0.209035 6.96017 0 0 0
1.60382 -1.07012 7.32845 0 0 0
1.57015 0.244238 6.88616 0 0 0
1.61889 -1.03842 7.45223 0 0 0
1.75252 -0.135563 8.8625 0 0 0
1.58426 -0.442246 7.00466 0 0 0
1.59691 -0.438688 7.02229 0 0 0
1.63101 -1.04579 7.34005 0 0 0
1.60692 -0.156432 6.96839 0 0 0
1.60644 -0.0345849 6.94665 0 0 0
1.62442 -0.419772 7.0256 0 0 0
1.83924 0.161341 9.22864 0 0 0
1.62861 -0.342569 7.01356 0 0 0
1.62833 0.130084 6.93102 0 0 0
1.6429 -0.400069 7.01966 0 0 0
1.85733 0.361565 9.16405 0 0 0
1.68606 -1.00258 7.44316 0 0 0
1.74012 -0.372952 7.96036 0 0 0
1.65153 -0.0438118 6.96973 0 0 0
1.73677 -0.427897 7.77875 0 0 0
1.75213 -0.387817 7.9142 0 0 0
1.66255 -0.347513 7.02536 0 0 0
1.667 -0.203408 7.00163 0 0 0
1.667 -0.203408 7.00163 0 0 0
1.66355 0.162856 6.94105 0 0 0
1.67337 -0.217885 7.00799 0 0 0
1.68006 -0.721497 7.07111 0 0 0
1.67248 0.0376063 6.96887 0 0 0
1.67832 -0.510751 7.02316 0 0 0
1.68011 -0.249404 7.00482 0 0 0
1.69519 -0.568917 7.08286 0 0 0
1.906 0.388566 9.06751 0 0 0
1.70168 -0.669776 7.09798 0 0 0
1.68842 0.365856 6.9174 0 0 0
1.91859 0.240206 9.08029 0 0 0
1.6913 0.419643 6.91972 0 0 0
1.73026 0.0137766 6.97877 0 0 0
1.93807 0.0199678 8.80378 0 0 0
1.74315 -0.225786 7.0266 0 0 0
1.96244 0.430318 8.95464 0 0 0
1.79139 -0.889403 7.40373 0 0 0
1.80514 -0.879094 7.41861 0 0 0
1.76239 0.0846469 6.99147 0 0 0
1.77642 -0.749936 7.12702 0 0 0
1.77642 -0.749936 7.12702 0 0 0
1.77835 -0.277201 7.09631 0 0 0
1.82112 -0.889652 7.41532 0 0 0
1.82574 -0.851318 7.37422 0 0 0
1.82159 -0.412135 7.10038 0 0 0
1.81664 0.169065 7.0339 0 0 0
1.81515 0.516303 6.93443 0 0 0
1.86565 -0.798896 7.3623 0 0 0
1.86785 -0.802814 7.35661 0 0 0
1.851 -0.665528 7.16161 0 0 0
1.8789 0.366839 7.02676 0 0 0
1.90327 -0.560055 7.16917 0 0 0
1.89753 -0.136624 7.08299 0 0 0
1.91717 0.51049 7.00353 0 0 0
1.94747 -0.263402 7.12733 0 0 0
1.94215 0.259809 7.05602 0 0 0
1.97637 -0.150233 7.1231 0 0 0
1.97637 -0.150233 7.1231 0 0 0
1.98241 -0.295667 7.1522 0 0 0
1.97454 0.0873775 7.08146 0 0 0
1.97728 0.109817 7.0887 0 0 0
2.19232 0.136615 8.56926 0 0 0
2.19232 0.136615 8.56926 0 0 0
1.9909 -0.405951 7.17486 0 0 0
1.9916 -0.192132 7.13798 0 0 0
1.99411 -0.150352 7.13542 0 0 0
1.99315 0.0881004 7.08939 0 0 0
1.99315 0.0881004 7.08939 0 0 0
1.99754 0.105111 7.10167 0 0 0
1.99754 0.105111 7.10167 0 0 0
2.21349 0.172128 8.58129 0 0 0
1.99777 -0.0164629 7.10158 0 0 0
1.99771 0.146858 7.08615 0 0 0
2.22201 0.212976 8.60624 0 0 0
2.00043 0.262176 7.06483 0 0 0
2.00267 0.240936 7.078 0 0 0
2.01284 -0.304977 7.16169 0 0 0
2.01733 0.0354349 7.11491 0 0 0
2.01632 0.172816 7.08573 0 0 0
2.2451 0.487553 8.5957 0 0 0
2.02148 0.245859 7.08134 0 0 0
2.02267 0.267354 7.07767 0 0 0
2.02412 0.287593 7.07488 0 0 0
2.03114 0.181482 7.08727 0 0 0
2.03007 0.268924 7.07701 0 0 0
2.03856 -0.0545068 7.12999 0 0 0
2.03267 0.263138 7.08102 0 0 0
2.04312 0.11225 7.10784 0 0 0
2.26159 0.182623 8.53699 0 0 0
2.06808 -0.299728 7.18324 0 0 0
2.23628 -0.126259 8.26874 0 0 0
2.08014 -0.552159 7.24405 0 0 0
2.22227 -0.236171 8.12775 0 0 0
2.07512 -0.186503 7.17019 0 0 0
2.07389 -0.0492762 7.14662 0 0 0
2.15653 -0.582957 7.68696 0 0 0
2.15653 -0.582957 7.68696 0 0 0
2.08798 -0.55297 7.23605 0 0 0
2.08151 -0.139764 7.17035 0 0 0
2.09147 -0.200271 7.1786 0 0 0
2.09614 -0.1498 7.16787 0 0 0
2.10252 -0.26994 7.19019 0 0 0
2.11362 0.0985447 7.1437 0 0 0
2.14281 -0.445706 7.238 0 0 0
2.36094 0.489005 8.51587 0 0 0
2.13695 0.399097 7.09627 0 0 0
2.16792 -0.391059 7.22377 0 0 0
2.36163 -0.0745647 8.23707 0 0 0
2.3685 -0.0773404 8.22087 0 0 0
2.37499 -0.0714678 8.21684 0 0 0
2.2268 0.479392 7.11676 0 0 0
2.3577 0.56513 7.57173 0 0 0
2.40484 0.606067 7.63509 0 0 0
2.41781 0.61626 7.61768 0 0 0
2.47574 -0.265449 7.20199 0 0 0
2.47766 -0.248142 7.20371 0 0 0
-2.31126 -0.117848 5.408 196 232 255
-2.3098 -0.0404052 5.40916 193 229 255
-2.3098 -0.0404052 5.40916 193 229 255
-2.30175 -0.462034 5.44118 209 238 254
-2.23214 0.474433 5.35322 176 221 254
-2.25724 0.162794 5.40557 186 227 255
-2.24444 0.300369 5.39351 185 226 254
-2.23593 0.335849 5.38983 184 223 254
-2.2806 -0.674087 5.48372 216 244 255
-2.20622 0.383619 5.37653 180 225 255
-2.22829 -0.0234297 5.44358 196 230 255
-2.20806 0.102769 5.41724 192 229 255
-2.22492 -0.247929 5.45174 201 236 255
-2.2056 0.0720969 5.42934 192 229 255
-2.22118 -0.371871 5.46851 205 236 254
-2.18042 0.453998 5.4194 182 223 255
-2.19699 -0.168148 5.45213 200 232 253
-2.17017 0.0496698 5.44002 194 230 254
-2.16262 0.197402 5.42765 188 228 254
-2.16182 0.069075 5.44271 197 229 254
-2.16182 0.069075 5.44271 197 229 254
-2.15488 0.222506 5.43284 187 227 253
-2.16609 -0.0669078 5.4613 197 232 254
-2.14339 -0.0323715 5.45865 193 234 254
-2.14029 -0.273567 5.46942 206 237 255
-2.13215 -0.470618 5.5128 212 241 255
-2.12645 -0.375266 5.50394 208 240 255
-2.10061 -0.138768 5.4673 202 234 255
-2.12231 -0.327428 5.50377 206 239 255
-2.15548 -0.68158 5.5676 219 248 254
-2.10129 -0.109573 5.4814 198 235 254
-2.07607 0.298903 5.44114 188 228 254
-2.08064 0.389135 5.45077 186 225 254
-2.07213 0.339435 5.44014 186 227 255
-2.06414 0.362387 5.43446 185 226 254
-2.08726 -0.0125435 5.47632 198 233 255
-2.11669 -0.511782 5.5306 212 244 255
-2.07654 0.101475 5.47003 195 233 255
-2.02981 0.445288 5.40455 182 226 255
-2.09116 -0.426347 5.51865 212 241 255
-2.03628 0.338685 5.42685 188 228 254
-2.05515 0.266685 5.46018 191 228 254
-2.06395 -0.00748254 5.48162 197 234 253
-2.08932 -0.39641 5.52551 212 241 255
-2.08282 -0.375683 5.52124 212 241 255
-2.06495 -0.0675059 5.49525 203 235 255
-2.08298 -0.38687 5.52662 210 242 255
-2.07124 -0.214251 5.5108 205 236 254
-2.07924 -0.399562 5.52587 212 241 255
-2.03088 0.334963 5.4522 188 228 254
-2.06315 -0.455506 5.53822 214 244 255
-2.00296 0.433959 5.46764 184 228 253
-1.99623 0.466237 5.46549 189 224 254
-2.01804 0.111466 5.51421 197 232 254
-2.01804 0.111466 5.51421 197 232 254
-2.02144 0.0834593 5.52181 197 233 255
-2.02168 0.0381711 5.52931 197 234 253
-2.36657 0.104703 6.08161 197 233 255
-1.99864 0.247663 5.5042 194 230 254
-2.02037 -0.422646 5.55265 211 243 254
-1.99654 0.132525 5.51777 198 233 255
-1.95277 0.285227 5.50961 194 230 255
-1.938 -0.178921 5.54611 210 239 255
-1.96495 -0.335591 5.59658 213 243 254
-1.92678 0.108788 5.56847 201 233 254
-1.91062 0.193352 5.5411 201 233 255
-1.92713 -0.482119 5.58749 216 246 254
2.86459 -0.217514 -2.3636 193 231 254
-1.90806 0.0597023 5.55576 202 234 255
-1.90806 0.0597023 5.55576 202 234 255
-1.86188 0.0251676 5.53976 201 238 255
-1.85392 -0.129708 5.54929 208 240 255
-1.83567 -0.050177 5.55839 206 239 255
-1.85983 -0.423848 5.61736 217 246 254
-1.81061 0.0917699 5.55333 203 235 255
-1.80026 0.287872 5.54207 197 232 254
-1.80575 0.13896 5.5593 200 235 255
-1.8319 -0.30145 5.60937 215 243 255
-1.8319 -0.30145 5.60937 215 243 255
-1.80767 -0.0643838 5.59376 209 238 255
-1.79736 -0.0935404 5.58279 211 238 255
-1.81089 -0.282705 5.61024 218 241 255
-1.78726 0.138414 5.57056 203 234 255
-1.79947 -0.208574 5.60396 212 241 255
-1.80235 -0.379507 5.62861 218 245 254
-1.78873 -0.234192 5.61864 215 243 255
-1.76271 0.216544 5.57044 201 233 254
-1.79376 -0.406258 5.63268 220 247 255
-1.78103 -0.271449 5.62269 217 244 255
-1.78103 -0.271449 5.62269 217 244 255
-1.75923 0.068633 5.58175 202 237 255
-1.75967 0.0792777 5.58295 205 236 255
-1.76228 0.0369018 5.58852 51 74 118
-1.77856 -0.329974 5.62854 215 245 255
-1.77856 -0.329974 5.62854 215 245 255
-1.75583 0.0657474 5.59038 207 238 255
-1.75101 0.234016 5.58501 199 234 255
-1.7089 -0.0816932 5.5417 211 240 255
-1.72771 0.207616 5.57746 199 234 254
-1.72569 0.0487859 5.59962 56 61 81
-1.731 -0.168896 5.63056 212 241 255
-1.7131 0.0543225 5.6074 44 46 94
-1.70282 0.128574 5.59629 201 236 255
-1.70719 -0.294912 5.65709 217 244 253
-1.67813 0.173333 5.60361 204 236 255
-1.69941 -0.257291 5.65773 216 244 255
-1.66633 0.0728871 5.6162 208 237 255
-1.67358 -0.215738 5.65522 217 244 255
-1.67358 -0.215738 5.65522 217 244 255
-1.66804 -0.166978 5.64895 215 243 255
-1.65841 0.0184519 5.63065 181 184 237
-1.67213 -0.294552 5.6643 219 246 255
-1.67172 -0.346969 5.67442 220 247 255
-1.65703 -0.237286 5.66408 217 244 255
-1.65663 -0.257634 5.66526 217 246 254
-1.66891 -0.492047 5.6922 224 249 255
-1.64198 -0.0671248 5.63998 210 242 255
-1.66342 -0.440834 5.68298 223 248 255
-1.66141 -0.454452 5.68177 222 249 255
-1.61708 0.353447 5.59408 199 234 255
-1.62112 -0.161802 5.63021 216 242 255
-1.65368 -0.507458 5.70144 225 250 255
-1.64851 -0.443913 5.69435 221 248 255
-1.64757 -0.504774 5.70142 224 249 254
-1.60422 -0.14409 5.62778 230 255 255
-1.58096 -0.114165 5.661 216 242 255
-1.58096 -0.114165 5.661 216 242 255
-1.81698 0.0978828 6.32592 203 219 232
-1.81743 0.0421758 6.33079 128 134 168
-1.81952 -0.0933603 6.35186 215 243 254
-1.81852 -0.102738 6.35264 216 244 255
-1.77873 0.392714 6.30753 202 234 255
-1.7786 0.332317 6.31463 207 235 255
-1.80718 -0.334631 6.38839 103 111 130
-1.77011 0.299965 6.32711 209 240 255
-1.79175 -0.237357 6.38671 124 115 120
-1.79175 -0.237357 6.38671 124 115 120
-1.79448 -0.40442 6.39507 97 107 134
-1.78543 -0.230632 6.3878 137 127 135
-1.75846 0.255567 6.33401 150 161 157
-1.79056 -0.363021 6.40396 100 113 132
-1.75715 0.192186 6.33655 96 122 135
-1.7502 -0.481234 6.4001 45 65 100
-1.72653 -0.482334 6.39562 51 67 101
-1.74182 -0.550731 6.45262 87 108 139
-1.71149 -0.402471 6.4177 68 79 109
-1.71871 -0.691843 6.46942 52 63 93
-1.68094 -0.698585 6.49976 40 56 89
-1.66896 -0.707298 6.49833 44 60 86
-1.6666 -0.713621 6.50366 47 65 87
-1.66112 -0.706221 6.49701 47 61 87
-1.64529 -0.720512 6.51396 51 61 88
-1.5995 0.0079535 6.43046 48 65 91
-1.5916 -0.681063 6.52579 43 59 84
-1.53982 -0.286889 6.49966 41 55 81
-1.53982 -0.286889 6.49966 41 55 81
-1.51398 -0.224252 6.50648 44 53 82
-1.50205 0.0578407 6.48517 58 73 96
-1.50205 0.0578407 6.48517 58 73 96
-1.47587 0.0176005 6.49276 52 67 90
-1.47945 -0.426439 6.53455 44 56 82
-1.47324 -0.335231 6.53862 45 59 86
-1.57955 -0.797732 6.78953 115 127 151
-1.47047 -0.41498 6.54709 41 57 80
-1.56936 -0.826234 6.783 42 49 75
-1.43909 -0.129884 6.52387 103 129 166
-1.43909 -0.129884 6.52387 103 129 166
-1.42025 0.0713441 6.48595 128 125 118
-1.42816 0.0178362 6.50482 128 119 112
-1.4341 -0.192698 6.52591 25 42 60
-1.43814 -0.427043 6.5677 40 52 78
-1.53392 -0.773263 6.79261 60 71 101
-1.51994 -0.761577 6.78894 106 111 141
-1.40971 -0.0987617 6.53334 43 58 79
-1.40971 -0.0987617 6.53334 43 58 79
-1.40231 -0.327797 6.56004 43 57 83
-1.41324 -0.537444 6.60783 36 53 79
-1.40603 -0.591108 6.61403 115 98 88
-1.40247 -0.538086 6.60619 43 57 83
-1.36508 -0.0578167 6.52558 48 61 80
-1.36354 -0.328364 6.59237 126 113 96
-1.32528 -0.51313 6.56529 65 76 104
-1.30626 -0.28076 6.6415 121 114 106
-1.30626 -0.28076 6.6415 121 114 106
-1.20692 0.181188 6.57559 123 121 122
-1.22611 -0.668291 6.6797 72 97 138
-1.17449 0.0332183 6.59489 123 118 115
-1.17253 0.0678348 6.59572 60 88 138
-1.17359 -0.0901579 6.63712 52 68 94
-1.17994 -0.337916 6.66275 49 79 115
-1.16707 -0.187042 6.64807 89 124 166
-1.14986 -0.0400094 6.60757 77 85 98
-1.14986 -0.0400094 6.60757 77 85 98
-1.16203 -0.131655 6.64241 42 56 85
-1.18597 -0.573568 6.71289 111 116 119
-1.17354 -0.532693 6.69936 40 56 81
-1.1532 -0.218349 6.65954 103 108 130
-1.15331 -0.233305 6.67028 38 58 83
-1.13525 0.0398099 6.62211 79 95 118
-1.14866 -0.295798 6.67333 85 98 117
-1.14787 -0.288839 6.67446 86 98 120
-1.14854 -0.418784 6.70168 100 110 135
-1.34129 -1.09753 7.22131 101 100 98
-1.12736 -0.269788 6.67464 64 82 102
-1.33431 -1.12879 7.25021 99 95 83
-1.10923 -0.116236 6.66523 155 153 140
-1.10923 -0.116236 6.66523 155 153 140
-1.20683 -0.822825 6.94689 124 121 106
-1.205 -0.772453 6.95828 127 119 116
-1.08602 -0.0851063 6.66848 83 70 61
-1.19524 -0.828292 6.96334 100 92 79
-1.19524 -0.828292 6.96334 100 92 79
-1.06038 -0.0478962 6.63792 121 101 90
-1.08605 -0.416816 6.72016 130 117 101
-1.08605 -0.416816 6.72016 130 117 101
-1.06963 -0.191167 6.69181 121 111 101
-1.04438 0.129423 6.6534 157 152 133
-1.15234 -0.782496 6.96929 121 106 111
-1.05101 -0.186868 6.6981 96 88 85
-1.04908 -0.392555 6.7174 107 99 88
-1.03873 -0.0786873 6.68994 122 117 113
-1.03555 -0.151035 6.68787 116 106 104
-1.03031 -0.533216 6.76265 101 96 92
-1.2275 -1.15025 7.32319 53 56 45
-1.06745 -0.733454 6.90155 129 131 120
-0.997787 -0.322591 6.74147 123 119 108
-0.958569 -0.342185 6.74636 100 91 84
-0.972808 -0.679185 6.81537 114 109 105
-0.960793 -0.242985 6.79301 82 68 67
-0.941404 -0.443532 6.76319 122 124 113
-0.924069 -0.247652 6.81234 112 112 104
-0.921958 -0.687575 6.82228 112 105 99
-0.894825 -0.693547 6.8391 93 102 117
-0.89041 -0.647538 6.85449 91 104 121
-0.848997 -0.041488 6.7415 141 134 124
-0.852588 0.126041 6.76138 65 78 113
-0.846961 0.124113 6.74745 65 78 113
-1.0085 -1.13469 7.4094 82 71 67
-1.00565 -1.14033 7.40944 81 74 68
-0.778848 -0.177518 6.80945 135 139 142
-0.836711 -0.77179 7.1199 129 122 114
-0.686581 -0.490173 6.68548 80 70 71
-0.813393 -0.761361 7.09788 114 110 107
-0.814547 -0.772474 7.12541 122 122 120
-0.865544 -1.03108 7.29992 58 76 96
-0.892619 -1.08213 7.39761 101 106 109
-0.859039 -0.970046 7.29407 64 74 99
-0.67605 -0.443334 6.72713 133 133 131
-0.802612 -0.871031 7.13359 122 116 104
-0.847551 -1.14174 7.32138 59 55 56
-0.843128 -1.0683 7.33388 96 114 138
-0.612476 -0.487727 6.71476 80 76 73
-0.612476 -0.487727 6.71476 80 76 73
-0.608117 -0.493722 6.71314 68 66 67
-0.819432 -1.09588 7.44297 117 123 113
-0.567062 -0.176489 6.72656 131 136 140
-0.562774 -0.498201 6.73778 69 63 67
-0.527222 -0.0519875 6.63859 134 139 143
-0.55276 -0.527043 6.73902 124 131 124
-0.575307 -0.603541 6.85714 52 63 83
-0.536916 -0.487067 6.74496 76 70 70
-0.516793 -0.0298637 6.67719 125 129 128
-0.510814 0.038628 6.68942 44 65 86
-0.543144 -0.550681 6.81215 117 107 106
-0.532851 -0.541593 6.81058 126 126 124
-0.541117 -0.563226 6.84522 107 107 107
-0.658767 -1.03659 7.27844 52 60 71
-0.372006 -0.521717 6.3927 94 101 109
-0.456263 0.0253063 6.68316 120 114 100
-0.493656 -0.551885 6.82087 94 101 109
-0.491536 -0.540946 6.82548 105 108 115
-0.492512 -0.560968 6.83221 118 126 129
-0.4804 -0.580239 6.83728 86 79 73
-0.447726 -0.525794 6.78334 111 105 93
-0.457857 -0.55641 6.82027 118 109 100
-0.414414 0.0462874 6.68538 126 113 94
-0.453205 -0.591952 6.85823 107 107 107
-0.440221 -0.603877 6.85466 114 114 114
-0.587305 -1.12858 7.41379 102 89 98
-0.431414 -0.56813 6.8483 102 101 107
-0.574176 -1.14347 7.45348 52 51 59
-0.38148 -0.481359 6.81473 67 77 78
-0.618851 -1.31268 7.73194 130 126 123
-0.367025 -0.0621456 6.79935 121 119 124
-0.367025 -0.0621456 6.79935 121 119 124
-0.369981 0.1475 6.81259 125 124 119
-0.528007 -1.14439 7.44754 70 66 55
-0.352536 0.356635 6.78475 120 124 123
-0.356243 0.153103 6.81075 88 80 69
-0.357157 -0.484894 6.83212 104 92 92
-0.57789 -1.5155 7.6818 90 76 73
-0.3434 -0.480986 6.82822 79 75 72
-0.536989 -1.26793 7.57816 98 98 86
-0.336119 -0.458951 6.84538 117 121 120
-0.498338 -1.14591 7.47127 59 55 54
-0.3423 -0.733501 6.90184 112 105 99
-0.346546 -0.833711 6.93785 86 78 75
-0.335426 -0.707798 6.90264 109 104 100
-0.338941 -0.781347 6.91774 76 66 65
-0.341195 -0.846777 6.93029 99 95 96
-0.475937 -1.14444 7.4753 109 101 98
-0.331033 -0.833985 6.93286 109 105 102
-0.326756 -0.828093 6.92276 108 107 102
-0.312384 -0.834713 6.93089 114 113 109
-0.288785 0.12064 6.83604 64 62 65
-0.282892 0.173657 6.84052 136 137 129
-0.279147 -0.483665 6.8475 79 69 78
-0.277508 0.130803 6.85314 73 82 99
-0.437482 -1.24626 7.54553 110 98 86
-0.250457 0.0490337 6.80047 74 91 107
-0.273488 -0.267315 6.90214 86 88 83
-0.272452 -0.0792767 6.93142 105 103 104
-0.244437 0.140723 6.87299 42 60 74
-0.247794 -0.446679 6.89556 109 115 111
-0.256519 -0.764443 6.93889 96 92 89
-0.227644 0.151051 6.87103 34 53 70
-0.245073 -0.757372 6.95679 109 107 108
-0.23873 -0.732319 6.94088 112 110 111
-0.23873 -0.732319 6.94088 112 110 111
-0.199326 -0.108561 6.87002 124 126 121
-0.326307 -1.02776 7.42171 67 81 94
-0.194389 -0.10539 6.87856 119 123 122
-0.32152 -1.03213 7.42513 61 77 90
-0.198448 -0.553895 6.94955 97 102 96
-0.180184 -0.601821 6.95952 72 84 108
-0.176063 -0.555105 6.95378 108 113 106
-0.323915 -1.08952 7.66145 71 69 83
-0.323915 -1.08952 7.66145 71 69 83
-0.142275 -0.505072 6.91099 64 63 68
-0.149066 -0.572641 6.96454 110 108 111
-0.126183 -0.519537 6.91714 63 58 64
-0.107943 -0.564621 7.00364 107 112 106
-0.228324 -1.26097 7.59943 97 100 89
-0.212201 -1.13003 7.5959 107 100 107
-0.208848 -1.02666 7.59535 78 85 137
-0.206657 -1.02546 7.58911 79 85 137
-0.203767 -0.952862 7.58188 103 97 101
-0.202589 -1.04043 7.57796 28 34 50
-0.186986 -1.04157 7.59609 25 40 63
-0.175766 -1.18593 7.62079 52 47 53
-0.161247 -0.963804 7.5933 45 56 74
-0.0173747 -0.522212 6.9506 59 58 63
-0.0102946 -0.52525 6.94718 69 60 63
-0.0152485 -0.28577 6.96852 105 103 104
0.0181111 -0.0496346 6.84525 111 122 126
-0.166102 -1.15346 7.78536 100 99 104
-0.119174 -1.14837 7.5673 57 47 56
-0.134209 -1.11918 7.77494 69 90 111
0.0124553 -0.565574 7.06697 95 100 103
-0.108731 -1.1762 7.66516 81 72 91
-0.0621327 -0.790887 7.44803 99 100 104
-0.123291 -1.11164 7.76589 86 98 112
0.0380223 -0.455854 7.01503 95 99 108
-0.0894605 -1.18086 7.66159 57 49 64
0.0421906 -0.529388 7.02853 49 48 56
-0.0404307 -0.786809 7.45559 90 91 93
-0.0240482 -0.767706 7.44208 76 86 96
-0.0666378 -1.05333 7.68012 25 30 52
0.0713306 -0.0976381 6.97809 102 101 109
-0.0681896 -1.11198 7.79801 23 53 55
-0.0337233 -1.13984 7.83328 76 89 97
0.0939851 -0.459857 7.17919 85 93 96
0.107938 0.0518881 7.12491 57 85 125
-0.017185 -1.12941 7.83575 59 80 97
0.129895 -0.460217 7.18783 89 101 115
0.0141046 -1.1182 7.8625 67 66 62
0.141849 -0.310364 7.20826 60 65 68
0.0359853 -1.08347 7.8166 69 66 59
0.14312 -0.664463 7.23383 76 75 70
0.0381074 -1.09739 7.82727 73 70 63
0.212733 0.0727453 7.17944 54 71 81
0.200883 -0.695244 7.3087 58 63 69
0.221401 -0.466143 7.21961 64 74 76
0.238316 -0.452789 7.24 81 95 108
0.252673 -0.502403 7.27446 72 80 99
0.154571 -1.10715 7.89614 10 37 46
0.276859 -0.326684 7.27979 41 43 58
0.186951 -1.08117 7.87217 16 29 38
0.186951 -1.08117 7.87217 16 29 38
0.179625 -1.13603 7.91946 67 83 96
0.182424 -1.1421 7.91183 71 83 99
0.242219 -0.762089 7.5463 39 64 71
0.281108 -0.555916 7.30872 41 49 62
0.291299 -0.464856 7.26068 70 81 101
0.295264 -0.475792 7.24099 65 78 95
0.199145 -1.06316 7.85956 31 42 62
0.253648 -0.726441 7.52603 17 31 42
0.198135 -1.10549 7.90161 13 32 38
0.3049 -0.0891043 7.25073 51 63 79
0.300382 -0.513365 7.30496 69 80 100
0.268245 -0.751501 7.55814 52 59 77
0.268245 -0.751501 7.55814 52 59 77
0.209845 -1.10804 7.93539 17 30 46
0.322157 0.0654711 7.22108 49 67 79
0.326825 -0.381637 7.2668 52 60 79
0.286168 -0.744693 7.54377 21 33 45
0.331431 -0.373115 7.26682 39 50 72
0.33438 -0.261135 7.27449 57 69 83
-0.691886 0.673864 13.9986 61 73 87
0.345877 -0.421364 7.30479 48 48 60
0.351428 -0.102205 7.26792 57 66 83
0.359381 -0.00961136 7.25353 73 87 100
0.370206 0.056322 7.22874 83 91 112
0.367734 -0.0831872 7.26201 54 67 84
0.365781 -0.45638 7.28442 37 49 65
0.365781 -0.45638 7.28442 37 49 65
0.363509 -0.327358 7.30162 30 43 60
0.372908 -0.461042 7.27606 36 42 64
0.381985 -0.0578639 7.2843 78 79 100
0.408222 -0.470032 7.30237 58 68 80
0.416911 0.0806174 7.27239 57 70 87
0.432041 -0.389153 7.34372 81 96 115
0.445605 -0.0516254 7.28665 94 109 128
0.433847 -0.504089 7.38266 73 92 109
0.422741 -0.694387 7.46836 86 102 117
0.443663 -0.143452 7.31732 88 105 123
0.43825 -0.514928 7.37653 80 97 113
0.448452 -0.153853 7.31501 94 106 128
0.455074 0.0505666 7.28064 93 109 134
0.4498 -0.255988 7.32746 87 106 121
0.457807 0.100805 7.28468 94 109 130
0.457807 0.100805 7.28468 94 109 130
0.455348 -0.194429 7.31091 91 106 129
0.345359 -0.951817 8.13718 178 175 158
0.456462 -0.545235 7.39339 226 224 203
0.474271 -0.195149 7.32821 234 234 210
0.497618 0.243377 7.2743 242 235 217
0.499957 0.092823 7.26438 236 230 204
0.485234 -0.636366 7.39667 239 227 215
0.493231 -0.450254 7.3388 244 230 219
0.431371 -1.09779 7.98374 255 247 251
0.508198 -0.664318 7.40461 244 234 224
0.518619 -0.682367 7.42023 233 220 211
0.537435 -0.658378 7.41356 247 237 228
0.548022 -0.477239 7.34989 243 230 222
0.472472 -1.10064 8.00328 93 113 140
0.56588 -0.0614405 7.31825 247 237 228
0.56588 -0.0614405 7.31825 247 237 228
0.584688 0.0757283 7.32815 247 234 226
0.590056 -0.704345 7.42141 245 236 227
0.523823 -1.28599 8.09818 84 99 130
0.53211 -1.19361 8.0781 63 85 109
0.532251 -1.29081 8.1003 79 99 124
0.534596 -1.17306 8.08428 92 108 134
0.535823 -1.22555 8.09413 83 100 128
0.545343 -1.15127 8.07508 89 103 132
0.545343 -1.15127 8.07508 89 103 132
0.561763 -1.14106 8.0791 113 125 141
0.616771 -0.74439 7.69866 234 219 212
0.65376 -0.480895 7.39141 242 233 226
0.588489 -1.052 8.00937 212 198 195
0.62144 -0.779867 7.71181 238 228 218
0.660708 -0.0125842 7.34776 254 245 238
0.671 -0.50871 7.46256 241 230 224
0.681428 -0.0308365 7.37281 248 237 231
0.673688 -0.618271 7.48006 236 223 214
0.673688 -0.618271 7.48006 236 223 214
0.679267 -0.661786 7.46195 237 225 213
0.682807 -0.541444 7.47496 240 223 216
0.69216 -0.495628 7.44083 244 231 223
0.70009 -0.444039 7.42177 246 233 224
0.673159 -0.746671 7.70573 239 230 215
0.64822 -1.02179 7.99444 230 218 202
0.72836 -0.0442305 7.4219 242 227 220
0.701092 -0.771636 7.74025 243 234 217
0.702663 -0.737545 7.72712 241 224 214
0.729067 -0.348471 7.46161 224 212 200
0.73053 -0.300088 7.45555 241 231 221
0.741091 -0.554201 7.50861 230 216 203
0.761632 -0.10079 7.42217 154 176 91
0.769956 -0.224787 7.45865 171 192 101
0.760632 -0.646085 7.64047 185 203 93
0.769426 -0.635985 7.63715 190 209 102
0.78944 0.158308 7.405 166 186 87
0.78944 0.158308 7.405 166 186 87
0.805411 -0.0209841 7.29671 178 197 89
0.791177 -0.173788 7.45916 173 192 102
0.752557 -0.90665 7.91531 178 199 78
0.795026 -0.0800515 7.45037 168 192 82
0.763476 -0.92955 7.92919 187 215 68
0.808565 -0.270935 7.47578 155 178 74
0.771168 -0.920204 7.94385 180 206 70
0.815256 -0.41124 7.46998 166 191 73
0.82153 0.100954 7.43031 162 182 71
0.825666 -0.019664 7.43513 169 192 78
0.821658 -0.655028 7.52757 180 198 76
0.831363 0.125236 7.41479 201 219 107
0.839119 0.370285 7.38566 159 185 84
0.839119 0.370285 7.38566 159 185 84
0.836048 -1.28136 7.52088 24 57 30
0.847401 -0.509619 7.5263 184 206 71
0.854457 0.0799773 7.43732 166 190 80
0.86956 -0.442499 7.48716 194 217 77
0.811726 -0.915004 8.32573 184 206 97
0.873827 -0.616652 7.57125 186 210 74
0.88217 -0.476329 7.4946 163 189 62
0.845833 -1.16866 8.16923 29 60 26
0.869577 -1.1689 8.13423 55 83 35
0.927371 -0.67466 7.59362 165 199 52
0.928518 -0.67824 7.57874 172 202 56
0.904932 -1.18486 8.04455 23 61 24
0.91431 -1.18286 8.04932 19 54 24
0.949913 -0.336854 7.52031 177 201 79
0.928037 -1.12317 8.0501 66 96 32
0.930502 -1.10154 8.04569 82 120 37
0.931019 -1.18044 8.05425 34 60 33
0.934969 -1.075 8.04738 115 147 46
0.94959 -1.18179 8.05624 51 81 27
0.987889 0.137486 7.47408 179 205 80
0.95364 -1.12445 8.061 113 143 43
0.95364 -1.12445 8.061 113 143 43
0.96123 -0.943053 8.04209 168 196 59
0.966368 -0.919805 8.03746 175 199 59
1.00616 -0.090744 7.5632 161 185 63
0.979782 -0.778476 8.02734 174 198 74
0.981941 -1.12215 8.0666 132 161 55
0.982535 -1.18584 8.06026 49 79 25
1.0146 -0.0869132 7.56691 149 177 54
0.988898 -1.19412 8.07702 53 87 27
0.988898 -1.19412 8.07702 53 87 27
1.0175 -0.500965 7.58889 178 203 57
0.991265 -0.992551 8.0625 166 195 55
0.99367 -0.961908 8.05419 170 200 54
0.996232 -1.19975 8.06657 66 93 38
0.997414 -1.18802 8.06941 88 118 46
1.00168 -0.85111 8.04834 169 190 59
1.00785 -0.76695 8.03856 169 190 61
1.0554 0.137253 7.50584 149 175 50
1.05793 -0.493646 7.61512 176 200 60
1.05793 -0.493646 7.61512 176 200 60
1.07012 -0.229522 7.56159 192 215 81
1.07174 -0.198535 7.56683 193 214 73
1.07174 -0.198535 7.56683 193 214 73
1.08852 0.113782 7.53032 175 203 56
1.10403 -0.0706437 7.5697 180 204 66
1.10403 -0.0706437 7.5697 180 204 66
1.11069 0.0421907 7.54434 188 209 68
1.11095 -0.120161 7.57087 175 201 52
1.11346 0.131745 7.52946 163 188 60
1.11627 -0.0908536 7.56004 159 179 48
1.07666 -1.08417 8.52915 156 184 61
1.12015 -0.419785 7.61257 139 158 50
1.12477 -0.00340059 7.54753 186 208 73
1.13732 -0.162301 7.57635 165 189 53
1.14339 -0.0479998 7.56343 182 209 70
1.15736 0.244539 7.52606 165 186 85
1.16973 0.000341315 7.53797 166 191 71
1.15656 -1.17154 8.18634 139 171 64
1.19329 0.0152971 7.51371 185 210 83
1.17397 -1.17758 8.15021 149 181 44
1.17657 -1.16621 8.15425 175 209 63
1.18073 -1.17162 8.15154 161 190 50
1.20611 -0.672815 7.44753 181 209 62
1.21412 -0.67839 7.41142 176 203 48
1.18952 -1.14575 8.15788 152 184 49
1.19122 -1.17911 8.15382 128 161 56
1.19224 -1.09189 8.1574 164 196 37
1.217 -0.675846 7.42575 159 184 40
1.19355 -1.10303 8.1522 168 200 57
1.19665 -1.17669 8.1522 122 158 52
1.19665 -1.17669 8.1522 122 158 52
1.20303 -1.16355 8.15086 124 160 62
1.2323 -0.680759 7.38376 184 210 39
1.23843 -0.475076 7.30731 0 0 0
1.21435 -1.14025 8.1621 0 0 0
1.2331 -1.16881 8.16198 0 0 0
1.23963 -1.13921 8.1753 0 0 0
1.23963 -1.13921 8.1753 0 0 0
1.24003 -1.16525 8.17462 0 0 0
1.24003 -1.16525 8.17462 0 0 0
1.24824 -1.1954 8.21521 0 0 0
1.24967 -1.16887 8.17323 0 0 0
1.26679 -1.16386 8.18455 0 0 0
1.27288 -1.19574 8.23084 0 0 0
1.28474 -1.19344 8.21684 0 0 0
1.3085 0.278988 7.23499 0 0 0
1.31924 -0.648934 7.25686 0 0 0
1.30167 -1.18969 8.21966 0 0 0
1.33461 -0.383333 7.15078 0 0 0
1.32211 -1.0573 7.9727 0 0 0
1.31918 -1.16173 8.20421 0 0 0
1.31918 -1.16173 8.20421 0 0 0
1.32023 -1.18865 8.22663 0 0 0
1.34311 -0.498696 7.0801 0 0 0
1.32267 -1.19232 8.23607 0 0 0
1.33039 -1.1598 8.20888 0 0 0
1.34786 -0.633126 7.2625 0 0 0
1.33542 -1.18977 8.22873 0 0 0
1.35489 -0.358845 7.14957 0 0 0
1.35953 -0.47261 7.13171 0 0 0
1.37456 -0.691022 7.27636 0 0 0
1.37675 -1.17465 8.21718 0 0 0
1.41289 -0.534496 6.91244 0 0 0
1.41289 -0.534496 6.91244 0 0 0
1.42054 -0.0867313 6.98803 0 0 0
1.42146 0.107719 7.00207 0 0 0
1.4313 -0.16769 6.99238 0 0 0
1.43779 -0.00434137 6.97568 0 0 0
1.44188 -0.514961 6.92831 0 0 0
1.4543 -0.528534 6.91977 0 0 0
1.46049 -1.0819 7.70878 0 0 0
1.4617 0.0356599 6.9509 0 0 0
1.47623 -0.250818 6.96626 0 0 0
1.47947 -0.604099 7.0283 0 0 0
1.48362 -0.662986 7.08291 0 0 0
1.48377 -0.652101 7.07432 0 0 0
1.4884 -0.649628 7.07524 0 0 0
1.4881 -0.0739154 6.87972 0 0 0
1.49742 -1.09771 7.61549 0 0 0
1.51591 -0.77225 7.19516 0 0 0
1.5149 0.257404 6.87245 0 0 0
1.52648 -0.354058 6.96979 0 0 0
1.52835 -0.317066 6.97255 0 0 0
1.52942 -0.398603 6.98032 0 0 0
1.53337 -0.458895 6.99208 0 0 0
1.53384 -0.170058 6.94391 0 0 0
1.53879 -0.906436 7.31475 0 0 0
1.54116 0.161112 6.89655 0 0 0
1.54601 -0.534681 6.98051 0 0 0
1.55296 -1.273 7.54335 0 0 0
1.5529 -1.25164 7.5362 0 0 0
1.55016 -0.28621 6.97484 0 0 0
1.5593 -1.18384 7.51817 0 0 0
1.55984 -1.27912 7.5504 0 0 0
1.55955 -1.16082 7.52398 0 0 0
1.55978 -1.19708 7.53175 0 0 0
1.55271 -0.152576 6.95574 0 0 0
1.5529 -0.113652 6.94229 0 0 0
1.56131 -1.26926 7.54414 0 0 0
1.56139 -1.16736 7.51575 0 0 0
1.56249 -1.11617 7.49259 0 0 0
1.55769 -0.141897 6.94889 0 0 0
1.56655 -1.08596 7.47421 0 0 0
1.56755 -1.25692 7.54337 0 0 0
1.56775 -1.12986 7.50725 0 0 0
1.57284 -1.05577 7.45419 0 0 0
1.56486 0.31837 6.88342 0 0 0
1.56486 0.31837 6.88342 0 0 0
1.56694 -0.190742 6.96539 0 0 0
1.57649 -1.14644 7.52027 0 0 0
1.56939 -0.178492 6.97154 0 0 0
1.56931 0.264491 6.89036 0 0 0
1.57977 -1.18149 7.53836 0 0 0
1.57876 -1.0281 7.4289 0 0 0
1.57217 0.306313 6.88701 0 0 0
1.5731 0.132656 6.91504 0 0 0
1.57349 0.386309 6.87834 0 0 0
1.58451 -1.17469 7.53457 0 0 0
1.5852 -1.10731 7.50491 0 0 0
1.5852 -1.10731 7.50491 0 0 0
1.5783 -0.344257 6.98894 0 0 0
1.57636 0.348028 6.87793 0 0 0
1.58942 -1.16716 7.52676 0 0 0
1.58001 -0.120071 6.95805 0 0 0
1.57967 0.221759 6.89656 0 0 0
1.58011 0.301976 6.8932 0 0 0
1.59152 -1.02447 7.43583 0 0 0
1.58497 -0.448466 7.02919 0 0 0
1.59546 -1.1278 7.51747 0 0 0
1.58741 -0.157316 6.97854 0 0 0
1.60816 -1.05375 7.46481 0 0 0
1.61067 -1.11596 7.51323 0 0 0
1.61067 -1.11596 7.51323 0 0 0
1.61529 -1.10534 7.51329 0 0 0
1.61529 -1.10534 7.51329 0 0 0
1.60697 -0.391643 7.02509 0 0 0
1.61675 -1.04149 7.47248 0 0 0
1.60561 0.0895705 6.92823 0 0 0
1.60561 0.0895705 6.92823 0 0 0
1.61815 -1.0939 7.50315 0 0 0
1.60772 -0.168761 6.98336 0 0 0
1.6169 -0.712047 7.17569 0 0 0
1.61475 -0.0372408 6.96687 0 0 0
1.61569 -0.0343549 6.96208 0 0 0
