ply
format ascii 1.0 
element vertex 1294
property float32 x 
property float32 y 
property float32 z
property uchar red  
property uchar green
property uchar blue
element face 0
property list uchar int vertex_indices
end_header
-0.0147113 0.023373 0.024185 44 44 42
-4.59673 13.0404 18.1105 130 134 133
-5.03755 15.3604 19.9751 216 224 235
-0.0156123 0.0171686 0.0257511 157 159 158
-0.0152239 0.020345 0.0251528 104 106 105
-0.0152486 0.0200984 0.0252283 160 162 161
-0.0166598 0.00621446 0.0277693 213 214 209
-0.0174738 -0.00118864 0.0291425 217 223 235
-0.0174738 -0.00118864 0.0291425 124 124 122
-0.0178828 -0.00528863 0.0299135 204 205 199
-0.0138095 0.0255835 0.023137 204 205 199
-0.0139224 0.0244583 0.0234876 219 218 214
-0.0134532 0.0246896 0.023563 162 162 154
-0.0170167 0.000470643 0.0315339 219 220 215
-0.0147938 0.0196176 0.0273058 220 221 216
-0.0147728 0.0195868 0.0273232 224 225 220
-0.0172095 -0.00524746 0.0328114 199 199 199
-0.0170032 -0.00485096 0.0328565 98 106 109
-0.0149653 -0.00496925 0.0339601 98 106 109
-0.0147922 -0.00603198 0.0341279 163 163 163
-0.0145986 -0.00471287 0.0335771 213 208 204
-0.0126306 -0.00494693 0.0351785 211 212 206
-0.0119298 -0.00563709 0.0357426 210 211 205
-0.0111517 0.00409237 0.0337047 48 47 43
-0.0114061 -0.00556311 0.0359268 205 204 202
-0.0110765 -0.00494085 0.0362353 208 207 205
-0.0110765 -0.00494085 0.0362353 206 207 202
-0.0110529 -0.00609998 0.0361612 204 205 200
-0.0108836 -0.00713642 0.0359796 206 203 196
-0.0108149 -0.0044234 0.0361339 131 123 112
-0.0101268 0.00166855 0.0359804 209 208 204
-0.00964444 -0.0140038 0.0397929 210 207 200
-0.00839448 0.00701835 0.0349229 211 211 203
-0.00898355 -0.00554372 0.0378483 20 22 17
-0.00753012 0.0214449 0.0318494 208 209 203
-0.00729005 0.026505 0.0308723 200 197 190
-0.00926491 -0.0161819 0.0398777 200 197 190
-0.0084211 0.00115126 0.0364618 209 208 203
-0.0131545 -0.0692064 0.0570914 205 202 195
-0.0080375 0.00773396 0.0353408 204 201 196
-0.00825844 -0.007103 0.0376442 28 30 27
-0.0079466 0.000893878 0.0367829 208 209 204
-0.00816014 -0.00432 0.0380374 165 165 165
-0.00805271 -0.00739264 0.0377866 209 208 204
-0.00777369 0.00118855 0.0371977 221 222 224
-0.00772706 0.000577905 0.0370127 27 27 19
0.0156635 -0.561217 3.5444 207 204 197
-0.00780316 -0.00332115 0.0379685 58 60 59
-0.00781586 -0.00551929 0.0381196 13 16 7
-0.0073883 0.00269507 0.0364675 185 185 185
-0.00708808 0.00652672 0.0358599 211 210 205
0.0566077 -0.564401 3.61659 40 42 39
-0.00779387 -0.0123435 0.040388 199 201 198
-0.00758765 -0.0125553 0.0400792 212 211 206
-0.0067817 0.00654097 0.0362129 34 34 34
-0.0067817 0.00654097 0.0362129 40 42 39
-0.00718463 -0.00709666 0.0384116 207 208 203
-0.00593532 0.026071 0.0317652 149 151 148
-0.0072225 -0.0105127 0.0395501 211 210 206
-0.00711343 -0.011026 0.0396656 22 24 19
-0.00647201 0.00699353 0.036155 147 147 147
-0.00823673 -0.0475999 0.0462108 207 208 203
-0.00829666 -0.0474992 0.046714 212 213 208
-0.00681145 -0.00868262 0.0386979 214 213 208
-0.00561723 0.0268094 0.0319371 145 145 145
-0.00785351 -0.0487696 0.0468435 145 145 145
-0.00359009 -0.0498727 0.0408759 212 211 207
-0.165842 0.826836 1.89083 18 19 11
-0.00285316 0.0144155 0.0327926 207 212 208
-0.00353027 -0.049039 0.0412821 219 218 213
-0.00340329 -0.0492416 0.0411154 153 153 153
-0.00206707 0.0168924 0.028088 123 124 119
-0.00191411 0.0218722 0.0272119 91 90 86
-0.00213773 0.0232089 0.0251961 202 199 194
-0.00174996 0.0266406 0.0262873 13 18 12
-0.0017119 0.0259322 0.0265294 20 20 18
-0.001634 0.0305058 0.0256064 1 13 9
-0.00161379 0.0312802 0.0254485 174 176 171
-0.00152893 0.0312728 0.0255432 174 176 171
-0.00162165 0.0254324 0.0252741 63 78 75
-0.231934 2.38781 5.65122 152 140 140
-0.000965004 0.0162669 0.0288454 99 102 93
-0.000965004 0.0162669 0.0288454 11 16 9
-0.000752748 0.0269181 0.0269449 38 38 26
-0.000376745 0.0297064 0.0265593 37 37 25
-0.000603662 0.028814 0.0254901 38 38 26
-0.000568631 0.01385 0.027579 13 16 7
-1.49551e-06 0.0172426 0.0292422 17 20 13
0.00083308 0.0254224 0.0282786 14 17 10
0.00083308 0.0254224 0.0282786 31 32 18
0.00136145 0.0198641 0.0304243 178 177 172
0.0017909 -0.0442963 0.0432374 226 228 225
0.00216749 -0.0621652 0.0480688 226 228 225
0.00211923 -0.0445691 0.0429834 37 38 24
0.00151471 0.0164288 0.0284436 50 50 38
0.00324218 -0.0588563 0.0476475 50 50 38
0.00225859 0.0193883 0.0303211 188 190 187
0.00208734 0.0331463 0.0273643 231 232 227
0.0033062 -0.0434437 0.0427624 19 22 13
0.00379774 -0.0608083 0.0483631 19 22 13
0.00185237 0.0166293 0.0285909 220 221 216
0.00284135 0.0198158 0.030546 17 17 7
0.00284135 0.0198158 0.030546 21 22 16
0.00565151 -0.0664764 0.050963 59 58 53
0.00374433 0.0208498 0.0311226 227 228 222
0.00415281 0.0142379 0.0334148 58 60 49
0.00415281 0.0142379 0.0334148 219 220 215
0.00640576 -0.0631046 0.050493 13 16 9
0.00381249 0.029437 0.029271 164 160 149
0.00381249 0.029437 0.029271 52 48 37
0.00699153 -0.0664713 0.0516056 209 208 203
0.00685278 -0.0606391 0.0501936 220 219 214
0.00444066 0.0203837 0.0315247 220 219 214
0.00729146 -0.0636362 0.0511869 44 46 35
0.00717125 -0.0594293 0.0501227 192 196 199
0.00566614 0.0238774 0.0316718 162 159 150
0.00578476 0.0212098 0.0321941 162 159 150
0.00576496 0.0261688 0.0312261 50 46 37
0.00531951 0.0205237 0.0304526 18 19 13
0.0091023 -0.0544565 0.0494578 18 19 13
0.00634645 0.0206198 0.0326879 62 55 45
0.00635219 0.0206317 0.0327078 41 35 23
0.00646842 0.0203579 0.0326734 152 153 147
0.0138783 -0.0831682 0.0670146 70 66 54
0.0160116 -0.0855214 0.0662123 63 57 43
0.0153208 -0.0830201 0.064097 128 129 131
0.0193985 -0.0880384 0.0704465 171 172 167
0.0206904 -0.075841 0.0749599 109 117 120
0.0234291 -0.0851704 0.0840693 160 161 156
0.0218444 -0.0807629 0.0783488 25 26 20
0.0237059 -0.0830212 0.0843559 156 157 151
0.0206185 -0.0727507 0.0741827 156 157 151
0.0210281 -0.0765048 0.0751416 42 35 29
0.0217631 -0.0740642 0.0767805 72 49 41
0.0209732 -0.0696487 0.0735542 126 131 135
0.0215399 -0.0762755 0.075555 126 131 135
0.0238666 -0.078153 0.0793101 88 88 80
0.023895 -0.0799817 0.0783527 26 23 14
0.0241007 -0.0814671 0.0787044 26 23 14
0.0251136 -0.0818167 0.0810922 68 66 54
0.0249969 -0.0805653 0.0807148 105 103 91
0.0236204 -0.0941 0.0761956 105 103 91
0.0248611 -0.0839878 0.0796337 101 101 91
0.0250737 -0.0740197 0.0790844 70 67 60
0.0239477 -0.0711758 0.0760484 63 66 59
0.0254037 -0.0974998 0.0775641 53 52 47
0.0288682 -0.0999276 0.0803261 77 74 67
0.0282115 -0.10113 0.0779197 71 73 62
0.031024 -0.0753718 0.0836 67 66 61
0.0293633 -0.0996173 0.0787461 62 65 56
0.0318932 -0.0902621 0.0854195 75 74 69
0.0329536 -0.11297 0.087336 100 96 85
0.0329536 -0.11297 0.087336 66 66 56
0.0322209 -0.0643396 0.0820567 73 69 60
0.0371468 -0.0697334 0.0872852 73 69 60
0.0401734 -0.110777 0.0916743 104 100 91
0.0351698 -0.0570951 0.0805648 120 116 107
0.0430599 -0.0988243 0.0981446 118 111 101
0.0430599 -0.0988243 0.0981446 25 24 20
0.0367728 -0.0635715 0.0837783 114 110 101
0.0370715 -0.100307 0.0846367 56 55 50
0.0368776 -0.0638353 0.0835204 118 109 100
0.0410348 -0.112473 0.0911315 118 109 100
0.037669 -0.10876 0.0838542 169 162 152
0.0434417 -0.096263 0.097193 161 157 146
0.044166 -0.0972649 0.0983175 82 81 77
0.0445828 -0.0997428 0.099216 112 108 99
0.0445828 -0.0997428 0.099216 139 135 124
0.0363072 -0.0632898 0.0810584 139 135 124
0.0438716 -0.0926179 0.0971758 130 127 118
0.0431009 -0.0906982 0.0958199 79 75 72
0.0451055 -0.0977483 0.098194 124 120 111
0.0562408 -0.137051 0.117641 69 70 65
0.0463054 -0.0971513 0.0999723 76 77 72
0.043539 -0.0682847 0.0939562 149 142 134
0.0401385 -0.110669 0.085846 149 142 134
0.0431134 -0.0835683 0.092379 129 125 116
0.0458138 -0.102007 0.097646 129 125 116
0.0454538 -0.0887118 0.0968759 104 94 84
0.0473557 -0.0951533 0.100303 134 130 121
0.0473557 -0.0951533 0.100303 134 135 127
0.0417158 -0.103801 0.0885343 123 114 105
0.0424661 -0.104189 0.0892032 69 55 52
0.0437489 -0.1144 0.0914105 141 132 123
0.0441452 -0.114694 0.0917685 140 141 135
0.0443246 -0.105506 0.090651 69 70 65
0.0476328 -0.0956301 0.0973356 94 96 91
0.0445243 -0.0697704 0.0899359 99 99 91
0.0421933 -0.062458 0.0854483 112 113 108
0.044265 -0.0710617 0.089 95 98 91
0.0425882 -0.0692629 0.0856106 95 98 91
0.0476336 -0.109981 0.0950752 100 87 81
0.0456293 -0.0728114 0.0897911 148 141 131
0.050435 -0.112468 0.0977261 70 71 66
0.0500674 -0.0713407 0.0953807 70 71 66
0.0529222 -0.0751919 0.10045 125 126 118
0.052344 -0.0996768 0.099628 112 112 104
0.0509262 -0.115992 0.0964094 108 111 104
0.0599259 -0.111414 0.112921 126 125 120
0.0531328 -0.118853 0.097586 113 115 110
0.0548261 -0.0742692 0.100824 99 101 96
0.054741 -0.113942 0.100072 103 102 97
0.0559575 -0.121054 0.101895 122 123 117
0.0543836 -0.113421 0.0978411 108 107 102
0.0620469 -0.111003 0.11172 99 98 93
0.0583781 -0.0929135 0.103138 99 98 93
0.0629003 -0.104507 0.110828 109 111 106
0.0682235 -0.110987 0.119057 93 82 76
0.0590396 -0.0947256 0.103491 107 106 102
0.0630435 -0.0965647 0.109239 48 53 49
0.0575105 -0.111061 0.0989069 118 117 112
0.0681091 -0.0944455 0.116241 108 108 100
0.0646908 -0.0975074 0.110519 100 100 92
0.0656018 -0.0999238 0.111967 108 109 104
0.0613063 -0.0835299 0.104446 128 129 123
0.0679219 -0.0965175 0.115304 106 107 101
0.0656602 -0.0964225 0.111099 97 98 92
0.0691007 -0.110838 0.116423 114 117 108
0.0669951 -0.0930615 0.111431 135 135 125
0.0672948 -0.0857116 0.111376 102 101 97
0.0695165 -0.103198 0.115081 85 85 75
0.0672516 -0.12944 0.109045 105 106 100
0.068737 -0.124509 0.110723 112 113 107
0.068737 -0.124509 0.110723 105 106 100
0.0647533 -0.11472 0.103573 113 114 106
0.0697758 -0.123173 0.111396 123 124 118
0.0722497 -0.124798 0.113266 137 138 132
0.067841 -0.0500224 0.105381 100 101 95
0.0696942 -0.100866 0.10793 104 103 98
0.0886458 -0.125975 0.13715 104 106 101
0.0806982 -0.113209 0.125255 119 120 114
0.0872963 -0.117508 0.134628 108 108 100
0.068377 -0.114102 0.105963 101 101 93
0.0783911 -0.00953524 0.120545 101 101 93
0.0785361 -0.132102 0.120613 80 77 68
0.0822551 -0.113967 0.126232 93 93 81
0.0798129 -0.0110419 0.122022 107 97 85
0.134182 -0.276674 0.204503 123 117 105
0.0770559 -0.081894 0.116082 111 103 90
0.135164 -0.275903 0.202875 114 107 97
0.0790506 -0.129875 0.118846 115 107 96
0.0815929 -0.0988047 0.122703 124 115 106
0.0889152 -0.107358 0.133275 118 110 99
0.0889152 -0.107358 0.133275 110 101 92
0.0820733 -0.0825744 0.119971 131 122 113
0.0536108 0.0620798 0.0782057 101 97 85
0.155758 -0.301749 0.225803 105 98 88
0.155758 -0.301749 0.225803 97 87 78
0.0752208 -0.131318 0.108324 128 120 109
0.0883896 -0.0928053 0.126713 86 83 74
0.0675025 -0.00751012 0.0958381 117 111 99
0.107719 -0.135965 0.15259 94 92 80
0.066115 -0.0114143 0.0936174 108 102 90
0.0734095 -0.120247 0.104116 115 109 97
0.0816112 -0.127767 0.115672 115 109 97
7.39674 -9.9008 10.1337 115 109 97
0.085831 -0.0535892 0.119359 124 116 105
1.18713 -2.13629 1.614 99 99 91
0.0897335 -0.0949908 0.12388 78 78 68
0.0848106 -0.0914473 0.116782 78 78 68
0.0843381 -0.0465582 0.115577 104 100 88
1.36767 -2.43862 1.83322 111 104 94
0.0899663 -0.103211 0.123349 100 96 87
0.0734366 -0.0272517 0.100595 117 113 101
0.0882907 -0.089976 0.120801 85 86 81
0.188387 -0.33746 0.255846 100 98 86
0.188387 -0.33746 0.255846 111 107 96
0.0746625 -0.029045 0.10086 0 0 0
0.0737113 -0.0120868 0.0987882 0 0 0
0.076373 -0.0176229 0.102073 0 0 0
0.0922018 -0.0898166 0.123393 0 0 0
0.0517289 0.0555372 0.0690729 0 0 0
0.0931535 -0.0920315 0.124332 0 0 0
0.171277 -0.303402 0.227672 0 0 0
0.0520555 0.0551593 0.0692467 0 0 0
0.0938809 -0.0908521 0.124708 0 0 0
0.065189 0.0283143 0.0863837 0 0 0
0.0661452 0.0222246 0.0874969 0 0 0
0.068559 0.018786 0.0904775 0 0 0
0.0953248 -0.0882184 0.125569 0 0 0
0.0894062 -0.109027 0.117682 0 0 0
0.0632426 0.0316419 0.0829901 0 0 0
0.0598766 0.0425162 0.0783443 0 0 0
0.0945208 -0.08838 0.123311 0 0 0
0.0583428 0.0477169 0.0761079 0 0 0
0.0804522 -0.12897 0.104527 0 0 0
4.23361 -5.72879 4.89603 0 0 0
0.0567767 0.0534132 0.0737167 0 0 0
0.057354 0.0527035 0.0743995 0 0 0
4.72575 -6.31215 5.7346 0 0 0
0.0886485 -0.0746063 0.109654 0 0 0
0.0814676 -0.114393 0.0989742 0 0 0
0.0819793 -0.107367 0.0993345 0 0 0
0.0902421 -0.111099 0.109227 0 0 0
0.0814729 -0.11538 0.0982767 0 0 0
0.088773 -0.104943 0.107381 0 0 0
0.0670987 -0.10039 0.0811765 0 0 0
0.0927148 -0.115373 0.111201 0 0 0
0.0771208 -0.105868 0.092296 0 0 0
0.0757029 -0.0715291 0.0901893 0 0 0
0.0520082 0.0603022 0.0614385 0 0 0
0.0824448 -0.0710558 0.0965473 0 0 0
0.102195 -0.120567 0.118328 0 0 0
0.154388 -0.238333 0.175744 0 0 0
0.054929 0.0279763 0.0616418 0 0 0
0.0545003 0.0299911 0.0609196 0 0 0
0.054735 0.0295386 0.060894 0 0 0
0.0905296 -0.117163 0.100759 0 0 0
0.0559202 0.0313296 0.0620406 0 0 0
0.111057 -0.120354 0.123479 0 0 0
0.0511824 0.0463664 0.0564192 0 0 0
0.170757 -0.253647 0.187823 0 0 0
0.107674 -0.130967 0.11763 0 0 0
0.0489513 0.053702 0.0535741 0 0 0
0.0515706 0.0455943 0.0563832 0 0 0
0.0503308 0.0547936 0.0546251 0 0 0
0.0513258 0.047674 0.0556909 0 0 0
0.189235 -0.272902 0.205207 0 0 0
0.118077 -0.122894 0.127661 0 0 0
0.094853 -0.111788 0.101904 0 0 0
0.101454 -0.118739 0.107429 0 0 0
0.0600091 0.0357356 0.0634425 0 0 0
0.0678389 0.0290098 0.0715626 0 0 0
0.119917 -0.148611 0.125808 0 0 0
0.119917 -0.148611 0.125808 0 0 0
0.105398 -0.125616 0.110169 0 0 0
0.117679 -0.0815977 0.122559 0 0 0
2.23703 -2.81835 2.32672 0 0 0
0.108197 -0.07158 0.11246 0 0 0
0.107391 -0.134347 0.111134 0 0 0
0.100076 -0.123233 0.102509 0 0 0
0.0590007 0.0578614 0.0589552 0 0 0
0.0988341 0.053865 0.098373 0 0 0
0.0784057 0.041134 0.0745691 0 0 0
0.218855 0.0319857 0.203145 0 0 0
0.0787645 0.0568104 0.0719593 0 0 0
0.286743 0.00264225 0.259438 0 0 0
0.32426 0.00855426 0.286636 0 0 0
0.319335 -0.0725253 0.282992 0 0 0
0.2633 0.0750421 0.232304 0 0 0
0.2633 0.0750421 0.232304 0 0 0
0.310385 0.0336419 0.273254 0 0 0
0.310385 0.0336419 0.273254 0 0 0
0.129885 -0.0189865 0.114878 0 0 0
0.38719 -0.0383506 0.337519 0 0 0
0.254007 -0.0191158 0.221783 0 0 0
0.316796 0.0405273 0.275479 0 0 0
0.127219 0.00866001 0.110405 0 0 0
0.213283 0.0402116 0.18559 0 0 0
0.233042 0.0267121 0.202619 0 0 0
0.246739 0.0144998 0.212801 0 0 0
-1.85296 0.0290565 -1.58759 0 0 0
0.233143 0.0186381 0.200424 0 0 0
0.2389 0.0106631 0.203763 0 0 0
0.245915 -0.00392536 0.209552 0 0 0
0.229582 0.0170418 0.194723 0 0 0
0.228678 0.0250902 0.194014 0 0 0
0.239346 0.104761 0.202178 0 0 0
0.296245 0.0376168 0.25013 0 0 0
0.167234 0.0953674 0.141711 0 0 0
0.258499 0.000176271 0.218508 0 0 0
-1.6595 -0.142532 -1.39456 0 0 0
0.213362 0.0426699 0.180245 0 0 0
0.164689 0.0962087 0.139145 0 0 0
0.217481 0.120307 0.183001 0 0 0
0.249554 0.0740506 0.209792 0 0 0
0.239331 0.0170511 0.201483 0 0 0
0.191419 0.0646096 0.161268 0 0 0
-1.30623 -0.331958 -1.09341 0 0 0
0.189401 0.0665572 0.159212 0 0 0
0.233107 0.0271269 0.195703 0 0 0
0.174323 0.0880517 0.146536 0 0 0
0.263566 0.0656021 0.220769 0 0 0
-1.63142 -0.203297 -1.35719 0 0 0
0.309956 0.0234066 0.258583 0 0 0
0.309956 0.0234066 0.258583 0 0 0
-2.16087 0.0558377 -1.79498 0 0 0
0.137099 -0.00297308 0.114528 0 0 0
0.140581 0.104476 0.117249 0 0 0
0.239747 0.020915 0.19961 0 0 0
0.239747 0.020915 0.19961 0 0 0
0.209062 0.114219 0.173563 0 0 0
4.01486 0.0361749 3.33534 0 0 0
0.135699 0.00064144 0.112701 0 0 0
0.244522 0.0322206 0.203145 0 0 0
0.204548 0.10785 0.169256 0 0 0
0.18445 0.105483 0.152603 0 0 0
0.17823 0.10333 0.147204 0 0 0
0.178729 0.106818 0.14762 0 0 0
3.62024 2.14236 2.98307 0 0 0
0.170953 0.100973 0.140867 0 0 0
0.17079 0.0883021 0.14106 0 0 0
0.292551 0.074047 0.240931 0 0 0
0.252319 0.0331602 0.208287 0 0 0
4.00728 0.5012 3.28332 0 0 0
0.159391 0.0901047 0.130422 0 0 0
0.138235 0.099144 0.112564 0 0 0
0.277928 0.0265209 0.225487 0 0 0
0.324186 -0.010133 0.26256 0 0 0
0.30884 0.118309 0.248488 0 0 0
0.287886 0.026067 0.231582 0 0 0
0.257891 0.121961 0.206863 0 0 0
0.343588 -0.00524385 0.275367 0 0 0
0.252494 0.0655719 0.201291 0 0 0
-2.56931 0.091461 -2.03138 0 0 0
0.352948 0.11458 0.279123 0 0 0
0.238242 0.0844113 0.189028 0 0 0
0.278302 0.129169 0.219912 0 0 0
0.220551 0.0938942 0.174093 0 0 0
0.126357 0.282269 -1.65717 0 0 0
11.3326 -1.58952 10.88 0 0 0
9.81461 -0.838623 9.35445 0 0 0
8.85446 -0.360481 8.43263 0 0 0
11.4237 -1.65141 10.8659 0 0 0
9.34506 -0.624433 8.86747 0 0 0
9.34506 -0.624433 8.86747 0 0 0
10.6475 -1.0511 10.0467 0 0 0
10.9895 -1.38541 10.3006 0 0 0
2.7877 2.07971 2.58893 0 0 0
7.19567 0.522098 6.65502 0 0 0
7.17039 0.515316 6.61573 0 0 0
-0.515322 1.20194 1.02132 0 0 0
-0.947 2.26554 1.97084 0 0 0
-0.676625 0.445024 1.47429 0 0 0
-0.643232 0.591835 1.41314 0 0 0
-0.479465 1.13081 1.06953 0 0 0
-0.479465 1.13081 1.06953 0 0 0
-0.625748 0.642985 1.40267 0 0 0
-0.482671 1.10459 1.09363 0 0 0
-0.458161 1.22036 1.03793 0 0 0
-0.457254 1.21561 1.03872 0 0 0
-0.478262 1.10719 1.0949 0 0 0
-0.576434 0.765499 1.33587 0 0 0
-0.644072 0.382273 1.49461 0 0 0
-1.31171 0.886819 3.0533 0 0 0
-0.572413 0.770345 1.33453 0 0 0
-0.541227 0.893091 1.27007 0 0 0
-0.49795 1.05661 1.17858 0 0 0
-0.587498 0.571278 1.41062 0 0 0
-0.50223 1.00676 1.20842 0 0 0
-0.572466 0.664888 1.38035 0 0 0
-0.496673 1.01146 1.2076 0 0 0
-0.496673 1.01146 1.2076 0 0 0
-1.14483 1.31193 2.81228 0 0 0
-0.49432 0.985183 1.22416 0 0 0
-1.16528 1.36018 2.93589 0 0 0
-0.53452 0.768759 1.34864 0 0 0
-0.570356 0.527732 1.43957 0 0 0
-0.553142 0.599232 1.39684 0 0 0
-0.532903 0.725362 1.36973 0 0 0
-0.570982 0.43543 1.47623 0 0 0
-0.406198 1.22848 1.05306 0 0 0
-0.54495 0.579817 1.42042 0 0 0
-0.63577 0.313124 1.65757 0 0 0
-0.521173 0.72754 1.37186 0 0 0
-0.51715 0.702805 1.38723 0 0 0
-0.408044 1.12745 1.09722 0 0 0
-0.510333 0.728498 1.37547 0 0 0
-0.513326 0.667826 1.39631 100 93 83
-0.428589 1.11504 1.16728 188 179 172
-0.402138 1.12994 1.11237 220 226 238
-0.491939 0.732688 1.39891 88 86 74
-0.500195 0.639031 1.41901 130 130 128
0.305156 0.218481 2.09307 130 130 128
-1.06586 0.555867 2.93991 108 112 115
-1.11936 -0.216222 3.09908 200 195 192
-1.12037 -0.00969431 3.10386 118 119 113
-1.10226 -0.00861876 3.06767 110 111 105
-1.07659 0.467632 3.03535 205 204 199
-1.08658 0.07646 3.06731 125 122 115
-1.03708 0.620832 2.9294 220 226 238
-1.10896 0.604805 3.13984 222 226 238
-1.09547 -0.151745 3.13626 122 122 112
-1.05195 0.481426 3.02955 212 212 210
-1.00329 -0.579228 3.25719 245 246 241
-0.995122 -0.581328 3.33408 118 120 119
-0.973069 -0.608059 3.26245 220 216 213
-1.02547 -0.263149 3.45963 87 87 85
-0.90451 -0.578793 3.28967 216 213 208
-0.886882 -0.614423 3.28718 216 213 208
-0.887651 -0.577183 3.30183 24 24 22
-0.881309 -0.62504 3.3436 225 216 211
-0.851078 -0.614457 3.29697 30 32 29
-0.827472 -0.568252 3.31933 157 152 148
-0.810154 -0.637865 3.29338 112 112 112
-0.768402 -0.591032 3.42849 44 45 39
-0.716098 -0.636844 3.32755 120 124 127
-0.70679 -0.569513 3.36426 218 224 236
-0.708348 -0.620294 3.41419 145 143 146
-0.696751 -0.610956 3.3586 122 126 127
-0.580454 -0.206525 3.39124 215 221 233
-0.572387 -0.200486 3.39375 127 133 133
-0.563658 -0.161053 3.37573 12 17 11
-0.564103 -0.564353 3.42534 213 214 209
-0.636437 -0.259288 3.95061 131 133 132
-0.547706 -0.223044 3.4007 25 27 24
-0.534865 -0.140469 3.39702 108 105 96
-0.525679 -0.398507 3.43277 128 119 112
-0.538787 -0.473751 3.66689 130 131 135
-0.501465 -0.805789 3.45817 44 46 45
-0.490443 -0.637327 3.41424 33 34 29
-0.569063 -0.295223 3.98105 15 18 11
-0.491125 -0.746178 3.44653 178 173 170
-0.482708 -0.637877 3.41785 176 176 176
-0.475999 -0.653318 3.4189 157 159 158
-0.40075 -0.635611 3.41598 160 162 161
0.0784404 -1.86406 3.54754 210 209 205
0.160493 -1.86077 3.81722 221 221 219
0.234737 -1.81772 3.91898 215 214 209
0.235989 -1.80662 3.89386 223 224 219
0.240254 -1.63616 3.90099 221 221 219
0.233966 -1.91604 3.79156 214 213 208
0.243278 -1.82138 3.91904 206 207 202
0.24411 -1.95986 3.73086 207 208 203
0.266172 -1.75738 3.93686 205 204 199
0.265728 -1.72962 3.92498 142 146 147
0.266457 -1.77657 3.92543 202 198 189
0.284305 -1.79069 3.94066 197 190 180
0.273088 -1.98425 3.74241 201 201 193
0.273088 -1.98425 3.74241 119 119 111
0.288624 -1.67837 3.93091 155 157 156
0.320736 -1.70884 3.95226 118 112 100
0.354089 -1.79636 3.97571 212 211 207
0.34628 -1.96342 3.8525 210 207 200
0.361733 -1.67287 3.96301 210 207 200
0.362312 -1.7151 3.96884 209 209 199
0.377565 -1.77105 3.97847 207 204 197
0.383393 -1.7903 3.95731 207 204 197
0.372411 -1.96882 3.85876 194 194 194
0.38723 -1.67966 3.97992 200 200 198
0.399851 -1.76477 3.99213 218 218 216
0.331013 -1.34997 3.30206 152 151 149
0.41551 -1.68413 3.99119 178 178 178
0.416671 -1.72213 3.99621 178 178 178
0.420593 -1.80465 4.00591 226 226 224
0.426458 -1.7307 3.97687 27 29 24
0.439429 -1.68314 4.00273 40 42 37
0.439847 -1.70388 4.00532 210 209 205
0.43353 -1.35619 3.94192 211 210 206
0.444709 -1.78487 4.0156 147 147 147
0.443481 -1.99985 3.89678 213 212 208
0.457934 -1.76925 4.01708 213 209 206
0.510703 -1.99011 3.9286 208 207 203
0.510703 -1.99011 3.9286 212 211 207
0.517635 -2.00627 3.93165 30 23 15
0.524556 -2.04255 3.89417 27 27 19
0.537581 -1.96432 3.9443 26 25 21
0.579104 -1.80852 4.07925 26 25 21
0.569662 -1.96297 3.94996 63 62 57
0.595515 -1.96256 3.96423 231 223 220
0.619536 -1.51595 4.10766 20 24 23
0.606935 -2.02376 3.96381 35 31 30
0.52198 -1.2272 3.28432 145 140 134
0.653144 -1.97679 3.9936 66 58 55
0.665087 -1.96641 4.00639 87 82 78
0.690883 -1.71616 4.12624 56 59 52
0.688839 -1.44086 4.09861 109 115 115
0.688839 -1.44086 4.09861 109 115 115
0.697748 -1.72186 4.12664 81 78 71
0.718263 -1.67955 4.13216 56 63 56
0.706827 -1.54783 4.0569 27 29 26
0.727222 -1.75279 4.14332 90 91 83
0.727222 -1.75279 4.14332 68 68 58
0.728222 -1.49528 4.06429 74 74 64
0.744639 -1.9628 4.03208 87 82 76
0.748523 -2.0478 4.00868 87 84 77
0.748523 -2.0478 4.00868 93 90 83
0.771893 -1.40095 4.1169 62 65 58
0.782793 -1.76475 4.1414 56 56 54
0.785053 -1.77721 4.16896 68 69 63
0.776151 -1.45067 4.11351 58 51 45
0.786249 -1.74153 4.14199 73 70 65
0.775602 -1.97507 4.05185 72 68 57
0.795218 -1.62811 4.14404 73 72 68
0.806184 -1.71786 4.17763 71 72 66
0.806184 -1.71786 4.17763 70 73 64
0.820878 -1.41996 4.14274 203 202 197
0.820878 -1.41996 4.14274 64 65 57
0.806798 -2.04328 4.02633 99 97 85
0.806798 -2.04328 4.02633 91 86 80
0.829826 -1.96275 4.07159 120 113 103
0.83285 -2.04482 4.04243 120 113 103
0.83285 -2.04482 4.04243 122 115 107
0.867744 -1.99288 4.10359 118 111 101
0.867744 -1.99288 4.10359 120 111 102
0.903473 -1.82184 4.22736 19 19 11
0.903473 -1.82184 4.22736 120 116 107
0.90193 -1.75612 4.2106 114 110 99
0.911479 -1.96911 4.12132 169 162 152
0.914184 -1.98795 4.1153 115 111 102
0.956644 -1.49666 4.20796 165 158 148
0.959141 -1.9625 4.13018 103 98 94
0.964667 -2.04176 4.10049 81 82 76
1.02025 -1.66238 4.27368 160 153 143
1.03707 -1.74369 4.25675 145 137 126
1.04146 -1.75811 4.28857 145 137 126
1.04363 -1.80001 4.291 159 150 141
1.04952 -1.80087 4.29713 154 149 143
1.0765 -1.68111 4.29723 146 141 135
1.08184 -1.81799 4.30981 148 148 140
1.0831 -1.70058 4.30494 148 148 140
1.08411 -1.67488 4.30465 104 94 84
1.0865 -1.75906 4.28216 47 39 36
1.18401 -1.45456 4.37473 75 77 72
1.19087 -1.76173 4.3583 75 77 72
1.22528 0.0333538 4.48451 140 143 136
1.19416 -1.38834 4.33335 126 122 113
1.20066 -1.74554 4.35626 126 122 113
1.20935 -1.75226 4.36612 114 115 107
1.19314 -1.23695 4.28842 103 104 98
1.21091 -1.68652 4.36176 28 30 25
1.21091 -1.68652 4.36176 114 115 109
1.24293 -1.48483 4.37314 119 116 109
1.32164 -0.753297 4.31317 119 116 109
1.35276 -0.756834 4.3448 122 121 116
1.3796 -1.12954 4.40793 122 121 116
1.33509 -2.06752 4.18804 64 65 60
1.43697 -0.634954 4.39933 64 65 60
1.43544 -1.54561 4.39464 120 119 114
1.44154 -0.459465 4.381 58 60 57
1.56809 -1.8621 4.23867 58 60 57
1.57019 -1.83737 4.23642 148 149 141
1.59714 -1.811 4.25072 148 149 141
1.59872 -1.84541 4.25248 107 108 102
1.70883 -1.47498 4.31399 107 108 102
1.70551 -2.06159 4.18053 113 115 110
1.69902 -2.04963 4.15835 102 103 95
1.71591 -2.02707 4.18846 87 88 80
1.83351 -1.96243 4.39038 118 117 112
1.81526 -1.83785 4.34406 96 97 91
1.75065 -2.04604 4.17661 45 49 48
1.75065 -2.04604 4.17661 102 103 97
1.8719 -1.81371 4.36273 124 121 112
1.84294 -1.97803 4.27781 124 121 112
1.83179 -1.97395 4.24508 113 114 108
1.9018 -1.83369 4.37806 121 122 116
1.88738 -1.97609 4.29622 110 107 100
1.99236 -0.618874 4.3989 105 108 101
2.17637 -0.629829 4.716 113 115 110
2.17734 -0.644392 4.70537 132 129 122
2.19885 -0.337212 4.71359 129 130 124
2.29468 -0.65692 4.89813 115 105 95
2.34133 -0.346851 4.9187 119 109 99
2.25155 -0.718026 4.71742 133 109 85
2.33018 -0.657032 4.77654 128 122 110
2.418 -0.281666 4.93457 118 109 100
2.34059 -0.672705 4.76137 119 111 100
2.43486 -0.238837 4.93977 128 122 110
2.37297 -0.636058 4.79542 107 100 90
2.37434 -0.381854 4.7783 107 100 90
2.45725 -0.135275 4.93783 108 99 90
2.47102 0.0183176 4.92256 101 94 86
2.48304 0.345524 4.90742 0 0 0
2.45261 -0.632381 4.8287 0 0 0
2.45386 -0.645177 4.82757 0 0 0
2.25271 -0.49525 4.39012 0 0 0
2.47239 -0.54194 4.81105 0 0 0
2.25069 -0.664412 4.36566 0 0 0
2.481 -0.730326 4.81246 0 0 0
2.50487 -0.921469 4.85205 0 0 0
2.49541 -0.659601 4.82781 0 0 0
2.50725 -0.589467 4.83869 0 0 0
2.49605 -0.351922 4.80582 0 0 0
2.51133 -0.480243 4.83121 0 0 0
2.52136 0.161104 4.78924 0 0 0
2.54786 -0.288483 4.83594 0 0 0
2.51674 0.45579 4.75155 0 0 0
2.5604 -0.0110466 4.81769 0 0 0
2.57582 -0.289553 4.84634 0 0 0
2.58639 -0.345171 4.84652 0 0 0
2.59799 -0.324431 4.85237 0 0 0
2.5976 -0.19052 4.83867 0 0 0
2.59036 -0.610057 4.81646 0 0 0
2.58434 0.350824 4.79957 0 0 0
2.58202 0.417788 4.78991 0 0 0
2.57312 -0.720733 4.77336 0 0 0
2.59602 0.38351 4.80172 0 0 0
2.61102 -0.601018 4.82335 0 0 0
2.61117 -0.611631 4.82349 0 0 0
2.60224 0.394256 4.79939 0 0 0
2.60762 -0.353516 4.80654 0 0 0
2.64054 -0.917276 4.86603 0 0 0
2.61084 -0.699864 4.80897 0 0 0
2.61447 -0.49221 4.8124 0 0 0
2.62954 -0.663301 4.84415 0 0 0
2.61399 -0.18894 4.80584 0 0 0
2.61941 0.357399 4.80265 0 0 0
2.62581 0.162681 4.81113 0 0 0
2.63059 -0.538297 4.8195 0 0 0
2.63766 -0.464178 4.83178 0 0 0
2.6204 -0.0782498 4.79954 0 0 0
2.63657 -0.501567 4.81271 0 0 0
2.63329 0.319785 4.79768 0 0 0
2.64643 -0.0574398 4.80273 0 0 0
2.66511 -0.179351 4.82183 0 0 0
2.67294 -0.337201 4.82814 0 0 0
2.63889 0.362752 4.76243 0 0 0
2.66589 -0.534606 4.81107 0 0 0
2.66768 0.0523666 4.80471 0 0 0
2.69459 -0.548903 4.82474 0 0 0
2.69687 -0.586145 4.82376 0 0 0
2.69687 -0.586145 4.82376 0 0 0
2.68515 0.335873 4.79313 0 0 0
2.70727 -0.535004 4.82968 0 0 0
2.69218 -0.0191182 4.80215 0 0 0
1.52616 -4.782 3.82488 0 0 0
1.93694 -3.7749 4.71605 0 0 0
1.83235 -5.58111 4.38886 0 0 0
-1.32036 2.25085 -3.01825 0 0 0
0.0691223 -0.125458 0.106927 0 0 0
1.17213 -2.14837 1.62254 0 0 0
7.18122e-06 -7.82115e-06 9.91082e-06 0 0 0
2.8493 -3.72768 3.44889 0 0 0
1.26193e-05 -1.33346e-05 1.51638e-05 0 0 0
2.15866 1.01854 2.57149 0 0 0
0.0433544 0.0213696 0.0515133 0 0 0
1.21969 0.466314 1.17661 0 0 0
-0.182387 -0.368097 1.55069 0 0 0
-0.0258728 0.683918 -1.4576 0 0 0
-0.0765821 31.3943 -28.2167 0 0 0
-0.242461 87.356 -75.6885 0 0 0
-1.50227 30.372 -29.057 0 0 0
-0.962806 12.5171 -9.12089 0 0 0
-3.47582 18.774 -19.9808 0 0 0
-3.70244 13.5215 -12.0162 0 0 0
-7.01579 12.3451 -14.3763 0 0 0
-0.177287 0.230635 -0.334646 0 0 0
4.95457 -7.22926 7.14962 0 0 0
-1.06379 1.42972 -1.92114 0 0 0
-1.02367 1.22967 -1.65791 0 0 0
0.0189673 -0.0637032 0.0443486 0 0 0
0.0189673 -0.0637032 0.0443486 0 0 0
1.82137 -3.04167 4.05074 0 0 0
1.73735 -3.71738 6.06877 0 0 0
1.87062 -3.91308 5.98325 0 0 0
0.637282 0.579104 0.775387 0 0 0
2.40652 -3.94923 4.1623 0 0 0
0.551491 0.464483 0.655588 0 0 0
4.22204 -5.71142 4.86753 0 0 0
4.23422 -5.72951 4.89717 0 0 0
4.23197 -5.72672 4.89283 0 0 0
5.03872 -6.60159 6.08946 0 0 0
4.07311 -5.55007 4.61538 0 0 0
3.04659 -4.93185 5.06542 0 0 0
3.12858 -4.99587 5.04093 0 0 0
4.45317 -5.87587 4.91987 0 0 0
4.42903 -5.85564 4.90782 0 0 0
5.82967 -6.81028 5.38966 0 0 0
3.25259 -4.64783 2.65134 0 0 0
3.1993 -4.6221 2.64745 0 0 0
3.15178 0.871221 3.09257 0 0 0
3.16319 1.06281 3.08891 0 0 0
2.8078 -3.13726 6.59272 0 0 0
3.9262 0.265739 3.38448 0 0 0
3.88795 0.160795 3.34444 0 0 0
3.86495 0.142774 3.31504 0 0 0
3.86495 0.142774 3.31504 0 0 0
4.0305 0.518726 3.44003 0 0 0
3.28948 -3.03698 6.85954 0 0 0
0.0345722 -0.110807 0.0901726 0 0 0
0.0340479 -0.106745 0.0878477 0 0 0
0.0384211 -0.107364 0.0902525 0 0 0
0.040954 -0.108062 0.0913821 0 0 0
1.16639 -2.11116 2.44783 0 0 0
0.0470851 -0.066661 0.0962765 0 0 0
0.0470851 -0.066661 0.0962765 0 0 0
0.0518212 -0.116079 0.0950292 0 0 0
0.0605951 -0.111129 0.0995727 0 0 0
1.65967 -2.16042 1.81715 0 0 0
0.0985375 -0.0909478 0.108817 128 128 126
0.0940494 -0.106886 0.103044 42 37 34
0.130424 -0.0014437 0.117068 215 214 209
0.0109777 -0.0692832 0.0611486 151 151 151
0.0418172 -0.108441 0.0916085 200 199 195
0.0473896 -0.0414121 0.0544719 213 220 228
-0.36882 -0.531317 -0.0788857 220 227 235
-0.370054 -0.551034 -0.074998 179 180 175
-0.377006 -0.553686 -0.0715595 220 227 235
-0.361927 -0.568265 -0.0694284 45 47 42
-0.365875 -0.568012 -0.0699119 217 214 209
-0.35004 -0.561124 -0.066022 205 201 192
-2.31146 -2.73881 -0.42696 21 23 18
-0.363765 -0.566398 -0.0675354 212 209 200
-0.146874 0.150465 -0.00400376 145 135 126
-0.35712 -0.585337 -0.0608649 217 214 207
-0.341154 -0.575119 -0.0571715 209 206 199
-0.340274 -0.577067 -0.0561237 210 209 204
-0.123801 0.0366979 -0.00347851 10 15 9
-0.12179 0.056682 -0.00077218 164 164 156
-0.113598 0.0134628 -0.00139183 10 12 9
-0.38643 -0.572444 -0.0552597 189 186 179
-0.340976 -0.579193 -0.0507353 71 54 46
-0.340976 -0.579193 -0.0507353 30 31 26
-0.115809 0.0283046 0.000408439 113 106 96
-0.124404 0.0667713 0.00143675 23 24 19
-0.354843 -0.577555 -0.0491528 109 105 94
-0.117775 0.052492 0.00266799 112 108 96
-0.117775 0.052492 0.00266799 72 62 53
-0.115171 0.032251 0.00236949 81 80 75
-0.351077 -0.576541 -0.0455277 148 142 128
-0.4157 -0.534401 -0.0490815 169 163 149
-0.386153 -0.573558 -0.0479524 138 134 125
-0.394557 -0.57805 -0.0485818 105 101 90
-0.109097 0.0221639 0.00347896 113 109 100
-0.12654 0.100865 0.00554609 110 106 94
-0.382545 -0.573366 -0.0462737 0 0 0
-0.119613 0.0658192 0.00497928 0 0 0
-0.376494 -0.576327 -0.0444092 0 0 0
-0.372003 -0.575875 -0.0437896 69 66 61
-0.117454 0.000201563 0.0029052 26 27 21
-0.376024 -0.572113 -0.0438314 67 68 62
-0.115495 0.0629804 0.00667402 67 68 62
-0.384205 -0.555629 -0.040229 21 23 18
-0.112928 0.0593105 0.00760114 153 153 153
-0.109772 0.0535338 0.00817558 96 101 104
-0.113468 0.0645448 0.00873409 220 221 216
-0.115629 0.0761308 0.00909826 207 207 199
-0.115629 0.0761308 0.00909826 210 209 204
-0.137338 0.175722 0.0118418 227 227 225
-0.111949 0.0592174 0.00943074 226 227 222
-0.458445 -0.544658 -0.0407353 227 228 223
-0.135028 0.175746 0.0129848 220 221 216
-7.84098 -0.103981 -0.544063 220 221 216
-0.108212 -0.0045589 0.00800729 233 232 227
-0.111499 0.0582888 0.0104136 152 149 144
-0.13285 0.167907 0.0139386 162 163 157
-0.136357 0.17657 0.0140745 161 162 154
-0.105463 -0.00718448 0.00880985 61 61 53
-0.112558 0.0799919 0.0119782 63 64 56
-0.134732 0.181457 0.0146277 101 101 91
-0.109492 0.046736 0.0108468 102 93 84
-0.136786 0.178652 0.0146202 107 103 94
-0.132904 0.165476 0.0143451 106 101 95
-0.462369 -0.539919 -0.0357384 122 118 107
-0.130423 0.154757 0.0142916 18 19 13
-0.0987417 0.0197735 0.0108951 113 109 98
-0.119916 0.100622 0.0129889 86 85 80
-0.128558 0.145872 0.0143568 82 81 77
-0.464286 -0.534593 -0.0333718 44 46 43
-0.474073 -0.528616 -0.0336708 107 106 102
-0.131944 0.153249 0.0151416 48 53 49
-0.128907 0.147832 0.0152087 91 91 83
-0.114941 0.087158 0.0137523 102 95 85
-0.126676 0.1261 0.0150065 118 110 99
-0.107812 0.0382207 0.012608 0 0 0
-0.107812 0.0382207 0.012608 0 0 0
-0.0945534 0.0225413 0.0128449 0 0 0
-0.122382 0.114055 0.0153797 0 0 0
-0.118315 0.0964291 0.0150644 137 130 120
-0.116995 0.089445 0.0150419 209 206 199
-0.124201 0.125275 0.0164935 208 205 196
-0.116786 0.0779037 0.0152305 217 214 207
-0.11148 0.0593625 0.0150804 219 216 209
-0.0945137 0.0191664 0.01447 118 111 101
-0.112064 0.0571586 0.0156684 116 109 99
-0.111398 0.0551796 0.0156261 81 80 75
-0.111398 0.0551796 0.0156261 77 76 71
-0.10853 0.0478629 0.0157231 72 67 61
-0.108703 0.0519637 0.0165037 73 71 59
-0.111841 0.056597 0.0166051 214 216 215
-0.105879 0.0318595 0.0163384 218 217 215
-0.113354 0.0883551 0.0184753 184 182 183
-0.117922 0.125636 0.0207279 186 184 185
-0.095713 -0.0216997 0.0171474 40 40 38
-0.101257 0.0708825 0.0251544 38 35 30
-0.0882472 0.0294718 0.0283511 214 210 207
-0.121666 0.0996449 0.0311493 214 210 207
-0.0853861 0.0262968 0.0295248 214 215 209
-0.000527918 -0.127168 0.0390564 17 23 11
-0.000527918 -0.127168 0.0390564 83 83 75
0.00300718 -0.124288 0.0426742 38 34 23
-0.572957 0.2715 1.53491 45 43 31
-0.259867 0.515714 1.57469 71 71 63
-0.238099 0.104362 1.84336 99 104 100
-0.199216 -0.260781 2.05576 46 42 31
-0.186383 -0.247432 2.05016 87 80 72
-0.180038 -0.232122 2.0555 87 80 72
-0.120019 -0.287278 2.09605 17 19 16
-0.115294 -0.247619 2.09258 66 69 60
-0.115294 -0.247619 2.09258 86 92 82
-0.123686 -0.393986 2.14404 205 206 200
-0.0886886 0.345597 1.7845 72 73 65
-0.107279 -0.23529 2.06448 64 59 55
-0.0953972 -0.283858 2.04407 115 102 94
-0.0853588 -0.369595 2.10115 115 102 94
0.000219629 -0.526455 2.62133 25 28 21
-0.0102756 -0.288244 2.09525 25 28 21
0.0477714 -0.66209 2.09925 211 210 206
0.126289 -0.150627 1.92937 162 158 146
0.363012 -0.37608 2.11275 21 22 17
0.892783 -0.0105754 2.55451 188 182 170
0.86498 0.157693 2.45792 136 132 123
0.986545 -0.69903 2.8069 79 80 75
0.951628 0.0860154 2.49548 114 111 104
1.1452 0.0919969 2.6441 114 111 104
1.52329 -1.15307 3.54758 79 80 75
1.52329 -1.15307 3.54758 125 126 120
1.17154 0.899767 2.389 85 74 70
0.942344 1.57788 1.79864 111 112 106
1.4998 0.0335621 2.88414 142 142 132
0.939883 1.54841 1.74015 108 109 103
1.54235 0.0378832 2.87942 122 123 117
0.962413 1.52114 1.7299 116 117 111
1.27951 0.789244 2.3066 98 99 93
1.68421 -0.281012 3.08951 88 90 79
1.00398 1.50125 1.75482 135 130 124
1.59042 0.155472 2.77798 110 111 105
2.17685 -1.08168 3.82027 115 103 91
1.64236 0.081887 2.85138 99 99 91
1.75451 -0.64001 3.07728 141 142 136
1.74321 -0.66221 3.04394 125 121 110
1.79926 -0.347762 2.91387 132 124 113
1.78892 -0.615939 2.92069 0 0 0
1.14041 1.21996 1.73936 0 0 0
1.1488 1.20304 1.73222 0 0 0
2.08801 1.26196 2.48386 0 0 0
2.03567 1.31058 2.39429 0 0 0
2.47198 1.01208 2.8056 0 0 0
0.890257 -0.629046 2.75848 0 0 0
0.877402 -0.59862 2.69406 0 0 0
0.954031 -0.564202 2.72201 0 0 0
0.999285 -0.555271 2.73699 0 0 0
1.46335 -0.110889 3.81104 0 0 0
0.991701 0.144772 2.52383 0 0 0
0.991701 0.144772 2.52383 0 0 0
1.20988 -0.625554 2.82509 0 0 0
1.34327 -0.477044 2.85471 0 0 0
2.56933 -0.795476 3.83644 0 0 0
1.97451 -0.249724 2.90527 0 0 0
1.97917 -0.517241 2.89666 0 0 0
2.07095 1.12228 2.58506 0 0 0
-0.76449 2.66091 7.0856 0 0 0
0.850183 -0.451656 3.87604 0 0 0
0.384443 -0.380888 2.18335 0 0 0
1.01144 -0.549971 2.74185 0 0 0
1.02665 0.0550131 1.71773 0 0 0
-1.70868 1.45294 1.12961 0 0 0
-1.70868 1.45294 1.12961 115 111 102
-21.506 -19.3885 10.7 165 158 148
-23.2174 -21.5163 11.9004 112 105 97
-22.4061 -20.4805 11.7242 124 120 109
-25.227 -24.4367 13.4261 96 94 81
-24.9002 -23.894 13.2177 0 0 0
-24.0949 -23.7333 13.0663 0 0 0
-6.0817 -7.53357 4.56056 0 0 0
-24.0788 -23.1534 12.9626 0 0 0
-1.24175 1.19956 1.26686 0 0 0
-26.2814 -26.3677 14.7765 0 0 0
-24.7314 -25.3983 14.2129 0 0 0
-24.8776 -25.6734 14.3936 199 194 188
-1.38744 0.458868 1.52119 229 225 214
-1.27768 0.626816 1.47158 219 214 208
-1.35192 0.277509 1.58419 35 40 36
-20.0968 -18.4744 11.6279 55 52 33
-23.5108 -24.2774 14.0518 53 52 47
-23.5108 -24.2774 14.0518 102 100 88
-1.30489 0.412943 1.55746 40 40 30
-1.25341 0.709308 1.47188 41 39 26
-21.6189 -21.5177 13.0023 41 39 26
-1.22586 0.613357 1.50401 75 68 60
-1.22586 0.613357 1.50401 104 93 73
-1.27046 0.455617 1.56143 71 73 70
-20.902 -20.9468 12.8395 24 26 15
-14.8486 -12.0173 8.7963 43 44 36
-18.8832 -17.3614 11.3648 52 49 44
-19.0609 -17.3178 11.4232 34 36 23
-1.23112 0.379707 1.58307 20 23 16
-1.14325 0.954101 1.41452 16 18 13
-18.7722 -17.3851 11.4038 53 14 15
-1.18536 0.720527 1.49071 163 155 144
-19.0719 -17.9817 11.7204 175 169 157
-19.1248 -18.208 11.8057 74 75 69
-1.39708 0.188328 1.69864 121 120 115
-18.5325 -17.3776 11.4196 117 114 107
-1.14064 0.709603 1.49953 58 59 54
-16.1672 -14.4783 10.1104 58 59 54
-1.12212 0.688634 1.51096 114 102 88
-1.1042 0.650248 1.52311 142 115 88
-1.10386 0.731067 1.50712 133 120 103
-1.08882 0.812299 1.48176 121 112 103
-1.08882 0.812299 1.48176 127 120 102
-1.01128 1.38768 1.3095 122 109 92
-1.10023 0.696726 1.52582 137 128 113
-13.7591 -10.3309 8.44415 107 99 86
-0.987664 1.39364 1.31123 111 109 97
-7.31411 -0.0195678 3.71477 122 114 101
-1.27916 0.175277 1.73409 105 101 89
-1.09272 0.694746 1.53732 120 112 99
-0.982747 1.35857 1.33153 111 102 93
-0.991354 1.39916 1.32367 112 105 95
-1.25303 0.155848 1.74184 113 109 98
-1.03096 0.852308 1.48549 106 99 89
-0.965223 1.42703 1.31049 0 0 0
-1.10282 0.612348 1.57308 0 0 0
-0.987952 1.41065 1.3249 0 0 0
-0.986853 1.34709 1.34165 0 0 0
-13.0632 -9.62697 8.18999 0 0 0
-0.9907 1.29309 1.35988 0 0 0
-1.07348 0.401923 1.6262 0 0 0
-1.0385 0.985113 1.4607 0 0 0
-0.995555 1.24719 1.37731 0 0 0
-12.6357 -9.18206 7.99826 0 0 0
-12.3002 -8.68146 7.75569 0 0 0
-1.0033 1.28605 1.3774 0 0 0
-0.98938 1.26003 1.38104 0 0 0
-1.02232 0.905239 1.48962 0 0 0
-1.02352 1.13984 1.43117 0 0 0
-1.09944 0.556831 1.61473 0 0 0
-1.09944 0.556831 1.61473 0 0 0
-1.00718 0.435992 1.61841 0 0 0
-1.01313 1.07398 1.45299 0 0 0
-1.02302 0.967661 1.48727 0 0 0
-1.03047 0.92406 1.50393 0 0 0
-0.996329 1.14226 1.43796 0 0 0
-1.05698 0.848931 1.54157 0 0 0
-1.05919 0.723496 1.58082 0 0 0
-1.00571 0.41711 1.64877 0 0 0
-1.06748 0.710155 1.59674 0 0 0
-1.06641 0.696046 1.60034 120 117 108
-1.06641 0.696046 1.60034 116 112 103
-1.05877 0.644407 1.61538 81 82 76
-1.0438 0.67801 1.6095 43 43 41
-1.06102 0.710461 1.60718 114 115 109
-1.0749 0.527029 1.66909 122 121 116
-0.980041 0.93292 1.52635 122 121 116
-0.919773 1.16428 1.45269 48 53 49
-1.13109 0.0726928 1.85361 97 98 92
-0.873137 0.852662 1.60152 0 0 0
-0.828516 0.574192 1.73106 0 0 0
-0.961394 1.04363 1.64126 0 0 0
-0.799791 0.556285 1.74391 0 0 0
0.0619393 -1.19137 2.29075 216 213 204
0.0619393 -1.19137 2.29075 20 22 17
0.146444 -1.11514 2.308 6 22 12
-0.0128249 -0.242185 2.07461 32 34 31
-0.0671792 -1.62494 2.6537 0 0 0
-0.0671792 -1.62494 2.6537 88 84 75
0.00207552 -0.258781 2.11461 88 84 75
0.00207552 -0.258781 2.11461 130 146 146
0.19514 -1.00586 2.3019 164 177 186
-0.033967 -1.57933 2.64451 37 38 30
0.0687214 -0.800211 2.31048 164 174 184
0.122734 -0.391709 2.1309 163 173 183
0.267812 -0.9981 2.32003 166 174 185
0.0968876 -1.59617 2.67324 165 173 184
0.326062 -1.05401 2.34419 165 173 184
0.133641 -1.56469 2.66169 62 66 51
0.321673 -0.966009 2.32722 163 171 182
0.140998 -1.54231 2.67302 162 172 182
0.462889 -1.05155 2.36015 161 171 181
0.278065 -0.575024 2.29352 188 185 176
0.493226 -1.04467 2.37584 197 190 180
0.493226 -1.04467 2.37584 185 181 170
0.447051 -0.92369 2.35671 21 26 19
0.47772 -0.913597 2.36265 165 171 183
0.383567 -0.345011 2.18067 165 171 183
0.488711 -0.984407 2.38785 194 187 177
0.121493 1.56795 1.53121 94 84 72
0.359024 -0.418473 2.23814 36 29 36
0.382541 -0.488393 2.25486 91 83 70
0.372636 -0.467066 2.25637 91 83 70
0.372636 -0.467066 2.25637 187 183 172
0.398845 -0.785476 2.37648 25 24 20
0.339224 -0.720006 2.38683 92 102 93
0.341562 -1.42809 2.70174 103 99 98
0.524339 -0.932577 2.37677 15 24 21
0.524339 -0.932577 2.37677 171 165 153
0.143536 1.29646 1.6721 206 203 198
0.381179 -1.44639 2.71429 29 34 27
0.447138 -0.809176 2.3963 198 195 186
0.447138 -0.809176 2.3963 17 18 12
0.101222 1.50272 1.61912 17 20 13
0.125761 1.31475 1.69658 184 180 169
0.103254 1.50007 1.62988 25 31 21
0.0991778 1.51664 1.62592 201 197 186
0.144307 0.944137 1.85177 27 29 18
0.111531 1.46596 1.6446 208 203 197
0.128892 1.31637 1.70415 207 204 197
0.151212 1.10312 1.7904 201 194 184
0.133657 1.30204 1.7145 213 212 207
0.621337 -0.984299 2.41323 213 212 207
0.122131 1.41673 1.67461 102 95 85
0.147864 1.08402 1.80652 206 203 194
0.147864 1.08402 1.80652 184 190 202
0.176348 0.828183 1.90683 117 123 113
0.138919 1.29255 1.72549 199 186 180
0.162645 1.0297 1.83828 199 186 180
0.179914 0.73224 1.96215 203 200 191
0.179914 0.73224 1.96215 122 125 114
0.295171 -0.621231 2.497 108 108 98
0.123413 1.40511 1.69962 201 193 182
0.232869 -0.125156 2.32622 203 199 190
0.215632 0.482354 2.06487 116 118 107
0.215632 0.482354 2.06487 205 202 195
0.50439 -0.853807 2.47699 119 120 112
0.270302 -0.2002 2.33909 81 81 73
0.277061 -0.284199 2.37711 185 191 203
0.277061 -0.284199 2.37711 123 123 115
0.491459 -0.816813 2.47759 209 202 194
0.286365 -0.323363 2.39096 179 179 167
0.242776 -0.116075 2.32811 122 123 115
0.571614 -0.942498 2.48603 184 192 203
0.571614 -0.942498 2.48603 190 196 208
0.288266 -0.0495268 2.27773 107 104 95
0.288266 -0.0495268 2.27773 87 82 76
0.512915 -0.877532 2.51453 182 183 169
0.280775 -0.224598 2.37983 67 65 52
0.27771 -0.206772 2.37419 207 205 193
0.548155 -0.91966 2.52205 207 205 193
0.548155 -0.91966 2.52205 207 204 195
0.239495 0.730125 1.97623 81 79 67
0.230188 0.76272 1.97404 90 81 72
0.162875 1.61705 1.62632 73 67 53
0.352182 -0.522334 2.49132 83 80 73
0.352182 -0.522334 2.49132 91 85 71
0.407366 -0.746182 2.55762 181 177 168
0.202507 0.975092 1.90991 209 206 197
0.245131 0.682008 2.01943 118 127 110
0.487784 -0.791221 2.54077 185 196 179
0.35486 -0.574212 2.54743 185 196 179
0.248888 0.687497 2.03979 187 184 177
0.36327 -0.563277 2.55127 86 80 66
0.348285 -0.202166 2.39413 82 79 62
0.581608 -0.927815 2.57419 181 174 166
0.357429 -0.168898 2.37282 94 92 80
0.348094 -0.171151 2.3814 69 61 50
0.370909 -0.568237 2.55768 201 199 187
0.386279 -0.277729 2.40973 68 69 55
0.286343 0.190173 2.2603 109 103 89
0.349497 -0.185879 2.39396 116 116 108
0.270091 0.301015 2.22154 82 76 62
0.380292 -0.253447 2.41392 71 72 66
0.380292 -0.253447 2.41392 71 72 66
0.389846 -0.264146 2.4147 43 39 36
0.403435 -0.374116 2.46385 116 105 101
0.402076 -0.592006 2.57113 55 54 52
0.404877 -0.577654 2.56949 55 54 52
0.296366 0.191894 2.27966 193 192 187
0.318294 -0.0135213 2.368 193 192 187
0.476703 -0.714762 2.5948 26 26 16
0.335715 -0.171857 2.43598 178 157 166
0.413624 -0.592551 2.58396 133 128 132
0.366005 -0.549578 2.59848 188 192 178
0.605068 -0.85879 2.58067 33 30 23
0.349633 -0.184181 2.43908 28 30 17
0.365595 -0.533027 2.59731 41 38 33
0.365595 -0.533027 2.59731 83 84 68
0.373119 -0.2491 2.45759 69 70 62
0.366634 -0.222781 2.44977 34 30 19
0.376242 -0.546728 2.60468 105 110 106
0.376242 -0.546728 2.60468 26 31 25
0.319033 0.209897 2.28014 27 28 22
0.407622 -1.26013 2.92894 27 28 22
0.571152 -0.732841 2.56248 16 21 15
0.637912 -0.844554 2.59612 8 10 5
0.385737 -0.0820719 2.42385 211 208 201
0.385737 -0.0820719 2.42385 17 18 12
0.422565 -0.448432 2.58099 28 31 24
0.517734 -0.66675 2.62419 189 185 182
0.479288 -1.20008 2.93475 179 177 182
0.674801 -0.85466 2.638 129 125 122
0.478974 -0.492264 2.61988 129 125 122
0.483968 -0.328297 2.55863 70 66 63
0.499978 -0.439886 2.6078 47 47 39
0.494906 -0.257827 2.52801 42 38 29
0.650513 -0.760033 2.67245 18 24 12
0.506435 -0.324951 2.5605 18 24 12
0.651911 -0.668526 2.63194 159 160 155
0.677845 -0.660739 2.63964 66 65 63
0.570128 -0.422831 2.6158 33 41 30
0.698721 -0.654971 2.64206 33 41 30
0.594514 -0.301547 2.58111 214 213 208
0.602782 -0.392898 2.62336 160 162 159
0.618159 -0.416929 2.63276 212 212 204
0.605702 -0.264383 2.57068 215 215 207
0.614932 -0.337802 2.6055 168 172 173
0.805864 -0.751674 2.67907 185 186 181
0.612546 -0.253791 2.5693 130 132 129
0.76664 -0.632198 2.66005 205 204 209
0.615582 -0.188757 2.55583 193 192 190
0.645031 -0.347026 2.61823 150 149 144
0.650355 -0.303747 2.59854 32 33 27
0.654161 -0.287686 2.59417 180 178 181
0.670242 -0.396312 2.64442 180 178 181
0.667404 -0.313698 2.61085 21 27 13
0.675249 -0.30222 2.60974 179 180 175
0.677518 -0.316718 2.61594 45 46 30
0.68353 -0.360701 2.63615 35 35 23
0.667055 -0.210135 2.56961 35 35 23
0.666585 -0.0439858 2.49173 49 41 30
0.837403 -0.656659 2.68852 29 34 30
0.698621 -0.300373 2.61753 203 202 198
0.933568 -0.66287 2.71205 209 210 204
0.901944 -1.12146 3.01189 209 210 204
0.736429 -0.0174483 2.51787 69 69 69
0.736429 -0.0174483 2.51787 13 24 16
0.820843 -0.363219 2.68481 207 207 199
0.95575 -0.604309 2.70827 207 207 199
0.953148 -1.09214 3.01836 52 49 42
0.828606 -0.280679 2.65403 213 210 205
1.00751 -0.586769 2.7175 205 204 200
0.914899 -0.299719 2.68409 62 68 64
0.867514 0.0856226 2.49883 62 68 64
0.861761 0.165813 2.47872 212 211 206
0.900836 0.0657224 2.51471 212 211 206
0.919204 -0.10249 2.621 78 84 74
0.953643 -0.276191 2.6987 167 167 157
0.940976 -0.157679 2.64595 106 119 109
0.961433 -0.248638 2.69117 33 35 24
0.973485 -0.296314 2.71393 33 35 24
0.928685 0.0698544 2.52531 39 40 34
1.11317 -0.534595 2.73925 28 29 21
0.964966 -0.121781 2.63929 32 33 27
0.996014 -0.297698 2.72301 150 147 140
0.986959 -0.135803 2.65495 150 147 140
1.16486 -1.0101 3.05719 35 35 25
1.00715 -0.149538 2.66381 14 16 11
0.992657 0.0264368 2.56302 41 42 28
1.0183 -0.199965 2.69344 33 33 21
1.0183 -0.199965 2.69344 48 51 42
1.03116 -0.246903 2.71674 62 62 54
1.03116 -0.246903 2.71674 44 25 21
1.17035 -0.988368 3.06355 168 169 161
0.977155 -0.103283 2.69042 56 58 47
0.990005 0.0335874 2.59229 36 44 33
1.17658 -0.497951 2.75433 31 39 28
0.995886 0.0880978 2.55364 36 16 9
-1.3438 -0.375017 5.41864 211 210 205
1.02462 0.0103728 2.60875 29 31 18
1.20074 -1.38131 3.36459 134 142 129
1.01195 0.0296029 2.60948 172 149 141
1.25879 -0.595728 2.77919 208 207 202
1.25879 -0.595728 2.77919 208 207 202
1.02196 0.0574395 2.6041 212 211 206
1.25069 -0.982922 3.07263 197 196 192
1.23189 -0.480985 2.76866 95 97 86
1.25974 -0.956794 3.07984 187 174 165
1.26553 -0.552315 2.79377 67 61 49
1.30198 -0.581924 2.79116 215 212 205
1.26787 -0.472149 2.77889 17 20 13
1.17868 -0.255387 2.7723 40 53 44
1.29574 -0.460598 2.79596 192 183 174
1.11877 0.0876968 2.62366 177 180 173
1.34971 -0.891692 3.0895 63 65 54
1.3553 -0.471645 2.80514 141 143 132
1.24849 -0.261869 2.79857 153 155 150
1.23823 -0.193471 2.76973 153 155 150
1.23557 -0.164241 2.76065 209 208 203
1.254 -0.18831 2.77566 201 201 193
1.25434 -0.123978 2.74862 179 179 171
1.24981 -0.0993986 2.73956 179 179 171
1.26542 -0.153277 2.76898 75 72 63
1.27027 -0.167554 2.77646 105 106 100
1.27933 -0.180384 2.7878 13 16 7
1.29495 -0.205329 2.79807 23 26 15
1.29886 -0.213379 2.81004 199 198 194
1.28401 -0.0968337 2.75182 199 198 194
1.24532 0.0546363 2.68529 184 183 178
1.44475 -0.450364 2.8346 36 27 20
1.28033 -0.0539835 2.73333 40 42 31
1.32372 -0.186979 2.80304 14 17 8
1.32372 -0.186979 2.80304 184 184 174
1.31443 -0.106827 2.76692 204 201 196
1.32174 -0.148473 2.79128 143 125 111
1.3177 -0.115562 2.7769 211 210 205
1.32951 -0.156861 2.79459 193 190 183
1.33759 -0.127827 2.78569 200 199 194
1.47546 -0.399973 2.83599 193 190 183
1.50097 -0.388668 2.84355 190 190 182
1.27205 0.274191 2.6053 184 184 176
1.41379 -0.10315 2.81126 191 191 183
1.36588 0.135794 2.69145 198 197 193
1.35749 0.188077 2.67001 121 121 111
-0.642502 0.00604278 5.65735 187 187 179
1.36262 0.179864 2.67799 206 206 198
1.21928 0.829715 2.34843 150 147 142
1.23296 0.860634 2.34475 192 192 184
1.41419 0.181947 2.69092 208 207 202
1.79373 -0.376164 2.73141 195 192 183
1.96364 -0.522065 2.74575 210 209 204
1.81557 -0.25899 2.74766 167 172 165
1.78136 -0.00826298 2.62148 186 182 179
2.00815 -0.505531 2.75833 191 190 186
1.91403 -0.244835 2.69408 184 184 176
1.7651 0.126163 2.58921 160 159 155
1.98538 -0.394269 2.75576 173 169 166
1.86244 -0.0989387 2.70644 153 154 149
2.01888 -0.41585 2.77257 188 185 176
2.09002 -0.523836 2.77527 210 209 204
2.06846 -0.685189 3.06175 23 18 14
2.05404 -0.403133 2.78261 194 194 186
2.13782 -0.51451 2.79367 161 160 158
2.08677 -0.358499 2.78881 190 187 178
2.01001 -0.196926 2.81924 177 170 160
