ply
format ascii 1.0 
element vertex 1290
property float32 x 
property float32 y 
property float32 z
property uchar red  
property uchar green
property uchar blue
element face 0
property list uchar int vertex_indices
end_header
-0.205758 -0.153192 5.94979 75 68 62
-0.198295 -0.162338 5.94935 78 71 65
-0.198295 -0.162338 5.94935 78 71 65
-0.190741 -0.174114 5.94506 79 72 66
-0.190741 -0.174114 5.94506 79 72 66
-0.180212 -0.250993 5.9616 79 76 69
-0.175965 -0.251487 5.96046 81 81 73
-0.178704 -0.230865 5.94783 78 75 70
-0.191975 -0.120734 5.92616 74 69 65
-0.193631 -0.104573 5.91828 72 65 59
-0.20567 0.0187691 5.87245 115 106 89
-0.120627 -0.363159 6.21456 83 79 76
-0.166469 -0.253439 5.95848 86 79 71
-0.120856 -0.359051 6.21318 82 79 74
-0.121904 -0.351792 6.20852 80 77 68
-0.16776 -0.23024 5.94667 84 77 69
-0.119269 -0.338138 6.20614 78 77 73
-0.111498 -0.37117 6.20914 86 85 80
-0.143854 -0.301204 6.00454 204 205 200
-0.15096 -0.242904 5.94911 187 188 172
-0.149643 -0.242622 5.95289 187 188 172
-0.101228 -0.366943 6.19876 212 212 202
-0.102009 -0.343688 6.19761 200 198 186
-0.158003 -0.176115 5.918 196 196 186
-0.0935575 -0.35502 6.19145 201 201 193
-0.153483 -0.153056 5.89843 206 206 196
-0.160772 -0.108251 5.85424 205 205 195
-0.122823 -0.288197 5.98869 213 210 201
-0.124912 -0.26907 5.97179 210 207 198
-0.171296 0.0148085 5.79612 161 156 137
-0.168677 0.00430708 5.79114 169 163 151
-0.0706504 -0.379404 6.17929 214 214 202
-0.16185 -0.0317945 5.78815 183 177 165
-0.151199 -0.0692405 5.80208 179 177 165
-0.0652858 -0.377042 6.1718 209 209 199
-0.159136 -0.00795357 5.77383 178 175 160
-0.160949 0.0118448 5.7718 165 161 150
-0.147909 -0.0731567 5.79705 179 179 169
-0.0615356 -0.378913 6.16997 209 209 201
-0.159641 0.0317445 5.77346 72 70 47
-0.157354 0.00455875 5.76723 174 170 158
-0.157354 0.00455875 5.76723 174 170 158
-0.0979757 -0.275203 5.97841 216 216 206
-0.134748 -0.116403 5.83068 213 213 203
-0.135943 -0.108438 5.82116 205 205 195
-0.148802 -0.023863 5.76334 186 182 171
-0.11977 -0.160156 5.86181 214 212 200
-0.120925 -0.141203 5.8446 214 214 202
-0.147153 0.000371706 5.75471 179 176 161
-0.0478648 -0.370454 6.16453 212 212 202
-0.0478648 -0.370454 6.16453 212 212 202
-0.131683 -0.0736189 5.78093 200 200 190
-0.128497 -0.0837734 5.78638 199 199 187
-0.100277 -0.1976 5.89574 205 202 193
-0.042913 -0.381092 6.15417 200 198 186
-0.110192 -0.157083 5.85313 204 202 190
-0.0761383 -0.273891 5.97948 208 205 196
-0.136005 -0.0228289 5.74958 190 191 177
-0.115137 -0.124572 5.81513 202 202 190
-0.122322 -0.0885259 5.78868 202 199 190
-0.1388 0.0184526 5.74167 161 157 146
-0.0808505 -0.243232 5.94056 206 203 194
-0.0343972 -0.376224 6.1523 206 204 192
-0.0343972 -0.376224 6.1523 206 204 192
-0.0964839 -0.178763 5.86468 200 200 190
-0.112616 -0.110065 5.79386 200 200 190
-0.134671 0.029564 5.73841 87 81 65
-0.134671 0.029564 5.73841 87 81 65
-0.12026 -0.0702248 5.76613 199 199 189
-0.134713 0.0340636 5.73842 71 66 47
-0.100311 -0.155927 5.83868 204 201 192
-0.134565 0.0533573 5.74452 70 66 55
-0.131698 0.0146312 5.73599 177 173 161
-0.102593 -0.141414 5.82379 206 203 194
-0.102593 -0.141414 5.82379 206 203 194
-0.0909467 -0.186532 5.86943 205 205 195
-0.133357 0.049554 5.74174 79 73 61
-0.1218 -0.0472007 5.75285 196 195 190
-0.131122 0.0190154 5.7328 169 165 153
-0.107922 -0.111916 5.7929 200 200 190
-0.12455 -0.0072087 5.72951 191 189 176
-0.125237 0.023009 5.72785 172 169 154
-0.0756967 -0.207236 5.89159 206 206 196
-0.118743 -0.00830254 5.72672 194 192 179
-0.101389 -0.101308 5.77385 202 202 192
-0.101389 -0.101308 5.77385 202 202 192
-0.12151 0.0304307 5.72835 167 163 151
-0.119439 0.00732477 5.7228 185 179 163
-0.0795012 -0.166411 5.82876 205 205 195
-0.0770887 -0.174895 5.83841 204 204 194
-0.0790578 -0.158369 5.81742 204 204 194
-0.0982792 -0.0687992 5.74688 199 199 189
-0.10012 -0.0558187 5.74042 194 194 184
-0.107759 -0.0126522 5.7185 197 195 183
-0.00444506 -0.383001 6.13275 109 103 91
-0.0927294 -0.0781949 5.74886 200 200 190
-0.107107 0.0232915 5.70901 179 176 161
-0.0933932 -0.0624033 5.73736 199 199 187
-0.0586712 -0.19792 5.86812 206 206 196
-0.0779468 -0.122519 5.78044 200 200 190
-0.0834629 -0.0918005 5.75413 204 202 190
-0.105648 0.0557874 5.70622 151 148 133
-0.105754 0.0691463 5.71282 89 85 73
-0.0526127 -0.201365 5.86673 206 206 196
-0.0870565 -0.0657484 5.73337 200 200 190
-0.0765927 -0.1131 5.76734 202 202 192
-0.0765927 -0.1131 5.76734 202 202 192
-0.0710578 -0.134809 5.785 204 204 194
-0.099093 0.0427038 5.70183 172 169 152
-0.0948388 0.0114071 5.70595 189 186 171
-0.0905126 -0.0237121 5.71036 197 195 183
-0.0958067 0.023644 5.70169 186 183 168
-0.0904359 -0.01471 5.70625 195 193 181
-0.0953319 0.0474374 5.70055 169 166 151
-0.0877392 -0.0171664 5.70304 194 192 180
-0.0899445 0.0142241 5.69905 186 184 171
-0.0922308 0.0462833 5.69731 172 168 156
-0.0785225 -0.0595631 5.71289 199 199 189
-0.0790146 -0.0524328 5.71188 200 200 190
-0.0878685 0.0117837 5.69621 188 186 173
-0.0364475 -0.20258 5.86044 208 205 196
-0.0833659 -0.0121534 5.68882 196 194 182
-0.0838609 0.0135535 5.69188 193 191 178
-0.0573726 -0.126564 5.76634 202 202 192
-0.0862159 0.0445076 5.69122 181 175 161
-0.0562321 -0.121308 5.75776 201 201 191
-0.0703283 -0.0598389 5.70805 202 202 192
-0.0853026 0.0702186 5.69263 113 111 98
-0.0841799 0.0645934 5.69104 170 168 155
-0.0654456 -0.0787213 5.71815 202 202 192
-0.0657454 -0.0660006 5.70744 201 201 191
-0.0620171 -0.0807076 5.71566 203 203 191
-0.0521005 -0.118141 5.75154 188 188 178
-0.0521005 -0.118141 5.75154 188 188 178
-0.0649235 -0.0603751 5.70092 199 199 187
-0.07528 0.0110147 5.67623 198 196 183
-0.0642439 -0.0570407 5.69102 184 182 169
-0.0587203 -0.0761459 5.7112 196 194 179
-0.0839843 0.525318 5.91591 125 118 102
-0.0839843 0.525318 5.91591 125 118 102
-0.0757461 0.0574282 5.67481 184 181 166
-0.0727661 0.0432677 5.67838 191 189 176
-0.0770903 0.106373 5.68533 165 159 143
-0.0756097 0.0927156 5.68431 169 166 149
-0.0733023 0.0813911 5.67878 183 179 167
-0.0570522 -0.0514293 5.67314 186 183 174
-0.0703286 0.091081 5.67747 178 176 163
-0.0320235 -0.132492 5.74967 200 201 183
-0.0644272 0.0750737 5.66264 194 191 174
-0.0407059 -0.0861947 5.70025 201 201 191
-0.0407059 -0.0861947 5.70025 201 201 191
-0.062116 0.0726717 5.66394 196 193 176
-0.0613053 0.0688286 5.6627 122 118 107
0.057427 -0.368502 6.09807 216 213 208
-0.0635863 0.472785 5.87671 79 77 65
-0.0528774 -0.028161 5.63931 203 201 189
-0.0575862 0.053017 5.65553 196 194 181
0.0601563 -0.374119 6.09539 206 203 198
-0.0648449 0.196674 5.69353 148 142 126
-0.0408421 -0.0713766 5.67367 200 200 190
-0.0569534 0.0843352 5.66257 193 189 178
-0.0574207 0.541422 5.90845 75 72 65
-0.0471585 -0.0281496 5.63173 210 208 196
-0.0560663 0.208698 5.68528 152 146 130
-0.0434874 0.00845851 5.62391 204 204 194
-0.0492654 0.183145 5.67598 168 163 144
-0.0492654 0.183145 5.67598 168 163 144
-0.04506 0.576348 5.90036 45 37 26
0.0107205 -0.175604 5.77773 171 170 166
-0.0157981 -0.0842091 5.66928 94 92 79
0.00110162 -0.133964 5.73196 207 207 199
-0.039618 0.239604 5.68241 147 141 127
0.00801454 -0.140072 5.7312 207 207 197
0.00801454 -0.140072 5.7312 207 207 197
-0.0253928 -0.00758571 5.61159 209 206 197
0.0927034 -0.351057 6.08628 205 202 193
-0.0342148 0.407637 5.78161 68 62 48
-0.0347211 0.22506 5.67407 159 153 137
-0.0263302 0.0674643 5.61953 146 146 138
-0.0253554 0.570868 5.90588 103 96 80
-0.0297225 0.16809 5.651 180 178 163
-0.0182571 -0.00993205 5.60985 209 206 197
-0.0241061 0.0802344 5.62112 204 204 194
-0.0243645 0.13197 5.63546 192 190 177
0.00128098 -0.082606 5.65562 204 204 192
-0.0185503 0.0394702 5.60941 210 210 200
-0.0185503 0.0394702 5.60941 210 210 200
-0.014263 0.00312686 5.60747 215 212 203
-0.0189935 0.0799577 5.61892 207 204 195
-0.020806 0.121074 5.62728 202 200 187
-0.020806 0.121074 5.62728 202 200 187
-0.0206622 0.125716 5.62694 198 198 186
-0.0165765 0.0625802 5.61329 212 212 202
-0.014043 0.0359464 5.60716 213 213 203
0.0105212 -0.0972418 5.66667 207 207 197
0.110416 -0.325517 6.08162 210 210 198
0.0241591 -0.13258 5.7076 199 200 195
-0.0175638 0.152633 5.63059 195 193 181
-0.092512 0.73663 5.52925 28 25 20
-0.0122236 0.446663 5.80149 74 71 56
-0.0114325 0.418527 5.77562 85 81 69
-0.0526378 0.671476 5.68265 49 44 38
0.0395967 -0.165438 5.72321 209 205 194
-0.0027448 0.579333 5.89638 92 84 71
-0.00820296 0.132835 5.6182 199 199 187
-0.0629995 0.697856 5.62427 64 57 47
-0.00903814 0.263651 5.68259 159 153 137
-0.00903814 0.263651 5.68259 159 153 137
-0.0100184 0.159792 5.6204 189 187 175
0.0218589 -0.0918973 5.65533 206 202 193
0.0332222 -0.130713 5.69578 213 211 199
-0.00560425 0.092517 5.6033 208 208 198
-0.00494835 0.0895851 5.60523 209 209 199
0.00213861 0.0198119 5.60315 210 210 200
-0.000262635 0.0640363 5.60303 215 212 203
0.0150238 -0.0400155 5.62017 150 150 138
0.000818734 0.0747194 5.60179 213 211 199
0.0133794 -0.0214563 5.6138 154 152 140
0.0344361 -0.115222 5.67669 210 206 194
0.0427249 -0.133358 5.69467 207 204 189
0.00499528 0.0709312 5.59754 219 216 207
0.00557437 0.0821059 5.59875 214 212 200
0.034972 -0.0902447 5.65335 198 198 186
0.0243926 -0.032846 5.61874 214 212 199
0.0423236 -0.111689 5.66739 202 200 188
0.0476455 -0.12574 5.68144 205 202 195
0.0123528 0.10249 5.59619 213 210 201
0.0333023 0.553552 5.94666 102 92 80
0.0347017 -0.0488363 5.62457 213 211 199
0.025328 0.0116551 5.60375 211 208 199
0.048451 -0.103122 5.6572 206 206 194
0.0544836 -0.115804 5.66692 142 140 128
0.0357047 -0.0175563 5.61238 215 212 203
0.0528833 -0.104188 5.65706 199 199 189
0.0441936 -0.0650779 5.63057 214 214 206
0.0352452 -0.0110837 5.61062 210 210 200
0.0325539 0.00923054 5.60609 216 213 204
0.0197966 0.128659 5.59668 210 210 200
0.0259321 0.0633994 5.59144 208 209 201
0.0259321 0.0633994 5.59144 208 209 201
0.0542321 -0.0946576 5.64967 149 149 141
0.0513175 -0.0841677 5.63922 199 198 193
0.0491841 -0.0662903 5.63243 201 201 193
0.027883 0.0853882 5.5916 212 210 198
0.0473407 -0.0351022 5.61876 151 147 138
0.0302667 0.0812595 5.58741 215 212 203
0.0562801 -0.0805191 5.63896 209 209 199
0.0256082 0.170896 5.60304 210 210 200
0.0304438 0.100716 5.59001 212 209 200
0.0421601 0.0210129 5.60097 214 211 202
0.0449887 0.0012457 5.60418 215 212 203
0.0356932 0.0684757 5.59041 147 144 135
0.0335716 0.0875071 5.58819 214 211 202
0.0373323 0.0543164 5.59022 211 211 201
-0.000450574 0.66747 5.70532 44 37 29
0.0539778 -0.0365601 5.61766 209 209 201
0.0311658 0.158812 5.59794 204 204 194
0.0621803 -0.0738624 5.6343 218 215 206
0.051493 0.00264557 5.60419 214 211 202
0.0363921 0.149686 5.59394 206 206 196
0.0624933 0.561776 5.9325 101 89 77
0.0450253 0.0749469 5.58869 210 208 195
0.0382395 0.153179 5.59342 208 208 198
0.0550518 0.582191 5.89492 102 94 75
0.0630062 -0.0294055 5.61435 181 179 166
0.0630062 -0.0294055 5.61435 181 179 166
0.0462211 0.0869524 5.58232 219 216 207
0.074276 -0.0793783 5.63449 210 207 188
0.059338 0.0162846 5.59967 213 210 201
0.0526697 0.0703921 5.58518 157 155 142
0.0575699 0.0432867 5.59565 211 208 199
0.0793337 -0.0826158 5.63826 162 160 148
0.0641465 0.588287 5.88435 51 42 35
0.0854797 -0.095141 5.6435 227 229 218
0.0810336 -0.0718676 5.63074 216 214 201
0.0659366 0.0294795 5.59913 210 207 198
0.0748317 -0.000598728 5.60735 212 209 200
0.0856487 0.562151 5.93078 104 93 87
0.0701314 0.0498535 5.59154 210 207 198
0.0819444 -0.0142001 5.60806 212 209 200
0.101401 0.538075 5.97836 90 80 68
0.0723825 0.0590457 5.58895 207 207 197
0.0455541 0.649495 5.74403 124 116 103
0.0973659 -0.0840509 5.63599 139 139 127
0.097308 -0.077733 5.63035 211 208 199
0.097308 -0.077733 5.63035 211 208 199
0.0769914 0.0516503 5.59052 206 206 196
0.0780678 0.0405098 5.58994 213 210 201
0.0780678 0.0405098 5.58994 213 210 201
0.0745138 0.0668483 5.58469 208 205 196
0.100778 -0.0808554 5.63313 213 211 199
0.0949452 -0.0403045 5.61799 215 213 201
0.0949452 -0.0403045 5.61799 215 213 201
0.0816031 0.0481288 5.58922 211 211 201
0.0779147 0.0761594 5.58255 207 204 195
0.0848013 0.59664 5.86882 110 103 85
0.0758248 0.107513 5.57603 211 208 199
0.0863444 0.0402181 5.5899 213 210 201
0.0863444 0.0402181 5.5899 213 210 201
0.0795762 0.102378 5.57747 210 207 198
0.11362 -0.10213 5.64418 201 196 190
0.0970242 -0.00353298 5.60272 211 208 199
0.0994722 -0.0134253 5.60707 212 212 202
0.0553814 0.656681 5.71866 70 67 50
0.105324 -0.0429309 5.61867 150 144 128
0.030137 0.70687 5.60605 80 78 63
0.0982034 0.0158491 5.59683 211 208 199
0.0990254 0.0221919 5.59684 214 211 202
0.0342968 0.706353 5.60716 53 52 31
0.0921941 0.131192 5.57787 207 207 197
0.132582 0.542564 5.97443 112 106 90
0.161362 0.490358 6.07427 115 110 90
0.100907 0.0939594 5.57587 209 207 195
0.102546 0.0908277 5.57688 209 207 195
0.115257 0.0147791 5.59716 211 208 199
0.104956 0.0841302 5.57742 211 209 197
0.127111 0.567783 5.91706 132 130 109
0.120083 0.595088 5.87083 155 153 140
0.121837 0.0216724 5.5964 210 207 198
0.129444 0.00788737 5.59985 212 209 200
0.0614756 0.709592 5.60548 169 167 152
0.117299 0.0983618 5.57428 209 206 197
0.119899 0.0834611 5.57566 213 210 201
0.119899 0.0834611 5.57566 213 210 201
0.126033 0.0638413 5.5824 212 209 200
0.12212 0.0942401 5.57577 209 206 197
0.0774187 0.700611 5.64688 179 175 166
0.160427 0.547588 5.96563 168 165 150
0.0407381 0.761712 5.48999 192 190 178
0.130829 0.0559904 5.58348 213 210 201
0.176312 0.52051 6.02069 174 170 158
0.176312 0.52051 6.02069 174 170 158
0.124014 0.131889 5.57827 212 209 200
0.144174 -0.00354464 5.60132 216 213 204
0.148434 0.591268 5.87656 182 181 161
0.136106 0.106273 5.57663 214 211 202
0.147059 0.0442003 5.58542 212 209 200
0.14393 0.0824297 5.57721 212 209 200
0.144587 0.0873173 5.57516 211 209 197
0.144758 0.0939083 5.57835 211 209 197
0.169814 0.569946 5.91826 184 182 167
0.156387 0.599023 5.86457 185 183 168
0.214023 0.492865 6.0761 200 200 188
0.148408 0.117611 5.57787 210 207 198
0.138236 0.642779 5.7708 194 192 179
0.152699 0.114549 5.57958 211 208 199
0.250262 0.44161 6.18051 202 199 190
0.107716 0.704761 5.63569 195 195 183
0.155933 0.104315 5.58054 213 210 201
0.1917 0.554651 5.9553 200 199 194
0.144238 0.642234 5.7706 198 194 183
0.158488 0.0958223 5.58042 207 204 195
0.169662 0.010177 5.59256 216 213 204
0.221548 0.50361 6.05871 197 201 186
0.165404 0.115472 5.5817 211 208 199
0.0847102 0.753245 5.50174 204 201 192
0.177092 0.604414 5.85371 81 70 48
0.180093 0.600631 5.8603 94 82 70
0.169212 0.121209 5.58387 211 208 199
0.17841 0.0798193 5.57935 214 212 200
0.181883 0.0695974 5.58032 215 211 208
0.235122 0.529199 6.01291 204 205 200
0.270717 0.466743 6.1328 211 208 199
0.186563 0.0921958 5.57757 213 210 201
0.169631 0.647658 5.75072 204 204 192
0.167837 0.654938 5.73437 210 209 207
0.102908 0.761639 5.48375 206 205 185
0.0997997 0.768381 5.47216 199 194 172
0.171191 0.65281 5.73863 211 208 203
0.171191 0.65281 5.73863 211 208 203
0.200889 0.60816 5.84758 211 207 196
0.264407 0.500008 6.07167 177 170 160
0.108645 0.764033 5.48147 201 194 184
0.165014 0.675087 5.68725 199 193 177
0.200181 0.0932017 5.57424 210 208 196
0.231761 0.574828 5.9152 195 188 180
0.201274 0.128001 5.57436 213 210 201
0.122095 0.757543 5.49552 206 206 194
0.233443 0.381868 5.81368 213 210 201
0.12501 0.763178 5.48655 211 211 201
0.235958 0.354036 5.79727 210 207 198
0.224426 0.608247 5.84889 206 208 197
0.228341 0.605302 5.85082 206 207 193
0.216637 0.141667 5.57318 212 209 200
0.215253 0.160698 5.5719 210 207 198
0.235215 0.607787 5.85177 218 212 200
0.240793 0.594985 5.86571 217 212 192
0.246693 0.603539 5.85967 69 62 52
0.19964 0.675468 5.67892 85 82 65
0.225623 0.230444 5.58783 216 214 202
0.258482 0.392477 5.79988 67 66 74
0.260357 0.399999 5.80313 159 161 147
0.211822 0.670549 5.69021 204 205 200
0.264281 0.503102 5.83508 216 212 203
0.185926 0.718183 5.58645 210 206 195
0.23896 0.348633 5.62984 210 207 198
0.274534 0.430632 5.80678 212 209 200
0.279882 0.534753 5.82737 211 208 191
0.283146 0.514513 5.83247 186 182 171
0.284142 0.464311 5.80763 146 138 127
0.216939 0.69788 5.61987 78 73 77
0.282536 0.572672 5.83028 111 110 108
0.282536 0.572672 5.83028 111 110 108
0.290514 0.470528 5.80841 191 192 187
0.290705 0.468607 5.80734 203 204 199
0.289206 0.52352 5.82055 211 207 204
0.289206 0.52352 5.82055 211 207 204
0.287914 0.56688 5.82549 210 211 203
0.288395 0.578932 5.82577 210 211 205
0.29039 0.615159 5.83594 212 210 198
0.306071 0.57702 5.82331 214 211 202
0.269622 0.696913 5.62334 211 208 199
0.282417 0.708896 5.57388 212 209 200
0.300556 0.697304 5.61368 0 0 0
0.301668 0.727374 5.54543 0 0 0
0.328618 0.724959 5.55471 0 0 0
0.472865 0.551866 5.96678 0 0 0
0.371855 0.699538 5.6074 0 0 0
0.486916 0.552746 5.96447 0 0 0
0.546722 0.471309 6.15455 0 0 0
0.546722 0.471309 6.15455 0 0 0
0.360919 0.731684 5.53911 0 0 0
0.400047 0.676317 5.66164 0 0 0
0.378996 0.716882 5.56513 0 0 0
0.844243 0.038866 7.02593 0 0 0
0.476745 0.603634 5.85179 0 0 0
0.75285 0.201529 6.72044 0 0 0
0.560346 0.500401 6.08906 0 0 0
0.424247 0.680195 5.65015 0 0 0
0.575115 0.512805 6.13211 0 0 0
0.58924 0.467547 6.15312 0 0 0
0.574814 0.499585 6.08996 0 0 0
0.892199 0.0195735 7.06103 0 0 0
0.426299 0.703165 5.59861 0 0 0
0.597637 0.475229 6.13913 0 0 0
0.605042 0.464576 6.15703 0 0 0
0.538893 0.560414 5.94698 0 0 0
0.512152 0.603462 5.85778 0 0 0
0.913332 0.0156333 7.07394 0 0 0
0.592432 0.501762 6.0876 0 0 0
0.600611 0.495298 6.11167 0 0 0
0.606754 0.484806 6.12534 0 0 0
0.618876 0.466384 6.15136 0 0 0
0.436483 0.711142 5.57618 0 0 0
0.608875 0.490575 6.10959 0 0 0
0.622696 0.46928 6.14634 0 0 0
0.619878 0.476198 6.13624 0 0 0
0.583635 0.524771 6.0129 0 0 0
0.881913 0.0948995 6.90213 0 0 0
0.630373 0.476965 6.13551 0 0 0
0.684798 0.372766 6.2862 0 0 0
0.684798 0.372766 6.2862 0 0 0
0.627247 0.488639 6.11479 0 0 0
0.638465 0.481707 6.12481 0 0 0
0.638465 0.481707 6.12481 0 0 0
0.887181 0.117066 6.87591 0 0 0
0.841615 0.205179 6.71596 0 0 0
0.893782 0.118136 6.86868 0 0 0
0.703049 0.372742 6.28534 0 0 0
0.632498 0.505531 6.08092 0 0 0
0.632498 0.505531 6.08092 0 0 0
0.894328 0.12313 6.86218 0 0 0
0.714563 0.353809 6.30712 0 0 0
0.910241 0.101637 6.89768 0 0 0
0.908611 0.114685 6.87431 0 0 0
0.904076 0.12199 6.86077 0 0 0
0.725659 0.375634 6.28112 0 0 0
0.602688 0.574417 5.90489 0 0 0
0.678681 0.484151 6.12331 0 0 0
0.990368 0.0216464 7.03152 0 0 0
0.997333 0.0330585 7.04395 0 0 0
0.681187 0.492429 6.10177 0 0 0
0.67459 0.506687 6.07284 0 0 0
0.497334 0.739041 5.5255 0 0 0
0.760398 0.361768 6.28864 0 0 0
0.68254 0.510044 6.06572 0 0 0
0.701828 0.485291 6.11633 0 0 0
0.710977 0.471389 6.13763 0 0 0
0.501623 0.742072 5.51525 0 0 0
0.71567 0.474967 6.13631 0 0 0
0.71567 0.474967 6.13631 0 0 0
0.952908 0.147261 6.82532 0 0 0
0.697727 0.508327 6.07221 0 0 0
0.9778 0.1183 6.86499 0 0 0
0.967706 0.137002 6.8299 0 0 0
0.524456 0.735199 5.5266 0 0 0
0.968483 0.144547 6.81632 0 0 0
0.98756 0.121797 6.86093 0 0 0
1.02819 0.0702678 6.97554 0 0 0
1.19316 -0.107972 7.3709 0 0 0
0.68217 0.578215 5.89787 0 0 0
1.19853 -0.0997737 7.36393 0 0 0
0.555645 0.739041 5.51476 0 0 0
1.01856 0.139884 6.82937 0 0 0
0.718548 0.546349 5.96411 0 0 0
1.04042 0.124704 6.86438 0 0 0
0.764244 0.492308 6.07614 0 0 0
0.765847 0.493346 6.06957 0 0 0
0.607039 0.699113 5.60896 0 0 0
0.707568 0.487168 5.85913 0 0 0
0.913319 0.302346 6.44882 0 0 0
0.705688 0.591636 5.86638 0 0 0
1.01691 0.183461 6.73658 0 0 0
1.05739 0.13511 6.84643 0 0 0
0.778218 0.508579 6.04399 0 0 0
1.13866 0.0369403 7.04784 0 0 0
1.06107 0.152926 6.80416 0 0 0
0.71629 0.601166 5.84361 0 0 0
1.2884 -0.142946 7.42444 0 0 0
1.2679 -0.111415 7.36099 0 0 0
1.25738 -0.0959537 7.33185 0 0 0
1.08834 0.12849 6.85894 0 0 0
0.801001 0.497701 6.06062 0 0 0
1.30337 -0.154571 7.45059 0 0 0
0.731135 0.591825 5.85735 0 0 0
1.14338 0.0610746 6.99868 0 0 0
1.14338 0.0610746 6.99868 0 0 0
1.04063 0.199883 6.70249 0 0 0
0.797133 0.51582 6.02737 0 0 0
1.30159 -0.146378 7.41609 0 0 0
1.02898 0.219769 6.66348 0 0 0
1.05836 0.181326 6.74183 0 0 0
1.21579 -0.0214814 7.16931 0 0 0
0.813047 0.496253 6.05628 0 0 0
1.33277 -0.176121 7.46878 0 0 0
1.2236 -0.0223839 7.16895 0 0 0
1.0754 0.171449 6.75811 0 0 0
1.04731 0.210583 6.67648 0 0 0
1.27422 -0.0832606 7.28935 0 0 0
1.27431 -0.0833571 7.28951 0 0 0
0.760055 0.577557 5.87912 0 0 0
0.821942 0.507249 6.04042 0 0 0
1.08483 0.171374 6.75831 0 0 0
1.28287 -0.0916436 7.29684 0 0 0
1.18898 0.0330756 7.03712 0 0 0
0.907618 0.389664 6.24954 0 0 0
1.07197 0.196027 6.70281 0 0 0
1.15807 0.0935189 6.91976 0 0 0
1.10992 0.157435 6.7889 0 0 0
1.25857 -0.0395877 7.18672 0 0 0
1.11413 0.152157 6.79507 0 0 0
0.769617 0.590491 5.85034 0 0 0
0.921615 0.379681 6.25535 0 0 0
1.09374 0.187262 6.72853 0 0 0
1.11104 0.161362 6.76997 0 0 0
1.11714 0.156354 6.78698 0 0 0
1.11212 0.166014 6.76629 0 0 0
1.14837 0.121786 6.85891 0 0 0
1.11037 0.16895 6.75573 0 0 0
0.854152 0.496778 6.05445 0 0 0
0.929222 0.390893 6.24497 0 0 0
1.08799 0.207261 6.67355 0 0 0
0.822873 0.545272 5.95826 0 0 0
0.822873 0.545272 5.95826 0 0 0
1.17477 0.0955024 6.90368 0 0 0
1.17477 0.0955024 6.90368 0 0 0
0.822665 0.547193 5.95335 0 0 0
1.16298 0.115109 6.85681 0 0 0
1.33519 -0.11845 7.31461 0 0 0
1.13945 0.156004 6.77286 0 0 0
1.11249 0.191024 6.69031 0 0 0
1.29767 -0.0270287 7.17901 0 0 0
1.17637 0.113048 6.84377 0 0 0
1.21858 0.0679853 6.93538 0 0 0
1.20945 0.0804805 6.90631 0 0 0
1.41111 -0.171296 7.43569 0 0 0
1.09822 0.225241 6.60046 0 0 0
0.955306 0.414388 6.21519 0 0 0
1.25793 0.0360863 6.98901 0 0 0
0.974009 0.397514 6.23015 0 0 0
0.966805 0.416307 6.21006 0 0 0
1.42182 -0.136922 7.4116 0 0 0
1.18227 0.140237 6.77199 0 0 0
1.0939 0.256628 6.53964 0 0 0
1.20658 0.110419 6.83427 0 0 0
0.874392 0.537214 5.96272 0 0 0
0.98846 0.374476 6.24953 0 0 0
0.98846 0.374476 6.24953 0 0 0
1.09081 0.264417 6.52361 0 0 0
1.1432 0.196083 6.65119 0 0 0
0.993655 0.37603 6.24796 0 0 0
1.03758 0.33025 6.33126 0 0 0
1.11103 0.260908 6.52194 0 0 0
0.856015 0.584813 5.8594 0 0 0
1.16819 0.181287 6.66646 0 0 0
1.13786 0.223568 6.58228 0 0 0
1.1645 0.191171 6.64925 0 0 0
1.24807 0.0891521 6.86288 0 0 0
1.11356 0.258587 6.50965 0 0 0
1.11131 0.262905 6.5041 0 0 0
0.857348 0.611051 5.85301 0 0 0
1.12951 0.236983 6.5471 0 0 0
1.13184 0.251128 6.52195 0 0 0
1.66996 -0.347272 7.90215 0 0 0
0.828836 0.802563 5.75981 0 0 0
0.829333 0.804929 5.75652 0 0 0
1.22872 0.168778 6.72845 0 0 0
1.16237 0.252844 6.53218 0 0 0
1.16924 0.258313 6.5295 0 0 0
1.2732 0.14679 6.79775 0 0 0
1.68949 -0.315195 7.85639 0 0 0
1.20678 0.226523 6.60911 0 0 0
1.15808 0.28901 6.46305 0 0 0
1.16848 0.278773 6.48592 0 0 0
1.51705 -0.0943831 7.36581 0 0 0
1.52281 -0.0987176 7.38072 0 0 0
1.24839 0.201681 6.67757 0 0 0
1.49196 -0.0601078 7.29378 0 0 0
1.17235 0.295154 6.45561 0 0 0
1.55508 -0.115716 7.42524 0 0 0
1.26509 0.201091 6.68409 0 0 0
1.26509 0.201091 6.68409 0 0 0
1.46243 0.00240802 7.16164 0 0 0
1.11593 0.362603 6.27653 0 0 0
1.35331 0.126685 6.86115 0 0 0
1.07169 0.469868 6.14043 0 0 0
1.66703 -0.207614 7.62354 0 0 0
1.20435 0.296239 6.46077 0 0 0
1.11414 0.388938 6.22728 0 0 0
1.11414 0.388938 6.22728 0 0 0
1.23494 0.277417 6.51703 0 0 0
1.79459 -0.33018 7.88079 0 0 0
1.61083 -0.101918 7.40196 0 0 0
1.58566 -0.0699099 7.33745 0 0 0
1.23388 0.300947 6.46171 0 0 0
1.26218 0.280731 6.52058 0 0 0
1.32666 0.214106 6.67878 0 0 0
1.63724 -0.109144 7.41892 0 0 0
1.13662 0.437954 6.18018 0 0 0
1.24923 0.308249 6.45392 0 0 0
1.63845 -0.0866724 7.37238 0 0 0
1.32422 0.242351 6.59648 0 0 0
1.34965 0.225296 6.65481 0 0 0
1.56064 0.0144186 7.14436 0 0 0
1.84057 -0.28435 7.79027 0 0 0
1.89569 -0.322775 7.8685 0 0 0
1.87825 -0.286968 7.79492 0 0 0
1.3733 0.261893 6.57648 0 0 0
1.43212 0.202076 6.71448 0 0 0
1.91557 -0.325318 7.86012 0 0 0
1.64384 -0.021203 7.21447 0 0 0
0.965462 0.737589 5.60465 0 0 0
1.75523 -0.132477 7.471 0 0 0
1.14975 0.529212 6.0191 0 0 0
1.44546 0.205764 6.70793 0 0 0
1.64585 0.000831888 7.17937 0 0 0
1.27362 0.378924 6.28445 0 0 0
1.90503 -0.271241 7.77941 0 0 0
1.92499 -0.296488 7.81968 0 0 0
1.6652 -0.00972681 7.20492 0 0 0
1.03083 0.684935 5.71231 0 0 0
1.06606 0.642811 5.78549 0 0 0
1.24419 0.435923 6.18093 0 0 0
1.66937 -0.000258485 7.18145 0 0 0
1.66937 -0.000258485 7.18145 0 0 0
1.95013 -0.312282 7.83611 0 0 0
1.93909 -0.287024 7.80857 0 0 0
1.6746 0.00754997 7.17791 0 0 0
1.38988 0.29869 6.49168 0 0 0
1.08955 0.641674 5.79497 0 0 0
1.28361 0.418097 6.24254 0 0 0
1.69688 -0.0133644 7.20292 0 0 0
1.04358 0.706589 5.6836 0 0 0
1.3061 0.382165 6.28217 0 0 0
1.34736 0.342673 6.37488 0 0 0
1.69296 0.0054883 7.17703 0 0 0
1.70505 -0.000396197 7.19851 0 0 0
1.32105 0.378123 6.285 0 0 0
1.32105 0.378123 6.285 0 0 0
1.97674 -0.291405 7.80865 0 0 0
1.19805 0.543887 6.00526 0 0 0
1.20435 0.54471 6.00588 0 0 0
1.70881 0.012826 7.17032 0 0 0
1.20986 0.539601 6.01343 0 0 0
1.19816 0.555181 5.98074 0 0 0
1.19195 0.561292 5.96618 0 0 0
1.00419 0.770471 5.5153 0 0 0
1.29696 0.432022 6.17891 0 0 0
0.978381 0.800439 5.45206 0 0 0
1.01999 0.764804 5.52804 0 0 0
1.05134 0.740515 5.59802 0 0 0
1.30557 0.431903 6.1668 0 0 0
1.05575 0.735057 5.60108 0 0 0
1.74636 0.0103947 7.16515 0 0 0
1.31952 0.437603 6.17615 0 0 0
1.31952 0.437603 6.17615 0 0 0
1.03601 0.764104 5.53574 0 0 0
2.05307 -0.306568 7.8285 0 0 0
2.02079 -0.261386 7.7521 0 0 0
1.06322 0.755364 5.55379 0 0 0
1.22247 0.596086 5.90468 0 0 0
1.08286 0.742917 5.58231 0 0 0
1.06895 0.755678 5.54937 0 0 0
1.07261 0.761906 5.53322 0 0 0
1.12052 0.723675 5.62621 0 0 0
1.11407 0.733023 5.60199 0 0 0
1.14162 0.713085 5.66185 0 0 0
1.14162 0.713085 5.66185 0 0 0
1.23621 0.620166 5.8663 0 0 0
2.02541 -0.197405 7.61037 0 0 0
2.13252 -0.303693 7.81583 0 0 0
1.40026 0.422906 6.17584 0 0 0
1.15406 0.720925 5.63679 0 0 0
2.09826 -0.22405 7.71565 0 0 0
2.14337 -0.283686 7.80467 0 0 0
2.16389 -0.29651 7.8121 0 0 0
1.27576 0.614384 5.86648 0 0 0
1.30788 0.585707 5.92909 0 0 0
1.3318 0.559994 5.97956 0 0 0
1.18513 0.715873 5.64664 0 0 0
1.41786 0.447586 6.14174 0 0 0
2.02222 -0.126657 7.46463 0 0 0
1.52411 0.362879 6.37747 0 0 0
1.42833 0.43562 6.15787 0 0 0
1.34741 0.553131 5.98843 0 0 0
1.20909 0.698895 5.68851 0 0 0
1.34606 0.560012 5.9775 0 0 0
1.22992 0.679999 5.72002 0 0 0
1.23117 0.680592 5.72203 0 0 0
1.3166 0.596182 5.9023 0 0 0
1.35404 0.562497 5.97367 0 0 0
1.45047 0.426982 6.1707 0 0 0
1.31811 0.60055 5.89258 0 0 0
1.38219 0.536424 6.03063 0 0 0
1.54523 0.357957 6.37413 0 0 0
1.54458 0.365969 6.36945 0 0 0
1.54458 0.365969 6.36945 0 0 0
1.45654 0.428176 6.16905 0 0 0
1.22162 0.703626 5.66999 0 0 0
1.35736 0.566582 5.96206 0 0 0
1.35736 0.566582 5.96206 0 0 0
1.44869 0.445819 6.14763 0 0 0
1.46249 0.430542 6.16919 0 0 0
-1.34717 0.0834072 6.78347 168 98 39
-1.34366 0.0850224 6.77903 170 102 41
-1.31218 0.0424998 6.86162 161 94 41
-1.33673 0.128262 6.63787 160 95 39
-1.33104 0.145456 6.63026 166 104 45
-1.32831 0.139019 6.63375 166 101 45
-1.32169 0.116202 6.64489 160 95 39
-1.18403 -0.138879 7.19147 173 112 47
-1.19551 -0.062417 6.98586 173 117 58
-1.27778 0.0985517 6.6677 178 117 52
-1.28339 0.115828 6.65243 180 119 52
-1.09478 -0.241065 7.36057 177 117 55
-1.27571 0.107821 6.66124 176 114 55
-1.28147 0.133356 6.63739 175 116 60
-1.26193 0.0884113 6.68434 176 120 63
-1.18019 -0.0677273 6.99003 177 122 58
-1.26941 0.118467 6.64354 175 120 63
-1.17519 -0.0685335 6.98597 182 124 61
-1.16874 -0.0676748 7.00466 179 119 57
-1.21397 0.0210283 6.79394 177 121 64
-1.30419 0.227454 6.48926 178 119 63
-1.34657 0.307906 6.32845 176 116 56
-1.34657 0.307906 6.32845 176 116 56
-1.21944 0.0433757 6.75957 182 126 69
-1.20572 0.0266538 6.78574 177 121 64
-1.31526 0.265345 6.41644 176 117 61
-1.03917 -0.26089 7.36796 166 107 49
-1.34919 0.349033 6.25305 172 116 57
-1.23349 0.140294 6.63684 180 121 65
-1.23138 0.136181 6.63954 182 123 67
-1.27604 0.237618 6.46398 180 120 66
-1.12101 -0.0777645 6.9781 169 114 57
-1.2771 0.246299 6.44582 181 120 73
-1.36134 0.403817 6.13262 162 101 38
-1.33364 0.35984 6.22622 179 120 54
-1.18365 0.0613725 6.74345 169 114 60
-1.21482 0.151512 6.62892 169 114 60
-1.21482 0.151512 6.62892 169 114 60
-1.25669 0.232487 6.47225 167 114 60
-1.09381 -0.0877172 7.0045 171 111 59
-1.14835 0.016411 6.79494 160 110 61
-1.11466 -0.0465374 6.90947 164 109 55
-1.08384 -0.0916667 7.00452 162 110 60
-1.06747 -0.108447 7.0325 148 93 54
-1.09068 -0.0597568 6.94215 154 99 58
-1.09068 -0.0597568 6.94215 154 99 58
-1.23519 0.236117 6.45925 168 115 65
-1.11059 -0.018198 6.86542 163 111 63
-0.863208 -0.450466 7.75507 164 102 45
-1.06464 -0.0950836 7.0116 157 103 59
-1.26994 0.3134 6.31835 169 113 64
-1.18824 0.167941 6.61279 170 119 66
-1.10046 -0.0176482 6.86596 159 106 62
-1.18208 0.169439 6.61297 162 111 64
-1.11138 0.0195375 6.7972 157 104 60
-1.23599 0.282365 6.37819 175 120 63
-1.24206 0.295047 6.34896 174 118 61
-1.09715 0.008094 6.81922 154 103 60
-0.950869 -0.251002 7.33143 163 106 51
-1.08101 -0.0217444 6.8662 153 100 60
-1.08101 -0.0217444 6.8662 153 100 60
-1.15294 0.153355 6.63062 174 118 67
-1.25294 0.334107 6.28156 172 117 63
-1.2354 0.300216 6.33478 174 116 66
-1.10168 0.0413018 6.76626 157 104 62
-1.07133 -0.0163179 6.86218 156 105 62
-1.07133 -0.0163179 6.86218 156 105 62
-1.29929 0.432507 6.09631 144 75 33
-1.28547 0.40949 6.13412 151 85 37
-1.14384 0.162799 6.61989 176 120 69
-1.14384 0.162799 6.61989 176 120 69
-1.16722 0.201204 6.51943 162 109 69
-1.19053 0.243435 6.43953 172 119 65
-1.19053 0.243435 6.43953 172 119 65
-1.1177 0.115107 6.66553 164 110 64
-1.18653 0.248346 6.43537 176 121 65
-1.10006 0.0888381 6.68965 163 111 63
-1.08221 0.0573424 6.74679 167 111 62
-1.16248 0.215655 6.49064 161 108 64
-1.26059 0.396576 6.15696 165 101 39
-1.03809 -0.0259107 6.87049 167 112 58
-0.786864 -0.446198 7.74265 171 113 50
-1.10612 0.137455 6.67652 165 112 62
-1.24052 0.372337 6.20475 174 115 55
-1.26727 0.41982 6.11126 164 96 35
-1.0757 0.061696 6.73827 171 116 62
-1.10093 0.11729 6.66188 175 119 68
-1.10093 0.11729 6.66188 175 119 68
-1.16527 0.238028 6.44647 167 116 63
-1.14714 0.207655 6.50719 166 113 61
-1.16211 0.235266 6.45109 163 111 64
-1.14147 0.210077 6.50148 180 124 67
-1.19482 0.308617 6.31844 168 112 63
-1.2002 0.321595 6.29636 165 109 58
-1.13312 0.206333 6.509 172 115 60
-1.13578 0.213783 6.49466 172 115 62
-1.02854 0.00629245 6.8308 168 113 59
-1.2533 0.424249 6.10066 163 95 32
-1.14025 0.228855 6.4612 174 118 67
-1.12525 0.215086 6.4897 179 127 70
-1.23391 0.415194 6.12071 154 83 37
-1.23317 0.413302 6.12073 154 83 37
-0.814306 -0.327805 7.49271 184 121 54
-1.15141 0.270049 6.38109 176 124 67
-1.0131 0.0190232 6.81352 175 120 63
-0.993458 -0.0105102 6.86288 171 116 59
-0.993458 -0.0105102 6.86288 171 116 59
-0.621691 -0.607053 8.09784 160 95 37
-0.621691 -0.607053 8.09784 160 95 37
-0.612661 -0.622831 8.12325 157 94 41
-1.0321 0.0843178 6.71923 176 117 61
-1.01692 0.0635264 6.75356 173 121 64
-1.03657 0.103512 6.69146 176 120 63
-1.03593 0.103645 6.69311 176 120 63
-1.24369 0.474842 6.01268 163 94 37
-0.608756 -0.603141 8.0782 175 105 33
-0.998944 0.0484753 6.77436 159 105 59
-0.714658 -0.411802 7.67166 182 114 53
-0.714658 -0.411802 7.67166 182 114 53
-0.986381 0.0455778 6.77498 185 124 59
-1.1594 0.355278 6.2232 164 111 61
-1.02771 0.131261 6.65031 162 109 59
-1.08395 0.228254 6.44562 174 121 69
-1.09058 0.243106 6.42629 179 124 68
-1.09058 0.243106 6.42629 179 124 68
-1.09492 0.257733 6.40953 176 121 67
-0.684042 -0.409492 7.6692 178 116 55
-1.20317 0.477311 6.00525 161 92 33
-1.15144 0.385932 6.1634 174 119 63
-1.20504 0.480673 5.9975 161 93 32
-0.983738 0.125547 6.65898 178 119 63
-0.982443 0.144525 6.65281 174 115 59
-1.17786 0.477035 5.99688 165 96 37
-0.959082 0.119331 6.67111 161 105 46
-0.881575 -0.0135309 6.89814 191 131 61
-1.1656 0.466657 6.01774 169 101 40
-1.08961 0.33929 6.24701 173 122 65
-1.03979 0.273646 6.35882 177 120 67
-1.08349 0.353578 6.21887 180 123 68
-0.908095 0.0774524 6.73492 194 131 62
-1.06782 0.341321 6.24217 179 121 71
-1.06782 0.341321 6.24217 179 121 71
-0.961262 0.188255 6.58645 191 132 62
-1.04598 0.311487 6.29214 168 106 55
-0.860824 0.0125791 6.84965 166 103 50
-0.872594 0.0524829 6.83365 177 116 61
-0.45486 -0.613269 8.12795 182 112 40
-1.08783 0.392594 6.15107 171 120 67
-0.949027 0.196045 6.58088 192 131 66
-0.840998 -0.00226055 6.88505 171 106 50
-0.861297 0.0388478 6.81912 163 101 54
-0.81827 -0.0336976 6.94502 176 110 49
-1.06443 0.367206 6.19505 175 114 57
-1.10756 0.459109 6.03594 146 89 36
-1.00841 0.290003 6.32604 187 129 66
-0.72026 -0.17055 7.19253 185 116 47
-1.06725 0.394435 6.14817 184 124 62
-1.07506 0.408494 6.12361 177 115 58
-0.80554 -0.0213671 6.9283 175 111 49
-0.841024 0.0362679 6.82004 157 94 51
-0.929457 0.202951 6.5726 162 109 57
-1.01291 0.317638 6.28232 184 124 64
-1.01291 0.317638 6.28232 184 124 64
-0.50894 -0.468857 7.81826 179 112 42
-0.980684 0.277782 6.34638 184 123 68
-0.415311 -0.57758 8.06024 146 80 30
-0.882276 0.152236 6.63034 170 114 55
-0.783704 -0.0110771 6.91619 184 119 51
-1.06494 0.438325 6.07271 179 115 53
-0.651664 -0.219053 7.29149 182 114 49
-0.896504 0.196089 6.57519 162 109 59
-1.00464 0.345992 6.22905 176 128 79
-0.897898 0.204162 6.57073 166 110 59
-0.799572 0.0321312 6.83985 165 99 47
-0.76364 -0.00797698 6.9192 185 117 52
-0.394194 -0.561675 8.03007 166 95 39
-0.87849 0.187951 6.58879 183 122 59
-0.583185 -0.292858 7.43778 175 111 50
-1.02232 0.398846 6.13742 206 207 193
-0.630294 -0.214186 7.29064 156 92 46
-1.02962 0.426357 6.09431 209 209 199
-1.02962 0.426357 6.09431 209 209 199
-0.742587 0.0067172 6.90253 160 97 46
-0.821142 0.138737 6.66557 210 207 190
-0.998077 0.401148 6.13502 200 200 190
-1.00462 0.414112 6.11181 202 202 190
-0.755883 0.0362159 6.84107 170 131 92
-0.735318 0.0175136 6.88061 209 206 191
-0.889678 0.245125 6.41566 209 206 197
-0.993029 0.441957 6.0607 112 161 193
-0.73519 0.0652973 6.80552 204 204 194
-0.816767 0.19951 6.57759 211 209 197
-0.717359 0.0692227 6.80686 211 209 197
-0.713214 0.0733606 6.80144 211 211 201
-0.738799 0.119979 6.71987 208 208 196
-0.253687 -0.577384 8.09492 210 210 200
-0.432638 -0.322708 7.52448 214 211 202
-0.669232 0.030183 6.85373 172 176 151
-0.230553 -0.568282 8.08502 210 210 200
-0.684982 0.0906326 6.79457 106 109 90
-0.653314 0.0801546 6.8289 117 121 106
-0.479996 -0.180625 7.27741 213 213 203
-0.847786 0.346393 6.23019 210 210 200
-0.847786 0.346393 6.23019 210 210 200
-0.793839 0.277216 6.35562 55 57 43
-0.414034 -0.248072 7.39629 212 212 202
-0.790075 0.288057 6.34744 60 60 48
-0.775149 0.273801 6.36963 37 36 31
-0.20324 -0.501615 7.96765 209 209 199
-0.835798 0.372817 6.18044 209 209 199
-0.761499 0.272914 6.36755 33 32 27
-0.762078 0.280248 6.35684 31 30 25
-0.75713 0.276429 6.36515 33 32 27
-0.969375 0.58398 5.75822 174 168 108
-0.907378 0.502939 5.92032 210 210 198
-0.956685 0.579203 5.76526 192 181 136
-0.956685 0.579203 5.76526 192 181 136
-0.805669 0.38024 6.14924 204 204 192
-0.950823 0.581747 5.75892 155 145 86
-0.952643 0.585884 5.75162 151 142 75
-0.656383 0.215473 6.54762 34 35 21
-0.129944 -0.485837 7.95349 204 202 190
-0.129944 -0.485837 7.95349 204 202 190
-0.940658 0.585906 5.74875 138 130 68
-0.302085 -0.265554 7.4604 208 208 200
-0.346265 -0.203113 7.33649 211 212 206
-0.940611 0.594184 5.73314 114 112 61
-0.938119 0.597131 5.73008 98 100 61
-0.289625 -0.265075 7.46187 213 213 205
-0.352568 -0.177164 7.29465 106 104 83
-0.105122 -0.481974 7.95295 207 204 195
-0.92932 0.596001 5.72565 94 88 64
-0.920555 0.592884 5.73069 86 90 67
-0.911351 0.582469 5.75289 95 101 63
-0.90485 0.580011 5.75743 100 107 63
-0.0729159 -0.474717 7.95534 189 188 183
-0.604138 0.214669 6.54463 166 170 137
-0.902175 0.593837 5.72931 74 77 60
-0.0985966 -0.420286 7.84018 193 193 185
-0.245279 -0.244152 7.43369 209 209 199
-0.449387 0.0618129 6.91404 127 128 110
-0.885871 0.589404 5.73473 95 106 92
-0.802512 0.485293 5.94608 209 209 199
0.101252 -0.649496 8.30659 203 203 191
-0.568037 0.218641 6.53463 155 159 132
-0.879813 0.602918 5.71183 189 189 179
-0.218624 -0.238209 7.42484 209 209 199
-0.218624 -0.238209 7.42484 209 209 199
-0.261305 -0.156121 7.28166 67 61 47
-0.732272 0.442151 6.03413 162 166 133
-0.227907 -0.172296 7.30588 89 84 65
-0.678432 0.384674 6.14608 126 131 111
-0.630101 0.326174 6.26499 124 132 111
-0.731319 0.493953 5.93603 146 148 124
-0.424283 0.172739 6.55712 97 100 73
-0.398881 -0.164096 6.38498 66 64 49
-0.398881 -0.164096 6.38498 66 64 49
-0.396029 -0.29608 6.2787 178 178 166
-0.59727 0.400131 6.11846 130 134 107
-0.588521 0.392964 6.13382 116 121 91
-0.635378 0.451766 6.01727 125 130 108
-0.403868 0.206084 6.59596 80 92 68
-0.6739 0.515197 5.90817 120 123 102
-0.351329 -0.0684115 6.53606 61 58 43
-0.390913 0.150789 6.55938 94 93 73
-0.595672 0.422526 6.07762 201 205 182
-0.359205 -0.377023 6.26192 217 214 205
-0.384999 0.136639 6.55788 67 66 48
-0.383297 0.142206 6.55711 68 67 49
-0.356945 -0.369996 6.24938 215 215 205
-0.372608 0.125344 6.54529 58 59 43
-0.340536 -0.00517415 6.55342 73 68 46
-0.35552 0.0965513 6.52923 49 47 35
-0.353826 0.210904 6.59261 80 81 65
-0.343424 0.211683 6.59848 75 76 62
-0.589095 0.473606 5.98692 97 101 68
-0.372324 -0.150746 6.1142 214 214 204
-0.371856 -0.181937 6.02183 74 71 64
-0.365554 -0.184312 6.00975 74 71 66
-0.364027 -0.186939 6.00171 71 68 63
-0.54828 0.518917 5.91899 114 116 95
-0.484986 0.445538 6.05735 68 67 49
-0.581144 0.565776 5.83839 82 80 42
-0.366028 -0.0675147 6.05951 44 44 34
-0.657318 0.648261 5.65208 109 112 83
-0.362472 -0.169879 5.98857 70 70 62
-0.3545 -0.200118 5.98985 73 70 63
-0.360887 -0.0703306 6.05787 37 37 25
-0.362696 -0.160305 5.98909 80 73 63
-0.362696 -0.160305 5.98909 80 73 63
-0.456257 0.44697 6.0654 77 79 57
-0.493718 0.504435 5.96323 86 85 65
-0.312674 -0.309653 5.94772 83 78 72
-0.532053 0.56447 5.84596 84 86 73
-0.290115 0.137358 6.22481 66 65 47
-0.27789 0.223941 6.30772 59 56 47
-0.304125 -0.209112 5.86366 78 75 68
-0.270376 0.138786 6.17992 71 72 56
0.505823 -0.466909 8.00097 208 208 198
-0.215862 -0.279409 6.01441 80 77 72
-0.550602 0.66171 5.64333 75 73 60
-0.12249 -0.366941 6.20253 78 79 74
-0.209707 -0.273912 5.9855 75 72 67
-0.243854 0.165631 6.17174 71 69 54
-0.11793 -0.349732 6.19279 72 71 66
-0.113366 -0.362895 6.19346 72 71 66
-0.254412 0.0683574 6.04549 72 70 49
-0.103907 -0.363652 6.19118 77 76 71
-0.230538 -0.136747 5.96444 57 54 49
-0.230872 -0.141338 5.9595 56 53 46
-0.225465 -0.163477 5.95999 58 55 50
-0.219653 -0.177182 5.95973 61 58 53
-0.0997278 -0.335956 6.18735 75 74 69
-0.196034 -0.249879 5.96106 71 68 61
-0.213532 -0.180265 5.95245 62 59 54
-0.0885665 -0.375228 6.1797 78 77 72
-0.204839 -0.213968 5.9531 70 67 62
-0.0876123 -0.37096 6.17858 75 74 69
-0.0876123 -0.37096 6.17858 75 74 69
-0.204277 -0.197414 5.95211 65 62 55
-0.204277 -0.197414 5.95211 65 62 55
-0.209905 -0.174028 5.94737 62 59 54
-0.195302 -0.231924 5.94792 74 71 66
-0.206717 -0.178682 5.94819 62 59 54
-0.0842375 -0.347043 6.17647 74 73 68
-0.206626 -0.166309 5.94578 66 63 58
-0.177843 -0.240569 5.94343 82 79 74
-0.177097 -0.234468 5.94239 77 74 65
-0.143458 -0.296372 5.99466 71 72 66
-0.14168 -0.299888 5.99636 69 70 64
-0.0601542 -0.370804 6.15687 76 76 68
-0.200587 -0.118053 5.92014 97 96 75
-0.186251 -0.163821 5.92514 71 68 63
-0.18084 -0.16293 5.92237 73 70 63
-0.153848 -0.231455 5.93474 76 73 64
-0.172223 -0.171887 5.92007 80 80 78
-0.167983 -0.180399 5.91806 78 79 81
-0.0918614 -0.308505 6.04524 79 79 71
-0.179053 -0.140042 5.90887 80 80 80
-0.123089 -0.273042 5.96755 78 75 70
-0.154665 -0.195967 5.91558 205 207 196
-0.0293165 -0.371941 6.14465 73 72 70
-0.155217 -0.180077 5.91004 182 180 167
-0.157852 -0.172711 5.90654 113 111 98
-0.1752 -0.121028 5.88728 194 195 187
-0.11124 -0.258046 5.95291 205 203 190
-0.170066 -0.116822 5.87664 196 198 185
-0.150223 -0.164581 5.89606 199 200 186
-0.20438 0.0218349 5.84939 96 96 68
-0.102305 -0.256052 5.9491 206 205 200
-0.190168 -0.0330125 5.83625 169 167 154
-0.197347 0.0161515 5.8382 103 101 78
-0.19811 0.0225732 5.83779 89 85 56
-0.106247 -0.228221 5.92808 209 209 197
-0.102877 -0.230426 5.92687 185 185 173
-0.102877 -0.230426 5.92687 185 185 173
-0.149598 -0.117354 5.84234 212 212 200
-0.185369 0.00441082 5.81176 171 169 156
-0.120466 -0.170275 5.87346 218 218 208
-0.12321 -0.15775 5.8577 212 212 202
-0.177854 -0.00550198 5.79574 188 186 173
-0.0935348 -0.209246 5.89529 215 215 207
-0.162956 -0.0454761 5.79017 195 195 185
-0.163963 -0.032368 5.78239 188 189 175
-0.12465 -0.13189 5.82524 203 203 193
-0.12465 -0.13189 5.82524 203 203 193
-0.103528 -0.171567 5.8557 202 202 192
-0.135863 -0.103334 5.81121 199 199 189
-0.110513 -0.155312 5.84389 200 200 190
-0.15701 -0.0491291 5.78448 198 198 188
-0.0787887 -0.210308 5.8934 205 205 193
-0.175162 0.0593038 5.7978 136 134 122
-0.0848813 -0.198388 5.8799 202 202 192
-0.123196 -0.125992 5.82229 203 203 193
-0.0736576 -0.213653 5.8952 204 204 194
-0.168569 0.00584191 5.7725 192 190 177
-0.169831 0.0415001 5.78179 175 172 157
-0.153924 -0.0389258 5.77353 201 201 191
-0.162742 -0.00219033 5.76727 195 195 183
-0.126049 -0.10424 5.79505 201 201 191
-0.127303 -0.0977509 5.7921 201 201 191
-0.159178 0.0194566 5.75926 189 190 176
-0.0953771 -0.151228 5.81898 203 203 193
-0.0953771 -0.151228 5.81898 203 203 193
-0.100072 -0.138646 5.81183 204 204 194
-0.156542 0.018924 5.75667 191 192 178
-0.153507 0.00331094 5.7529 190 190 178
0.0658719 -0.375822 6.09615 206 206 196
-0.0587773 -0.198524 5.86765 202 202 192
-0.0852592 -0.157338 5.82208 206 206 196
-0.106597 -0.115608 5.78853 202 202 192
-0.151782 0.0654916 5.76263 178 179 163
-0.0898937 -0.135353 5.7942 200 200 190
-0.119683 -0.0653438 5.75618 201 201 191
-0.140598 0.0152645 5.7374 198 196 184
-0.0678036 -0.16745 5.81704 202 202 192
-0.128356 -0.0237118 5.73622 200 200 190
-0.0791981 -0.137054 5.78898 204 204 194
-0.132796 0.000313891 5.73086 196 196 184
-0.128454 -0.0156072 5.73242 201 201 191
-0.1362 0.0249156 5.73282 198 196 184
-0.138341 0.0496081 5.74027 194 194 182
-0.0897377 -0.101758 5.76591 205 205 193
-0.121928 -0.0157007 5.7288 191 191 183
-0.105129 -0.0579474 5.74668 208 209 193
-0.0493716 -0.174401 5.81977 205 205 195
0.828065 -0.401451 7.92199 94 97 102
-0.0647269 -0.147867 5.79235 200 200 188
-0.099505 -0.0707407 5.74684 203 203 193
-0.0530909 -0.158321 5.7993 203 204 190
-0.0530909 -0.158321 5.7993 203 204 190
-0.0982646 -0.0554074 5.73247 111 111 101
0.872524 -0.422538 7.97098 159 160 164
-0.042805 -0.167147 5.80231 200 200 190
-0.0949932 -0.0511576 5.7294 191 192 186
-0.0861564 -0.0669002 5.73506 194 194 184
0.109708 -0.312085 6.08097 195 195 185
-0.093338 -0.0386026 5.72258 169 166 159
-0.0989173 -0.0227028 5.71558 186 186 178
-0.130419 0.527769 5.94819 64 61 54
-0.128946 0.528007 5.95049 64 61 54
-0.112262 0.0358299 5.71044 186 183 174
-0.119575 0.475603 5.94235 68 69 55
-0.119575 0.475603 5.94235 68 69 55
-0.114323 0.05638 5.71445 202 202 192
-0.113685 0.514668 5.97162 66 64 52
-0.0949522 -0.0183724 5.71192 199 199 189
-0.113356 0.0713421 5.71665 204 204 194
-0.113356 0.0713421 5.71665 204 204 194
-0.0460315 -0.135735 5.76537 202 200 188
-0.0992508 -0.00689927 5.70504 191 191 183
-0.0912727 -0.0290067 5.71081 204 204 192
-0.088612 -0.034775 5.71118 191 189 174
-0.0925425 -0.0198937 5.70913 200 201 185
-0.102922 0.130914 5.76382 198 198 186
-0.0953993 -0.00373633 5.70283 205 203 191
-0.0953993 -0.00373633 5.70283 205 203 191
-0.106777 0.468595 5.94216 61 62 44
-0.106974 0.0611525 5.70769 204 204 194
-0.0800364 -0.0532024 5.70899 194 193 189
-0.104325 0.0562738 5.70981 206 204 191
-0.0759098 -0.0538712 5.70982 200 201 187
-0.0311558 -0.145339 5.76718 203 200 191
-0.0871003 -0.00916712 5.69924 204 202 190
-0.0974603 0.0391527 5.69996 169 166 159
-0.0903533 0.0050135 5.69692 199 197 185
-0.0903533 0.0050135 5.69692 199 197 185
-0.0903533 0.0050135 5.69692 199 197 185
-0.0876579 -0.00263433 5.69767 182 180 168
-0.0876579 -0.00263433 5.69767 182 180 168
-0.0993421 0.062311 5.70121 203 203 193
-0.0993421 0.062311 5.70121 203 203 193
-0.0621769 -0.077235 5.71343 183 184 170
-0.0799114 -0.028972 5.69485 213 211 199
-0.0531616 -0.0928976 5.72044 185 182 173
-0.0718229 -0.0455219 5.69427 204 203 182
-0.0718229 -0.0455219 5.69427 204 203 182
-0.090396 0.0377402 5.69474 205 203 190
-0.0850081 0.0128745 5.68876 199 199 191
-0.0988746 0.481635 5.91193 82 85 68
-0.086342 0.0359512 5.68895 198 199 193
-0.086342 0.0359512 5.68895 198 199 193
-0.0732911 -0.0271754 5.68352 202 202 192
-0.0699027 -0.0391122 5.68499 203 203 193
-0.0723258 -0.0157425 5.67692 202 202 192
-0.0723258 -0.0157425 5.67692 202 202 192
-0.0556704 -0.0632021 5.6904 205 205 195
-0.0778873 0.013721 5.67823 205 205 197
-0.0651372 -0.0379686 5.67893 204 204 194
0.0382556 0.413578 6.18514 173 170 153
-0.0731716 -0.00537206 5.67515 205 205 197
-0.0707841 -0.00812433 5.67461 201 201 193
-0.0934461 0.503667 5.90242 67 67 57
-0.0733074 0.0093704 5.67218 205 205 197
0.0339008 0.419949 6.16249 172 169 152
-0.0804116 0.0751009 5.68344 206 208 197
-0.0301412 -0.100292 5.70748 207 207 199
-0.0859691 0.159286 5.71325 215 212 203
-0.0882331 0.183458 5.71669 213 210 201
-0.0749685 0.0534055 5.67623 147 148 140
-0.0735562 0.057868 5.68045 161 163 152
-0.0780298 0.0777085 5.67821 204 206 195
0.000798807 -0.139774 5.74279 205 205 195
-0.0798279 0.13481 5.68984 212 210 198
-0.0374447 -0.0768764 5.67536 203 204 190
-0.0552477 -0.0315106 5.64782 194 194 184
-0.0682334 0.0684389 5.67078 208 206 193
-0.0547027 -0.0273308 5.64522 204 204 194
-0.0547027 -0.0273308 5.64522 204 204 194
0.00375287 -0.131113 5.72903 205 205 193
-0.0231033 -0.0872884 5.68121 189 188 184
0.0134157 -0.141886 5.73111 184 179 160
0.00360857 -0.125724 5.71451 193 190 183
-0.0609675 0.068806 5.66353 185 183 171
0.990268 -0.39933 7.94035 207 207 197
-0.0500342 -0.0179701 5.63196 167 164 155
-0.0790751 0.57256 5.8862 62 59 50
-0.0692559 0.516217 5.8781 68 66 54
-0.0195059 -0.0809428 5.66824 203 204 190
-0.0661774 0.570694 5.89052 54 52 37
0.0402284 -0.17014 5.73332 206 205 187
0.00870993 -0.109146 5.68996 196 198 187
-0.0566275 0.533028 5.88145 75 76 60
-0.0566275 0.533028 5.88145 75 76 60
-0.0364616 -0.0173445 5.6239 211 212 204
-0.0603684 0.19863 5.67792 216 213 204
-0.0603684 0.19863 5.67792 216 213 204
-0.00903357 -0.0429455 5.66072 211 211 201
0.0146357 -0.104784 5.67898 153 154 149
-0.0511029 0.455201 5.82754 140 142 128
0.01706 -0.104496 5.68254 206 206 204
-0.0473523 0.459298 5.82733 198 195 186
-0.0506474 0.191528 5.67161 211 212 196
-0.052675 0.210701 5.67399 210 207 198
-0.050024 0.215541 5.67618 211 208 199
-0.0310063 0.070168 5.62591 183 183 171
-0.0310063 0.070168 5.62591 183 183 171
-0.0425211 0.366489 5.75601 205 205 195
-0.0425211 0.366489 5.75601 205 205 195
-0.0192709 0.00192338 5.61342 194 191 186
-0.0406179 0.192711 5.66518 184 184 172
0.0243707 -0.0827308 5.65033 184 182 170
0.0361434 -0.101427 5.66505 129 125 114
0.0361434 -0.101427 5.66505 129 125 114
0.0359541 -0.0963296 5.65811 205 206 198
-0.00747671 0.0138547 5.61119 203 200 191
-0.00378582 0.000392391 5.60956 212 209 194
-0.023371 0.578493 5.87127 185 190 170
0.016807 -0.0437844 5.62703 189 186 169
-0.0103034 0.0511486 5.6142 137 138 132
0.0399975 -0.0768375 5.64256 205 205 197
0.00690989 0.0138603 5.60618 209 207 194
0.0358282 -0.0581763 5.63162 214 212 197
-0.00365443 0.0728608 5.60592 208 205 196
-0.016813 0.379183 5.73807 210 207 198
-0.000385562 0.090389 5.60531 210 208 196
0.0297815 0.558893 5.92048 205 202 193
0.00634728 0.0748562 5.60328 126 125 120
0.00670429 0.0709409 5.60153 200 200 192
0.0669193 -0.0927519 5.65033 203 204 198
0.0194521 0.0319459 5.60273 161 154 146
0.0190888 0.0364813 5.59951 168 165 158
1.11377 -0.377918 7.90976 214 214 204
0.0735722 -0.0963279 5.65109 209 209 197
0.0261453 0.0298771 5.60151 212 213 207
0.0299573 0.0199491 5.60425 214 215 207
0.0144646 0.0757133 5.5971 201 202 194
0.011559 0.120486 5.60231 121 121 113
0.0148431 0.106147 5.60001 170 167 152
0.0333721 0.038564 5.60055 210 208 196
0.0393578 0.0173793 5.60217 211 208 201
0.0616165 -0.0320887 5.62167 210 212 201
0.0481834 0.00489426 5.60964 200 197 188
0.0259089 0.0823038 5.59491 204 199 193
0.0536972 -0.00085535 5.61291 208 210 199
0.017034 0.163464 5.60235 212 209 200
0.0550645 0.00858656 5.60587 218 215 206
