ply
format ascii 1.0 
element vertex 990
property float32 x 
property float32 y 
property float32 z
property uchar red  
property uchar green
property uchar blue
element face 0
property list uchar int vertex_indices
end_header
-0.308957 0.763632 2.51901 200 200 190
-0.284849 0.747569 2.53214 105 100 94
-0.265337 0.586221 2.60996 197 198 192
-0.260355 0.537619 2.5828 87 88 74
-0.242631 0.627303 2.55199 180 177 170
-0.241669 0.54953 2.56047 110 106 95
-0.216419 0.720574 2.59616 188 179 172
-0.194408 0.504435 2.63489 140 142 139
-0.127454 -0.420729 2.94347 108 109 104
-0.141537 0.692496 2.57303 129 128 126
-0.13143 -0.545636 2.78574 223 227 239
-0.120836 0.625474 2.58036 114 114 104
-0.112893 0.752157 2.57367 99 98 94
-0.111745 0.465592 2.71739 213 209 206
-0.0976669 0.744137 2.57724 110 111 105
-0.0890047 -0.515491 2.82538 108 113 109
-0.0870176 -0.427609 2.76985 120 122 121
-0.0804779 -0.653906 2.73873 220 226 238
-0.0799673 -0.0938628 2.79256 119 121 107
-0.0799673 -0.0938628 2.79256 119 121 107
-0.0733263 -0.546578 2.8084 218 228 238
-0.07236 -0.354164 2.7854 17 20 13
-0.047403 0.474716 2.79505 216 216 216
-0.0493257 0.367987 2.76193 245 246 241
-0.038578 0.55422 2.64217 50 46 43
-0.038578 0.55422 2.64217 50 46 43
-0.0344448 0.759992 2.61647 130 129 125
9.75234e+06 -2.27379e+07 2.04645e+08 58 60 55
-0.0225198 0.60774 2.60658 210 210 208
0.0145993 -0.344214 2.93287 33 33 31
3.93206e+07 -1.1027e+08 8.78884e+08 47 49 44
-0.0113544 0.540809 2.63778 30 30 28
3.90708e+06 -9.98127e+06 8.13384e+07 32 32 30
-0.000187498 0.552565 2.64859 30 35 28
0.000196961 -0.364753 2.78093 43 43 41
0.0415147 0.00502144 2.91415 107 103 92
0.0489639 -0.184835 3.00862 187 190 183
0.0394979 0.301855 2.86032 214 214 206
0.0236576 -0.498212 2.78572 109 113 112
0.0248629 0.45985 2.78668 216 215 211
0.0338336 -0.590322 2.77205 219 225 237
0.0765549 -0.505738 2.94013 112 112 112
0.0462596 0.538882 2.64964 32 39 31
0.0462596 0.538882 2.64964 32 39 31
0.0527511 -0.470849 2.79173 145 147 146
152518 -420424 2.90636e+06 145 147 146
0.0576265 -0.31369 2.81655 29 29 27
0.0543135 -0.314083 2.78559 29 29 27
3.78737e+06 -9.81128e+06 7.10216e+07 132 136 137
0.0595486 -0.434783 2.79283 132 136 137
0.0961209 -0.481218 2.93335 141 143 142
0.0804865 0.537578 2.65938 48 50 47
0.26772 -1.01264 8.69536 11 12 7
0.0913895 -0.281501 2.65313 9 11 6
1.54941e+08 -2.98762e+08 2.68394e+09 9 11 6
0.100649 -0.46022 2.80416 144 145 147
0.129627 0.300688 2.87793 225 229 214
4.34627e+06 -1.08295e+07 7.46644e+07 148 150 149
0.1127 0.742061 2.62085 152 153 155
0.121202 0.550064 2.66161 213 214 209
1.59727e+07 -2.77297e+07 2.40978e+08 25 25 25
0.132033 -0.598325 2.79651 219 225 237
0.135812 -0.15869 2.844 210 210 208
8.77902e+07 -1.79302e+08 1.51067e+09 29 29 27
1.1248e+07 -2.02021e+07 1.79943e+08 25 27 24
0.145406 0.461682 2.78519 211 206 202
0.148895 0.700503 2.63442 164 165 167
0.198534 -0.39527 2.92908 44 46 43
0.171477 0.0859503 2.83044 220 220 218
0.172869 0.723896 2.6365 178 180 179
0.188591 -0.331592 2.84649 34 34 34
0.191461 -0.307277 2.84506 22 25 18
0.182866 0.553461 2.67272 113 111 99
0.186021 0.537659 2.65354 131 131 123
0.203107 -0.363242 2.82878 44 44 42
0.218504 -0.22233 2.86601 130 134 133
0.229896 -0.595579 2.83435 216 224 235
1.35134 0.0286936 17.1202 157 159 158
1.93176e+08 -4.27264e+08 2.73573e+09 104 106 105
0.247868 0.00464207 2.92587 160 162 161
0.227998 0.536741 2.6655 213 214 209
0.284783 -0.603395 2.96305 217 223 235
0.267159 0.545554 2.68456 124 124 122
0.282936 0.489681 2.8007 204 205 199
0.274792 0.485387 2.77249 204 205 199
0.27697 0.385965 2.80517 219 218 214
0.278946 0.437057 2.81639 162 162 154
0.286246 0.229355 2.84473 219 220 215
0.287279 0.35551 2.83114 220 221 216
0.289512 0.345093 2.83486 224 225 220
0.303978 -0.169766 2.87806 199 199 199
0.307171 -0.411812 2.9018 98 106 109
0.307171 -0.411812 2.9018 98 106 109
0.312892 -0.537715 2.91559 163 163 163
0.288013 0.582631 2.66924 213 208 204
0.307693 0.538157 2.71885 211 212 206
0.343648 0.535864 2.68054 210 211 205
0.493115 -0.390097 3.16086 48 47 43
0.454527 0.294692 3.00266 205 204 202
0.457188 0.293193 3.00283 208 207 205
0.540176 -0.56899 3.19405 206 207 202
0.557346 -0.556904 3.19488 204 205 200
0.755192 -0.556585 3.19841 206 203 196
0.76602 -0.587147 3.19676 131 123 112
0.730659 -0.536303 3.10704 209 208 204
1.07591 -0.631353 3.65478 210 207 200
1.0052 -0.563085 3.17095 211 211 203
0.991389 -0.283403 3.13056 20 22 17
1.03497 -0.56081 3.16328 208 209 203
1.09206 -0.552823 3.22731 200 197 190
1.09206 -0.552823 3.22731 200 197 190
1.06371 -0.574366 3.16143 209 208 203
1.06073 -0.598198 3.12972 205 202 195
1.13756 -0.554608 3.32528 204 201 196
1.14603 -0.367027 3.22419 28 30 27
1.28541 -0.790269 3.30991 208 209 204
1.22659 -0.207316 3.16416 165 165 165
1.26434 -0.56323 3.22626 209 208 204
1.21652 0.260955 3.11236 221 222 224
1.21523 0.443505 3.10605 27 27 19
1.27058 -0.825326 3.22487 207 204 197
1.2749 -0.382576 3.2186 58 60 59
1.42892 -1.83014 3.6178 13 16 7
1.27224 -0.192119 3.19606 185 185 185
1.27827 -0.595417 3.16322 211 210 205
1.31341 -0.390263 3.22062 40 42 39
1.3267 -0.532097 3.23867 199 201 198
1.29414 -0.602485 3.16379 212 211 206
1.32861 -0.382251 3.22257 34 34 34
1.31977 -0.396414 3.20009 40 42 39
1.33605 -0.542791 3.22631 207 208 203
1.35221 -0.507244 3.24752 149 151 148
1.3513 -0.564127 3.23932 211 210 206
1.34027 -0.338616 3.20434 22 24 19
1.34524 -0.22895 3.19008 147 147 147
1.37154 -0.541972 3.23206 207 208 203
1.38737 -0.730337 3.2648 212 213 208
1.38961 -0.733746 3.24656 214 213 208
1.37072 -0.229699 3.19282 145 145 145
1.37072 -0.229699 3.19282 145 145 145
1.36623 -0.594958 3.18122 212 211 207
1.33637 0.406319 3.10954 18 19 11
1.39152 -0.682368 3.21393 207 212 208
1.3982 -0.693974 3.2106 219 218 213
1.38585 -0.216232 3.18082 153 153 153
1.42226 -1.45987 3.25176 123 124 119
1.41463 -1.44519 3.23945 91 90 86
1.40024 -0.634932 3.19227 202 199 194
1.36973 0.427053 3.12383 13 18 12
1.45318 -1.47538 3.2613 20 20 18
1.43585 -1.44349 2.83168 1 13 9
-17.8868 -0.280836 -35.2546 174 176 171
1.48629 0.0231927 2.92688 174 176 171
1.45506 -1.42914 2.85922 63 78 75
1.45504 -1.43171 2.84714 152 140 140
1.34278 0.145605 2.59258 99 102 93
1.33708 0.308284 2.56944 11 16 9
1.31955 0.388963 2.54057 38 38 26
1.32915 0.473017 2.54012 37 37 25
1.33895 0.446191 2.55094 38 38 26
1.32501 0.611916 2.52191 13 16 7
1.32308 0.640853 2.51674 17 20 13
1.3311 0.637701 2.51916 14 17 10
1.35548 0.458638 2.53927 31 32 18
1.54758 0.00781637 2.84008 178 177 172
1.43594 0.116087 2.61343 226 228 225
1.43594 0.116087 2.61343 226 228 225
1.41946 0.466289 2.56421 37 38 24
1.44017 0.560644 2.55179 50 50 38
1.43006 0.560763 2.53954 50 50 38
1.49341 0.0587269 2.61466 188 190 187
1.5111 0.138029 2.62514 231 232 227
1.56007 0.391917 2.60586 19 22 13
1.56007 0.391917 2.60586 19 22 13
1.95975 0.237544 3.20207 220 221 216
1.77765 -1.31379 2.92061 17 17 7
1.83555 -1.59876 3.00276 21 22 16
1.78394 -1.31645 2.90148 59 58 53
1.65777 0.120107 2.64084 227 228 222
1.88485 -1.54138 2.99486 58 60 49
1.6869 0.182219 2.66024 219 220 215
1.63446 0.641674 2.57253 13 16 9
1.92402 -1.34135 3.00985 164 160 149
1.91569 -1.56691 3.00471 52 48 37
1.68219 0.123643 2.64317 209 208 203
1.72706 0.190195 2.66276 220 219 214
1.72706 0.190195 2.66276 220 219 214
2.02258 -1.63538 3.05103 44 46 35
1.8006 0.210467 2.68724 192 196 199
1.86726 0.00524434 2.7732 162 159 150
1.86726 0.00524434 2.7732 162 159 150
2.05748 -1.58159 3.04582 50 46 37
1.78166 0.484792 2.62879 18 19 13
1.78166 0.484792 2.62879 18 19 13
2.08821 -1.62547 3.06085 62 55 45
2.08007 -1.54217 3.04488 41 35 23
1.84705 0.190915 2.69184 152 153 147
2.10426 -1.58269 3.05964 70 66 54
2.09664 -1.52183 3.04614 63 57 43
1.92974 0.282852 2.69539 128 129 131
1.93928 0.20258 2.70627 171 172 167
1.9324 0.3528 2.68223 109 117 120
1.93581 0.206363 2.69067 160 161 156
2.18086 -1.43375 3.0268 25 26 20
1.97909 0.179613 2.71877 156 157 151
2.05471 0.183122 2.81366 156 157 151
1.9835 0.172445 2.7136 42 35 29
2.52952 -1.76916 3.4255 72 49 41
2.56987 -1.78639 3.35639 126 131 135
2.61269 -1.81366 3.4049 126 131 135
2.79549 -1.82266 3.5156 88 88 80
2.91135 -1.63247 3.66656 26 23 14
2.93895 -1.65 3.70241 26 23 14
2.92125 -1.65888 3.67532 68 66 54
2.94953 -1.61617 3.70939 105 103 91
2.90966 -1.59333 3.65773 105 103 91
2.92005 -1.63838 3.66357 101 101 91
2.92964 -1.58066 3.66898 70 67 60
2.92176 -1.55063 3.64745 63 66 59
2.93781 -1.63032 3.66725 53 52 47
2.99464 -1.61239 3.68704 77 74 67
3.01197 -1.65298 3.68871 71 73 62
3.01531 -1.66909 3.68813 67 66 61
3.02969 -1.64465 3.69886 62 65 56
3.02743 -1.63106 3.69614 75 74 69
2.8799 -1.80994 3.51545 100 96 85
3.03532 -1.69297 3.69138 66 66 56
3.03895 -1.5547 3.68417 73 69 60
3.01695 -1.544 3.66056 73 69 60
2.92667 -1.83312 3.51362 104 100 91
3.03233 -1.83002 3.53429 120 116 107
2.98553 -1.85534 3.47143 118 111 101
3.21924 -1.52714 3.71177 25 24 20
3.0911 -1.85758 3.54917 114 110 101
3.22328 -1.70204 3.70512 56 55 50
3.12309 -1.91062 3.58265 118 109 100
3.12309 -1.91062 3.58265 118 109 100
3.27647 -1.3889 3.70502 169 162 152
3.40508 -1.42016 3.74158 161 157 146
3.33392 -1.83677 3.62738 82 81 77
3.37069 -1.28934 3.67139 112 108 99
3.49097 -1.68531 3.79301 139 135 124
3.49097 -1.68531 3.79301 139 135 124
3.39241 -1.35316 3.6852 130 127 118
3.3016 -1.78803 3.58383 79 75 72
3.39186 -1.35581 3.67633 124 120 111
3.36584 -1.86345 3.62175 69 70 65
3.23548 -1.86248 3.48483 76 77 72
3.45177 -1.63074 3.7223 149 142 134
3.5173 -1.6624 3.78783 149 142 134
3.52174 -1.68318 3.79221 129 125 116
3.52174 -1.68318 3.79221 129 125 116
3.38277 -1.36372 3.64837 104 94 84
3.52146 -1.6186 3.78508 134 130 121
3.4619 -1.57896 3.72609 134 135 127
3.4918 -1.64009 3.73092 123 114 105
3.38923 -1.78951 3.6093 69 55 52
3.56762 -1.64594 3.79718 141 132 123
3.45138 -1.31644 3.67689 140 141 135
3.29891 -1.86166 3.49886 69 70 65
3.50856 -1.53556 3.72304 94 96 91
3.5218 -1.69231 3.72898 99 99 91
3.51591 -1.54368 3.72234 112 113 108
3.5956 -1.61931 3.79856 95 98 91
3.5956 -1.61931 3.79856 95 98 91
3.40955 -1.78249 3.60044 100 87 81
3.42689 -1.77957 3.60439 148 141 131
3.42196 -1.86938 3.5951 70 71 66
3.42599 -1.86884 3.59328 70 71 66
3.46688 -1.77707 3.60844 125 126 118
3.60331 -1.63936 3.75522 112 112 104
3.56924 -1.37886 3.70028 108 111 104
3.5122 -1.30654 3.645 126 125 120
3.55479 -1.39687 3.67835 113 115 110
3.50312 -1.38681 3.62392 99 101 96
3.51775 -1.78276 3.62956 103 102 97
3.57868 -1.40848 3.67092 122 123 117
3.57729 -1.78448 3.64646 108 107 102
3.68184 -1.35663 3.72814 99 98 93
3.76418 -1.38478 3.80385 99 98 93
3.78968 -1.69462 3.8238 109 111 106
3.59031 -1.82828 3.62349 93 82 76
3.8136 -1.68392 3.84229 107 106 102
3.60547 -1.83371 3.59371 48 53 49
3.72059 -1.34021 3.71299 118 117 112
3.66094 -1.7657 3.64017 108 108 100
3.6695 -1.82563 3.64409 100 100 92
3.67529 -1.78245 3.63133 108 109 104
3.82964 -1.66682 3.78579 128 129 123
3.79432 -1.53104 3.71876 106 107 101
3.8545 -1.60284 3.77496 97 98 92
3.96011 -1.62695 3.86064 114 117 108
3.8101 -1.54812 3.71916 135 135 125
3.89248 -1.54077 3.78743 102 101 97
3.7562 -1.74878 3.63762 85 85 75
3.99865 -1.48273 3.86009 105 106 100
3.89714 -1.52803 3.76567 112 113 107
3.9086 -1.54389 3.77524 105 106 100
3.86465 -1.41762 3.72959 113 114 106
3.98581 -1.5041 3.83861 123 124 118
3.91557 -1.51199 3.76745 137 138 132
3.94238 -1.61835 3.78588 100 101 95
3.9418 -1.47231 3.76371 104 103 98
3.99718 -1.41145 3.80594 104 106 101
3.96277 -1.54925 3.77572 119 120 114
3.86329 -1.82551 3.64458 108 108 100
3.94385 -1.78858 3.70817 101 101 93
3.94385 -1.78858 3.70817 101 101 93
3.88534 -1.73047 3.64271 80 77 68
3.91355 -1.74072 3.66587 93 93 81
3.94899 -1.73753 3.66832 107 97 85
4.08603 -1.05291 3.77905 123 117 105
4.01597 -1.77361 3.71259 111 103 90
4.02703 -1.56812 3.71831 114 107 97
4.22646 -1.62819 3.90142 115 107 96
4.1046 -1.56688 3.79735 124 115 106
4.2273 -1.5706 3.89633 118 110 99
3.97329 -1.71724 3.67376 110 101 92
4.38345 -0.616944 4.03496 131 122 113
4.05436 -1.76223 3.72966 101 97 85
4.19758 -1.6316 3.85782 105 98 88
4.12327 -1.56453 3.79443 97 87 78
4.38769 -0.630596 4.02839 128 120 109
4.32326 -2.19511 3.9673 86 83 74
4.13235 -1.32533 3.77176 117 111 99
4.40419 -2.22226 4.00845 94 92 80
4.03872 -1.73264 3.67912 108 102 90
4.14421 -1.44305 3.7775 115 109 97
4.27009 -1.48399 3.88312 115 109 97
4.27009 -1.48399 3.88312 115 109 97
4.18295 -1.30017 3.76145 124 116 105
4.17183 0.463371 3.74258 99 99 91
4.52572 -2.21641 4.05082 78 78 68
4.52572 -2.21641 4.05082 78 78 68
3.99076 -1.81199 3.56009 104 100 88
4.26071 -1.36712 3.7977 111 104 94
4.16773 -0.568542 3.69244 100 96 87
4.42701 -1.60197 3.91744 117 113 101
4.12772 -0.613295 3.65227 85 86 81
4.04503 -1.76244 3.58359 100 98 86
4.07145 -1.71146 3.60505 111 107 96
4.31071 -1.66914 3.80403 0 0 0
4.33991 -1.03015 3.80574 0 0 0
4.55361 -2.17321 3.9891 0 0 0
4.2515 -1.37567 3.71716 0 0 0
4.21303 -1.38246 3.68056 0 0 0
4.32818 -0.965724 3.76817 0 0 0
4.56306 -2.17488 3.976 0 0 0
4.25597 -1.45583 3.71039 0 0 0
4.18436 -0.784348 3.6448 0 0 0
4.24472 -1.342 3.69468 0 0 0
4.68854 -2.20219 4.06364 0 0 0
4.68854 -2.20219 4.06364 0 0 0
4.20132 -0.801389 3.63439 0 0 0
4.24118 -0.614032 3.65161 0 0 0
4.2089 -0.66508 3.62115 0 0 0
4.29282 -1.32291 3.6954 0 0 0
3.95165 0.437012 3.39927 0 0 0
4.30006 -1.33753 3.69667 0 0 0
4.64258 -2.17422 3.98059 0 0 0
4.01463 0.42623 3.44227 0 0 0
4.31067 -1.3242 3.69686 0 0 0
4.19691 -0.0909901 3.59278 0 0 0
4.13915 -0.169726 3.54281 0 0 0
4.2271 -0.229517 3.61129 0 0 0
4.34529 -1.30387 3.70947 0 0 0
4.2194 -1.5105 3.60145 0 0 0
4.16859 -0.0301219 3.55064 0 0 0
4.13126 0.150924 3.51355 0 0 0
4.37593 -1.31909 3.71578 0 0 0
4.11998 0.244407 3.49822 0 0 0
4.04819 -1.77104 3.43215 0 0 0
4.09336 -1.77576 3.46544 0 0 0
4.10762 0.351621 3.47897 0 0 0
4.11389 0.334031 3.48289 0 0 0
4.1807 -1.68981 3.52461 0 0 0
4.3085 -1.63606 3.62429 0 0 0
4.32917 -1.23364 3.57615 0 0 0
4.09893 -1.65175 3.35634 0 0 0
4.17449 -1.59926 3.41111 0 0 0
4.28492 -1.57126 3.49931 0 0 0
4.09942 -1.66461 3.34402 0 0 0
4.27771 -1.52497 3.49223 0 0 0
4.05844 -1.70772 3.30873 0 0 0
4.24806 -1.57361 3.45525 0 0 0
4.10237 -1.62978 3.33025 0 0 0
4.14896 -1.2758 3.35987 0 0 0
3.94549 0.576098 3.18086 0 0 0
4.25757 -1.2362 3.41622 0 0 0
4.30928 -1.55421 3.4427 0 0 0
4.69031 -2.05306 3.70675 0 0 0
3.87603 0.0342547 3.04105 0 0 0
3.9299 0.0740592 3.07448 0 0 0
3.87199 0.0636929 3.02346 0 0 0
4.37539 -1.70839 3.41805 0 0 0
3.98625 0.083369 3.1052 0 0 0
4.53609 -1.54278 3.53836 0 0 0
3.86492 0.38795 3.00112 0 0 0
4.79339 -2.05281 3.7175 0 0 0
4.3661 -1.62361 3.37395 0 0 0
3.76942 0.541685 2.91667 0 0 0
3.81432 0.365449 2.95011 0 0 0
3.89291 0.567846 2.98891 0 0 0
3.81277 0.40792 2.93633 0 0 0
4.88036 -2.04987 3.75511 0 0 0
4.61118 -1.53121 3.54159 0 0 0
4.47554 -1.6385 3.42457 0 0 0
4.4597 -1.61402 3.38558 0 0 0
3.98982 0.139309 3.02831 0 0 0
3.98982 0.139309 3.02831 0 0 0
4.14388 -0.0111484 3.14096 0 0 0
4.4385 -1.67608 3.34932 0 0 0
4.4764 -1.68418 3.38098 0 0 0
4.49989 -1.65341 3.39123 0 0 0
4.67057 -1.19454 3.51279 0 0 0
3.50932 -1.34128 2.63777 0 0 0
4.59425 -1.14265 3.45154 0 0 0
4.5133 -1.72077 3.38219 0 0 0
4.45527 -1.68207 3.31926 0 0 0
3.99096 0.525522 2.93323 0 0 0
4.60053 0.16596 3.3607 0 0 0
4.31268 0.131144 3.07977 0 0 0
5.29278 -0.296294 3.7242 0 0 0
4.32377 0.356544 3.015 0 0 0
4.27175 0.51015 2.96848 0 0 0
5.46175 -0.478102 3.78432 0 0 0
5.5287 -0.453819 3.77746 0 0 0
5.50923 -0.797372 3.76997 0 0 0
5.43992 -0.0991333 3.71257 0 0 0
5.43992 -0.0991333 3.71257 0 0 0
5.50396 -0.339454 3.75158 0 0 0
5.50396 -0.339454 3.75158 0 0 0
5.6695 -0.72588 3.85934 0 0 0
5.30637 -0.676929 3.61059 0 0 0
5.59925 -0.628776 3.79346 0 0 0
5.43276 -0.582456 3.68288 0 0 0
5.52096 -0.309677 3.73498 0 0 0
5.30591 -0.362874 3.58772 0 0 0
5.39582 -0.229714 3.64749 0 0 0
5.43827 -0.329641 3.67508 0 0 0
5.46603 -0.403489 3.67625 0 0 0
5.38559 -0.485856 3.62129 0 0 0
5.41609 -0.368208 3.63339 0 0 0
5.44451 -0.417034 3.63722 0 0 0
5.42357 -0.494371 3.61921 0 0 0
5.42954 -0.374463 3.61451 0 0 0
5.43729 -0.327538 3.61984 0 0 0
5.74737 -0.727154 3.82028 0 0 0
5.39927 0.126459 3.58792 0 0 0
5.49373 -0.300434 3.64997 0 0 0
5.30708 0.29002 3.52589 0 0 0
5.48916 -0.477317 3.6472 0 0 0
5.40262 -0.343627 3.58924 0 0 0
5.41509 -0.203988 3.59438 0 0 0
5.30289 0.310015 3.51783 0 0 0
5.36237 0.28332 3.55439 0 0 0
5.40215 -0.0638864 3.57959 0 0 0
5.46095 -0.378287 3.61855 0 0 0
5.37109 -0.0171171 3.55797 0 0 0
5.30268 -0.111292 3.51368 0 0 0
5.36733 0.00279154 3.55057 0 0 0
5.44012 -0.313003 3.59613 0 0 0
5.33731 0.207902 3.52945 0 0 0
5.42383 -0.127973 3.58613 0 0 0
5.3812 -0.286532 3.55246 0 0 0
5.51329 -0.36904 3.63601 0 0 0
5.51329 -0.36904 3.63601 0 0 0
5.4187 -0.496552 3.57396 0 0 0
5.37314 -0.485991 3.5383 0 0 0
5.19776 0.519535 3.42004 0 0 0
5.47306 -0.353743 3.60156 0 0 0
5.47306 -0.353743 3.60156 0 0 0
5.32341 0.278886 3.4995 0 0 0
5.56895 -0.462567 3.66449 0 0 0
5.38698 -0.44743 3.54143 0 0 0
5.50202 -0.29416 3.61495 0 0 0
5.29675 0.253128 3.4751 0 0 0
5.22166 0.307841 3.42549 0 0 0
5.18547 0.316182 3.39833 0 0 0
5.1974 0.340646 3.40596 0 0 0
4.19866 0.263642 2.74743 0 0 0
5.15652 0.329889 3.37439 0 0 0
5.33104 0.234068 3.48715 0 0 0
5.49083 -0.116447 3.59231 0 0 0
5.5269 -0.293717 3.61676 0 0 0
5.11822 0.500616 3.34134 0 0 0
5.60464 -0.296776 3.65612 0 0 0
5.08057 0.472056 3.30819 0 0 0
5.28498 0.302625 3.43677 0 0 0
5.82487 -0.63074 3.78996 0 0 0
5.17602 0.501714 3.35396 0 0 0
5.58827 -0.341213 3.61782 0 0 0
5.6404 -0.523061 3.64928 0 0 0
5.54058 0.0772173 3.57206 0 0 0
5.61709 -0.346623 3.61747 0 0 0
5.44664 0.202215 3.50463 0 0 0
5.68196 -0.50123 3.65142 0 0 0
5.8086 -0.576419 3.72883 0 0 0
5.57621 -0.100991 3.56667 0 0 0
5.58938 -0.512721 3.57409 0 0 0
5.59859 0.00187427 3.57067 0 0 0
5.57991 0.0344047 3.55892 0 0 0
5.48848 0.19925 3.49837 0 0 0
5.53443 0.139353 3.51628 0 0 0
5.30711 0.483692 3.31803 0 0 0
5.44557 0.331964 3.36686 0 0 0
6.20918 0.31008 3.73081 0 0 0
6.19573 0.308786 3.70885 0 0 0
6.0968 0.478625 3.6313 0 0 0
10.8064 -3.49864 6.43384 0 0 0
6.09013 0.443939 3.62631 0 0 0
6.09013 0.443939 3.62631 0 0 0
10.8042 -3.40151 6.40843 0 0 0
10.8571 -3.47189 6.43359 0 0 0
10.7446 -3.44985 6.35477 0 0 0
10.6596 -2.98844 6.265 0 0 0
10.6627 -3.40596 6.26067 0 0 0
10.4129 -3.38744 6.08802 0 0 0
9.12936 -2.98216 5.34618 0 0 0
10.7585 -3.36082 6.27225 0 0 0
9.99201 -2.68247 5.74603 0 0 0
8.78373 -2.3663 5.05788 0 0 0
9.84392 -2.44562 5.63106 0 0 0
9.73323 -2.26599 5.56467 0 0 0
9.9146 -2.66402 5.66356 0 0 0
9.73709 -2.35018 5.55233 0 0 0
9.73709 -2.35018 5.55233 0 0 0
9.96365 -2.50679 5.6586 0 0 0
9.82888 -2.5579 5.5552 0 0 0
6.90869 0.3152 3.8793 0 0 0
9.36669 -1.76905 5.2428 0 0 0
9.32527 -1.76015 5.21055 0 0 0
-0.303607 0.772942 2.65388 100 93 83
4.79161 -15.2854 -55.1813 188 179 172
-0.265293 -0.864592 4.15617 220 226 238
-0.184928 -0.465011 3.27204 88 86 74
-0.127766 0.600751 2.69385 130 130 128
-0.127766 0.600751 2.69385 130 130 128
-0.149424 -0.391313 3.27484 108 112 115
-0.107214 0.536604 2.73858 200 195 192
-0.103841 0.774135 2.66199 118 119 113
-0.0999262 0.76508 2.6593 110 111 105
-0.092343 0.538707 2.7395 205 204 199
-0.0885787 -0.171012 3.16574 125 122 115
-0.0891816 -0.766396 3.25704 220 226 238
-0.152445 -1.27637 5.91246 222 226 238
-0.0786768 -0.163196 3.16199 122 122 112
-0.0656059 0.0625936 3.07519 212 212 210
-0.0487064 0.384138 2.93357 245 246 241
-0.0319728 -0.47643 3.17555 118 120 119
-0.0251994 0.281504 2.97308 220 216 213
-0.0252706 -0.337142 3.17494 87 87 85
-0.00979543 0.288717 2.96907 216 213 208
-0.00979543 0.288717 2.96907 216 213 208
0.0110204 -1.02818 8.95068 24 24 22
0.0167258 0.234441 2.98613 225 216 211
0.124158 -1.07866 9.24207 30 32 29
0.0446244 -0.175354 3.14962 157 152 148
0.0452973 -0.547525 3.18381 112 112 112
0.0453511 -0.426768 3.13073 44 45 39
0.0721939 -0.248889 3.15903 120 124 127
0.0813182 -0.677851 3.18307 218 224 236
0.0731742 0.76086 2.66271 145 143 146
0.0924846 -0.468074 3.15882 122 126 127
0.104492 -0.967356 3.54021 215 221 233
0.10666 -0.246968 3.1526 127 133 133
0.13387 -0.290554 3.16231 12 17 11
0.118338 0.556415 2.69807 213 214 209
0.140081 -0.247961 3.14981 131 133 132
0.152696 -0.340211 3.1475 25 27 24
0.143223 0.474832 2.88294 108 105 96
0.15389 0.545119 2.73254 128 119 112
0.215802 -0.276428 3.34447 130 131 135
243843 -449258 3.6705e+06 44 46 45
2.91776e+06 -4.75094e+06 4.29857e+07 33 34 29
0.22981 -0.0703946 3.06362 15 18 11
0.203539 0.544135 2.73129 178 173 170
0.241957 -0.212443 3.13429 176 176 176
0.241298 0.00453662 3.04847 157 159 158
0.243196 0.00303529 3.03052 160 162 161
0.253672 0.468842 2.8892 210 209 205
0.265323 0.0886279 3.00485 221 221 219
0.236363 0.601201 2.69575 215 214 209
1.13632 2.57182 12.6832 223 224 219
0.304721 -0.14594 3.17197 221 221 219
0.284639 0.479364 2.86246 214 213 208
0.543721 -0.602877 3.37852 206 207 202
1.1198 -1.11179 6.36203 207 208 203
0.592849 -0.629216 3.36205 205 204 199
1.53449 -0.630262 8.55948 142 146 147
0.712534 -0.589896 3.34275 202 198 189
0.736089 -0.624249 3.32644 197 190 180
0.746309 -0.587198 3.34941 201 201 193
1.28699 -1.0452 5.56868 119 119 111
0.793843 -0.619608 3.31179 155 157 156
0.843581 -0.570576 3.32521 118 112 100
0.847144 -0.636594 3.27238 212 211 207
1.4816 -0.872145 5.04928 210 207 200
1.00087 -0.625475 3.2548 210 207 200
1.04224 -0.560063 3.3024 209 209 199
1.47661 -0.841874 4.61841 207 204 197
1.05193 -0.600392 3.28987 207 204 197
1.20962 -0.187362 3.2072 194 194 194
1.22164 -0.18125 3.20571 200 200 198
1.21582 -0.141945 3.16904 218 218 216
1.27581 -0.543277 3.29401 152 151 149
1.87307 -0.299833 4.76654 178 178 178
1.2588 -0.202335 3.20239 178 178 178
1.26817 -0.121769 3.18075 226 226 224
1.32177 -0.374868 3.25913 27 29 24
1.53364 -0.473737 3.69258 40 42 37
1.39343 -0.782261 3.3307 210 209 205
1.35932 -0.605483 3.23251 211 210 206
1.75639 -0.298568 4.16569 147 147 147
1.39272 -0.718717 3.29784 213 212 208
1.37188 -0.605467 3.23306 213 209 206
1.38158 -0.619997 3.23175 208 207 203
1.46775 -0.592832 3.17626 212 211 207
2.28709 -1.8118 3.37653 30 23 15
2.54742 -1.77072 3.56791 27 27 19
2.71971 -1.72905 3.66432 26 25 21
2.74364 -1.75003 3.7025 26 25 21
2.69437 -1.54256 3.61794 63 62 57
2.60754 -1.80273 3.50064 231 223 220
2.72902 -1.73054 3.65993 20 24 23
2.56657 -1.83207 3.41932 35 31 30
2.76507 -1.66414 3.66556 145 140 134
2.75131 -1.63436 3.64685 66 58 55
2.7559 -1.68101 3.65133 87 82 78
2.79029 -1.6938 3.66417 56 59 52
2.61046 -1.85172 3.42353 109 115 115
2.61046 -1.85172 3.42353 109 115 115
2.77675 -1.57904 3.63727 81 78 71
2.83302 -1.606 3.6526 56 63 56
2.89554 -1.6886 3.67344 27 29 26
2.78685 -1.83401 3.5304 90 91 83
2.88207 -1.56279 3.64094 68 68 58
2.89117 -1.60508 3.65206 74 74 64
2.92087 -1.6589 3.6631 87 82 76
2.95885 -1.70872 3.70685 87 84 77
2.8205 -1.83418 3.52636 93 90 83
2.92424 -1.56651 3.65027 62 65 58
2.95592 -1.6499 3.66887 56 56 54
1.99123 -1.02803 2.47149 68 69 63
2.96392 -1.56658 3.65082 58 51 45
2.97368 -1.60496 3.66172 73 70 65
2.9935 -1.68705 3.68055 72 68 57
3.02742 -1.64607 3.71896 73 72 68
2.99878 -1.56229 3.65343 71 72 66
3.00355 -1.58306 3.65897 70 73 64
2.90511 -1.23563 3.53836 203 202 197
3.02517 -1.66349 3.67846 64 65 57
2.93208 -1.85484 3.54477 99 97 85
3.03779 -1.64485 3.67079 91 86 80
3.02999 -1.83538 3.55348 120 113 103
3.02999 -1.83538 3.55348 120 113 103
3.04131 -1.85019 3.55578 122 115 107
3.01787 -1.87784 3.509 118 111 101
3.19595 -1.88327 3.72447 120 111 102
3.22096 -1.66713 3.69506 19 19 11
3.16457 -1.83978 3.6274 120 116 107
3.20242 -1.83469 3.63101 114 110 99
3.25938 -1.37983 3.68066 169 162 152
3.22456 -1.88645 3.629 115 111 102
2.01988 -0.853889 2.2484 165 158 148
3.23221 -1.80144 3.56907 103 98 94
3.30684 -1.82281 3.64499 81 82 76
3.36528 -1.56155 3.69069 160 153 143
3.30914 -1.29434 3.62543 145 137 126
3.30914 -1.29434 3.62543 145 137 126
3.37287 -1.56575 3.6885 159 150 141
3.39323 -1.5217 3.68068 154 149 143
3.29908 -1.38745 3.57639 146 141 135
3.41974 -1.59208 3.6986 148 148 140
3.41974 -1.59208 3.6986 148 148 140
3.40412 -1.37143 3.67347 104 94 84
3.40576 -1.8074 3.63567 47 39 36
3.34793 -1.85225 3.5534 75 77 72
3.34793 -1.85225 3.5534 75 77 72
3.40075 -1.2455 3.60469 140 143 136
3.51691 -1.61021 3.72452 126 122 113
3.50115 -1.6077 3.70565 126 122 113
3.40697 -1.29118 3.60411 114 115 107
3.51547 -1.58769 3.71787 103 104 98
3.40599 -1.78291 3.58671 28 30 25
3.53292 -1.4842 3.72695 114 115 109
3.52317 -1.54803 3.70022 119 116 109
3.52317 -1.54803 3.70022 119 116 109
3.53907 -1.28377 3.69623 122 121 116
3.53907 -1.28377 3.69623 122 121 116
3.46828 -1.87047 3.60693 64 65 60
3.47007 -1.87463 3.61512 64 65 60
3.51871 -1.79007 3.63772 120 119 114
3.46101 -1.83687 3.55839 58 60 57
3.46101 -1.83687 3.55839 58 60 57
3.5439 -1.78871 3.61149 148 149 141
3.5439 -1.78871 3.61149 148 149 141
3.67153 -1.63544 3.72762 107 108 102
3.67153 -1.63544 3.72762 107 108 102
3.64632 -1.57025 3.69907 113 115 110
3.59919 -1.75967 3.61148 102 103 95
3.59865 -1.77638 3.60539 87 88 80
3.72156 -1.33447 3.70562 118 117 112
3.67863 -1.76201 3.63163 96 97 91
3.66766 -1.83581 3.60446 45 49 48
3.80468 -1.4696 3.7142 102 103 97
3.82887 -1.54379 3.71112 124 121 112
3.84803 -1.55742 3.73263 124 121 112
3.85737 -1.59696 3.73958 113 114 108
3.86836 -1.59746 3.74435 121 122 116
3.8792 -1.48031 3.71933 110 107 100
3.91109 -1.60918 3.74682 105 108 101
3.89432 -1.49826 3.72765 113 115 110
3.89196 -1.47403 3.72399 132 129 122
3.89336 -1.55025 3.7155 129 130 124
4.01888 -1.2625 3.73934 115 105 95
4.04706 -1.5434 3.75108 119 109 99
3.9718 0.0432493 3.6814 133 109 85
3.98171 -1.19622 3.67803 128 122 110
4.05174 -1.52632 3.74239 118 109 100
4.06936 -1.53232 3.75118 119 111 100
3.99623 -1.07356 3.68697 128 122 110
4.05904 -1.47068 3.7383 107 100 90
4.05904 -1.47068 3.7383 107 100 90
4.07273 -1.28155 3.71529 108 99 90
3.99954 -0.619277 3.53534 101 94 86
4.05425 -0.621851 3.5592 0 0 0
4.17817 -0.948915 3.65979 0 0 0
4.06918 -1.78395 3.53667 0 0 0
4.15845 -0.514649 3.57489 0 0 0
4.26901 -1.31269 3.67019 0 0 0
4.1264 -0.365121 3.53587 0 0 0
4.29892 -1.56622 3.49127 0 0 0
4.2959 -1.54359 3.48576 0 0 0
4.32834 -1.51754 3.48925 0 0 0
4.33591 -1.54838 3.49442 0 0 0
4.43179 -1.2116 3.48172 0 0 0
4.39465 -1.73102 3.40504 0 0 0
4.38337 -1.70917 3.39225 0 0 0
4.41885 -1.68969 3.41511 0 0 0
4.67249 -1.63278 3.57574 0 0 0
4.60211 -1.52101 3.52092 0 0 0
4.44461 -1.70067 3.39574 0 0 0
4.44461 -1.70067 3.39574 0 0 0
4.66371 -1.49423 3.52042 0 0 0
4.55557 -1.62517 3.42795 0 0 0
4.56014 -1.63251 3.43276 0 0 0
4.70504 -1.50935 3.52919 0 0 0
4.60024 -1.61486 3.42583 0 0 0
4.63263 -0.475589 3.39974 0 0 0
5.03073 -0.485626 3.65558 0 0 0
5.02535 -0.49715 3.64645 0 0 0
5.00732 -0.248891 3.6179 0 0 0
3.98423 -0.383009 2.87209 0 0 0
5.27731 -0.25654 3.77187 0 0 0
5.10494 -0.554082 3.64345 0 0 0
5.10252 -0.489177 3.59027 0 0 0
5.33879 -0.203237 3.75637 0 0 0
5.20394 -0.514668 3.65523 0 0 0
8.28835e+06 -501007 7.43117e+06 0 0 0
5.16233 -0.474179 3.60463 0 0 0
5.20246 -0.281182 3.63277 0 0 0
5.35083 -0.0875028 3.73325 0 0 0
5.32815 0.0323252 3.69974 0 0 0
1.18481e+06 44945.4 1.05013e+06 0 0 0
5.33814 -0.479372 3.68272 0 0 0
5.22599 -0.475353 3.59505 0 0 0
3.80133 -0.290594 2.60769 0 0 0
5.32832 -0.40615 3.65226 0 0 0
3.82989 -0.398173 2.62044 0 0 0
5.36322 -0.556401 3.66962 0 0 0
5.43978 -0.710627 3.71909 0 0 0
5.37536 -0.499446 3.67254 0 0 0
5.38283 -0.443308 3.67259 0 0 0
5.31511 -0.25507 3.62162 0 0 0
5.36478 -0.356332 3.6538 0 0 0
5.25486 0.142641 3.55391 0 0 0
5.36955 -0.204746 3.62957 0 0 0
5.18729 0.366056 3.49659 0 0 0
5.32798 0.010602 3.58401 0 0 0
5.39964 -0.205211 3.63196 0 0 0
5.41616 -0.248447 3.63472 0 0 0
5.3302 -0.228156 3.56267 0 0 0
5.39781 -0.127795 3.61032 0 0 0
5.43538 -0.456223 3.63155 0 0 0
5.28703 0.286069 3.53061 0 0 0
5.26986 0.33648 3.51697 0 0 0
5.40634 -0.543815 3.60738 0 0 0
5.29311 0.310511 3.5265 0 0 0
5.45577 -0.448523 3.63173 0 0 0
5.45752 -0.456915 3.63284 0 0 0
5.29528 0.318505 3.52221 0 0 0
5.40552 -0.253943 3.59387 0 0 0
5.55716 -0.700447 3.69406 0 0 0
5.45951 -0.526554 3.62816 0 0 0
5.43484 -0.36244 3.61042 0 0 0
5.34958 -0.482202 3.54508 0 0 0
5.35088 -0.121919 3.5483 0 0 0
5.31626 0.290581 3.52431 0 0 0
5.35245 0.143378 3.54671 0 0 0
5.45927 -0.398314 3.61697 0 0 0
5.46302 -0.340119 3.61919 0 0 0
5.37256 -0.0405776 3.55918 0 0 0
5.454 -0.369159 3.60591 0 0 0
5.32899 0.262111 3.52 0 0 0
5.39309 -0.0244573 3.55404 0 0 0
5.43775 -0.118118 3.57707 0 0 0
5.47055 -0.240182 3.59521 0 0 0
5.3048 0.294336 3.48516 0 0 0
5.47981 -0.394082 3.59923 0 0 0
5.39651 0.0594883 3.54091 0 0 0
5.51571 -0.4048 3.60656 0 0 0
5.52223 -0.433942 3.60863 0 0 0
1.07895e+08 -1.22533e+07 9.01982e+07 0 0 0
5.36513 0.273617 3.5025 0 0 0
5.52742 -0.393627 3.60659 0 0 0
5.42382 0.00510554 3.53898 0 0 0
6.85077e+06 -774778 5.70478e+06 0 0 0
5.23037 0.420562 3.40733 0 0 0
5.21761 0.489403 3.39244 0 0 0
5.69999 -0.643096 3.69666 0 0 0
5.67245 -0.606002 3.67683 0 0 0
5.55712 -0.241175 3.59579 0 0 0
5.46727 -0.298075 3.52794 0 0 0
5.51606 -0.0686691 3.56626 0 0 0
5.64649 -0.489974 3.63846 0 0 0
5.62399 -0.256429 3.618 0 0 0
5.61919 -0.200395 3.61064 0 0 0
5.34581 0.343969 3.43387 0 0 0
5.34581 0.343969 3.43387 0 0 0
4.30545 -0.186693 2.76323 0 0 0
5.49786 -0.24747 3.51874 0 0 0
5.67655 -0.509034 3.63994 0 0 0
5.50132 -0.36377 3.51316 0 0 0
5.56499 -0.0782473 3.55897 0 0 0
5.60546 -0.122973 3.58798 0 0 0
5.68048 -0.530692 3.62474 0 0 0
5.68048 -0.530692 3.62474 0 0 0
5.55863 0.146313 3.5465 0 0 0
5.57943 0.0325927 3.55832 0 0 0
5.58398 0.0646394 3.53331 0 0 0
5.44659 0.339305 3.44582 0 0 0
5.54281 0.373554 3.43773 0 0 0
-0.210569 0.723048 2.60261 128 128 126
-0.18512 0.552632 2.66229 42 37 34
-0.12288 0.599612 2.63093 215 214 209
-0.114277 0.714613 2.61659 151 151 151
-0.0291836 0.0617356 2.90481 200 199 195
0.0844655 -0.720823 3.36964 213 220 228
-0.00919755 -0.599602 2.8135 220 227 235
0.0443938 -0.339541 2.94977 179 180 175
0.0585704 -0.522925 2.95688 220 227 235
0.243319 0.548447 2.67712 45 47 42
0.341932 -0.631296 2.96267 217 214 209
0.594645 -0.558654 3.19861 205 201 192
4.2855 -1.15078 13.3683 21 23 18
0.757939 -0.570451 3.05278 212 209 200
0.852641 -0.614263 3.15932 145 135 126
1.14534 -0.615791 3.5849 217 214 207
1.2943 -0.389735 3.21837 209 206 199
1.34021 -0.40751 3.21333 210 209 204
1.41732 0.320808 2.5647 10 15 9
1.45593 0.055202 2.59986 164 164 156
1.41521 0.639419 2.51634 10 12 9
1.49907 0.121767 2.5988 189 186 179
2.11032 -1.996 3.31155 71 54 46
1.94238 0.414364 2.66222 30 31 26
2.94387 -1.72503 3.71539 113 106 96
2.96974 -1.53418 3.69111 23 24 19
2.44617 -2.00444 3.31551 109 105 94
2.20676 -1.77991 2.9513 112 108 96
2.7973 -1.88322 3.46549 72 62 53
3.19029 -1.86154 3.63928 81 80 75
1.80063 -0.899052 2.31575 148 142 128
3.31801 -1.40692 3.70645 169 163 149
3.34734 -1.35075 3.66568 138 134 125
4.11216 -1.70923 3.60967 105 101 90
4.05496 -1.77746 3.56974 113 109 100
4.19332 -1.61941 3.42717 110 106 94
5.40386 -0.562183 3.70528 0 0 0
5.40525 0.0145191 3.61719 0 0 0
5.3692 -0.513524 3.52461 0 0 0
2.95951 -1.66367 3.71318 101 101 91
2.93387 -1.89524 3.61145 102 93 84
3.04471 -1.86711 3.64385 107 103 94
2.33416 -1.48571 2.76388 106 101 95
3.148 -1.89395 3.62212 122 118 107
3.26989 -1.85039 3.63148 113 109 98
3.29497 -1.87846 3.61835 86 85 80
3.33207 -1.8398 3.62915 82 81 77
2.45396 -1.30959 2.63361 44 46 43
3.69404 -1.62024 3.72165 107 106 102
3.61162 -1.84534 3.60031 48 53 49
2.73496 -1.24656 2.60569 91 91 83
3.94537 -1.62434 3.70867 102 95 85
2.66182 -0.987939 2.45358 118 110 99
5.16109 -0.492682 3.72053 0 0 0
3.78842 -0.354855 2.60959 0 0 0
5.35786 -0.665135 3.58268 0 0 0
-774329 1.40645e+06 -1.25713e+07 209 206 199
0.235939 -0.337559 3.06184 208 205 196
1.91021e+06 -4.14723e+06 2.84363e+07 217 214 207
-0.086988 -0.384441 2.83914 72 67 61
-0.0773183 -0.558749 2.84785 73 71 59
0.275514 -0.556341 3.03707 214 216 215
0.732619 -0.566862 3.29733 184 182 183
0.769496 -0.637848 3.64779 186 184 185
2.0019 -1.93843 3.56205 17 23 11
2.07038 -1.84821 3.40793 38 34 23
2.29786 -1.65055 3.38175 71 71 63
2.32353 -1.98531 3.34861 46 42 31
2.83757 -1.61828 3.54184 87 80 72
2.93223 -1.70031 3.71454 87 80 72
2.96845 -1.95203 3.60756 17 19 16
3.04358 -1.65179 3.73506 66 69 60
3.03511 -1.95335 3.63256 86 92 82
3.11113 -1.53579 3.72486 205 206 200
3.13995 -1.85267 3.63855 72 73 65
3.14147 -1.8891 3.6377 64 59 55
3.2474 -1.6257 3.72917 115 102 94
3.24015 -1.62268 3.71784 115 102 94
3.26615 -1.90841 3.6115 25 28 21
3.26615 -1.90841 3.6115 25 28 21
3.40075 -1.49342 3.72971 211 210 206
3.37921 -1.81678 3.64379 162 158 146
3.45725 -1.31376 3.69143 21 22 17
3.48332 -1.516 3.71912 188 182 170
3.42338 -1.88585 3.61425 136 132 123
3.60968 -2.13149 3.74059 79 80 75
3.53789 -1.86737 3.61504 114 111 104
3.53789 -1.86737 3.61504 114 111 104
3.62371 -2.1332 3.72394 79 80 75
3.55915 -1.7833 3.63814 125 126 120
3.66194 -2.11468 3.72863 85 74 70
3.59815 -1.77637 3.63763 111 112 106
3.50393 -1.5421 3.4674 142 142 132
3.63024 -1.77136 3.63633 108 109 103
3.75137 -2.07914 3.72847 122 123 117
3.68 -1.7853 3.63958 116 117 111
3.77945 -2.06906 3.7264 98 99 93
3.8036 -2.09223 3.71516 88 90 79
3.79153 -1.54607 3.71345 135 130 124
3.74444 -1.75385 3.64158 110 111 105
3.82519 -1.49547 3.70652 115 103 91
3.84683 -2.08595 3.71391 99 99 91
3.83318 -1.55051 3.70944 141 142 136
3.81922 -1.73919 3.6402 125 121 110
4.03034 -1.48084 3.70421 132 124 113
4.19098 -1.78133 3.41462 0 0 0
4.47567 -1.93306 3.53885 0 0 0
4.47858 -1.94766 3.5356 0 0 0
4.47858 -1.94766 3.5356 0 0 0
4.37763 -1.676 3.43044 0 0 0
4.49513 -1.92646 3.5381 0 0 0
4.55309 -1.92139 3.53028 0 0 0
4.45415 -1.6715 3.42445 0 0 0
4.57628 -1.91922 3.52731 0 0 0
4.49844 -1.66038 3.42109 0 0 0
4.59201 -1.52286 3.49069 0 0 0
4.5714 -1.6441 3.41924 0 0 0
4.56912 -1.69418 3.40066 0 0 0
4.56912 -1.69418 3.40066 0 0 0
4.60895 -1.68458 3.4031 0 0 0
4.93998 -0.496195 3.61363 0 0 0
4.98027 -0.483474 3.61368 0 0 0
4.98527 -0.484482 3.6184 0 0 0
4.98256 -0.52857 3.59491 0 0 0
5.07756 -0.527931 3.57888 0 0 0
5.22901 -0.483804 3.57946 0 0 0
5.28136 -0.427514 3.57495 0 0 0
5.39713 -0.419206 3.50876 0 0 0
5.4446 -0.318139 3.52338 0 0 0
5.45287 -0.32663 3.5039 0 0 0
5.06703 -0.435752 3.57693 0 0 0
5.12743 -0.473121 3.58001 0 0 0
3.39182 -1.33276 3.68617 124 120 109
1.1239 0.456206 3.99872 0 0 0
3.50181 -0.673981 3.85318 134 134 126
3.4945 -0.608447 3.85662 129 126 117
3.49344 -0.588534 3.8564 124 124 116
3.49103 -0.605988 3.88673 89 86 77
3.48802 -0.619462 3.92046 108 108 98
3.48421 -0.928614 4.08344 127 97 71
3.46562 -1.14097 4.19635 87 84 75
3.47058 -1.13336 4.1996 89 86 79
3.52258 -1.1961 4.26826 87 84 79
3.52906 -1.1439 4.27292 81 81 73
3.52585 -1.20061 4.27045 74 75 69
3.53062 -1.15038 4.277 86 83 76
3.53062 -1.15038 4.277 86 83 76
