ply
format ascii 1.0 
element vertex 975
property float32 x 
property float32 y 
property float32 z
property uchar red  
property uchar green
property uchar blue
element face 0
property list uchar int vertex_indices
end_header
-0.166905 0.226467 2.99067 200 200 190
-0.145804 0.209498 3.00039 105 100 94
-0.128955 0.0516259 3.03759 197 198 192
-0.122117 0.0151044 3.02886 87 88 74
-0.109007 0.0993345 3.00827 180 177 170
-0.107628 0.0294812 3.01016 110 106 95
-0.0874753 0.171811 3.03894 188 179 172
-0.0648257 -0.0229855 3.0688 140 142 139
-0.0128449 -0.824817 3.1999 108 109 104
-0.0235016 0.152439 3.02844 129 128 126
-0.00703081 -0.926578 3.11879 223 227 239
-0.0059308 0.0921675 3.02949 114 114 104
0.00049968 0.20476 3.03261 99 98 94
0.0064997 -0.0704946 3.1324 213 209 206
0.0133665 0.196944 3.03478 110 111 105
0.0279873 -0.904379 3.15067 108 113 109
0.0321249 -0.836131 3.15211 120 122 121
0.0319229 -1.01126 3.07124 220 226 238
0.0343986 -0.553502 3.15277 119 121 107
0.0343986 -0.553502 3.15277 119 121 107
0.0398506 -0.928268 3.13425 218 228 238
0.0400416 -0.768343 3.12864 17 20 13
0.0580687 -0.075695 3.1826 216 216 216
0.0587585 -0.160972 3.16007 245 246 241
0.0614862 0.0178387 3.06011 50 46 43
0.0614862 0.0178387 3.06011 50 46 43
0.0654196 0.202239 3.05842 130 129 125
2.65799 -3.04255 13.2258 58 60 55
0.0767329 0.0716331 3.04824 210 210 208
0.099018 -0.763165 3.19861 33 33 31
0.0837665 -0.775662 3.11507 47 49 44
0.0866885 0.00782143 3.06927 30 30 28
2.7679 -2.98602 12.4517 32 32 30
0.0933655 0.0152494 3.06491 30 35 28
0.0977026 -0.775918 3.12122 43 43 41
0.122562 -0.479912 3.21631 107 103 92
0.128454 -0.63829 3.24702 187 190 183
0.1253 -0.229987 3.20882 214 214 206
0.116166 -0.885682 3.11494 109 113 112
0.119849 -0.0868386 3.18492 216 215 211
0.138091 -0.98558 3.17272 219 225 237
0.146557 -0.892136 3.19011 112 112 112
0.134517 0.00399885 3.07775 32 39 31
0.134517 0.00399885 3.07775 32 39 31
0.139419 -0.863405 3.12038 145 147 146
2.81726 -3.18663 12.2717 145 147 146
0.144288 -0.736693 3.15116 29 29 27
0.144288 -0.736693 3.15116 29 29 27
2.88354 -3.04227 11.988 132 136 137
0.144934 -0.833874 3.12346 132 136 137
0.162152 -0.872488 3.18799 141 143 142
0.162904 0.00113163 3.08501 48 50 47
0.205591 -0.920085 3.86528 11 12 7
0.168223 -0.69382 3.0191 9 11 6
0.168223 -0.69382 3.0191 9 11 6
0.177589 -0.855185 3.12908 144 145 147
0.198452 -0.233241 3.22058 225 229 214
1.48521 -5.74575 21.8135 148 150 149
0.189828 0.186004 3.06767 152 153 155
0.193812 0.0106548 3.07452 213 214 209
0.21366 -0.754535 3.2127 25 25 25
0.20169 -0.966819 3.11208 219 225 237
0.207363 -0.611461 3.18136 210 210 208
1.47599 -5.31313 22.2317 29 29 27
0.217621 -0.765939 3.31545 25 27 24
0.217519 -0.0851043 3.18087 211 206 202
0.219818 0.146991 3.07529 164 165 167
0.243191 -0.803797 3.19156 44 46 43
0.236867 -0.407372 3.18775 220 220 218
0.239842 0.166949 3.07843 178 180 179
0.248175 -0.752983 3.16865 34 34 34
0.250572 -0.73298 3.16923 22 25 18
0.244712 0.0116171 3.08329 113 111 99
0.248919 0.00499026 3.07939 131 131 123
0.25927 -0.77708 3.15171 44 44 42
0.272584 -0.665387 3.19116 130 134 133
0.288368 -0.982586 3.18451 216 224 235
0.427085 -0.731602 4.88797 157 159 158
0.275713 -0.908724 3.14007 104 106 105
0.288905 -0.482186 3.22614 160 162 161
0.284246 -0.000847372 3.08712 213 214 209
0.307752 -0.970326 3.19799 217 223 235
0.314012 0.0026595 3.09186 124 124 122
0.325097 -0.0635879 3.17932 204 205 199
0.322393 -0.0629698 3.16962 204 205 199
0.32616 -0.150231 3.20648 219 218 214
0.328432 -0.108673 3.2209 162 162 154
0.329564 -0.289585 3.20703 219 220 215
0.331437 -0.182001 3.20615 220 221 216
0.333142 -0.191308 3.20824 224 225 220
0.340317 -0.623104 3.20173 199 199 199
0.340881 -0.821924 3.20193 98 106 109
0.340881 -0.821924 3.20193 98 106 109
0.344336 -0.924268 3.20308 163 163 163
0.333926 0.0380211 3.09277 213 208 204
0.346875 -0.00936151 3.11893 211 212 206
0.37909 -0.00434815 3.09745 210 211 205
0.466531 -0.814603 3.35369 48 47 43
0.462508 -0.257415 3.33155 205 204 202
0.464577 -0.258668 3.3315 208 207 205
0.497196 -0.95381 3.35861 206 207 202
0.510279 -0.944607 3.36039 204 205 200
0.656296 -0.945553 3.36518 206 203 196
0.669391 -0.968032 3.35949 131 123 112
0.661245 -0.932678 3.33404 209 208 204
0.813333 -0.945668 3.37828 210 207 200
0.859879 -0.957572 3.37347 211 211 203
0.86227 -0.734628 3.36505 20 22 17
0.887037 -0.952822 3.36376 208 209 203
0.915175 -0.943588 3.38371 200 197 190
0.915175 -0.943588 3.38371 200 197 190
0.90829 -0.962909 3.36035 209 208 203
0.907261 -0.979245 3.335 205 202 195
0.938224 -0.942899 3.4204 204 201 196
0.971182 -0.806862 3.42225 28 30 27
1.0449 -1.125 3.41511 208 209 204
1.03995 -0.676986 3.39115 165 165 165
1.04696 -0.955489 3.3932 209 208 204
1.0497 -0.299342 3.39736 221 222 224
1.05464 -0.150645 3.41019 27 27 19
1.05128 -1.15611 3.37844 207 204 197
1.05907 -0.813516 3.39582 58 60 59
1.11264 -1.89045 3.56569 13 16 7
1.06594 -0.665002 3.40103 185 185 185
1.06766 -0.97746 3.35373 211 210 205
1.08777 -0.819649 3.39677 40 42 39
1.09364 -0.931583 3.4044 199 201 198
1.07921 -0.982787 3.35305 212 211 206
1.10706 -0.817436 3.41517 34 34 34
1.10175 -0.826632 3.39778 40 42 39
1.10733 -0.941721 3.40235 207 208 203
1.11031 -0.910463 3.40312 149 151 148
1.10836 -0.953119 3.39159 211 210 206
1.11136 -0.778876 3.39068 22 24 19
1.12069 -0.693209 3.39297 147 147 147
1.1312 -0.939849 3.40089 207 208 203
1.13552 -1.08647 3.409 212 213 208
1.13551 -1.0863 3.38851 214 213 208
1.14565 -0.696562 3.40702 145 145 145
1.14565 -0.696562 3.40702 145 145 145
1.13175 -0.977595 3.36463 212 211 207
1.14727 -0.181429 3.40815 18 19 11
1.14524 -1.04605 3.37975 207 212 208
1.1501 -1.05464 3.37617 219 218 213
1.15848 -0.684928 3.39937 153 153 153
1.13093 -1.61757 3.31379 123 124 119
1.13823 -1.6162 3.33221 91 90 86
1.14783 -1.00523 3.35157 202 199 194
1.17259 -0.166716 3.42046 13 18 12
1.15297 -1.62963 3.32094 20 20 18
1.18528 -1.61225 3.0269 1 13 9
0.978161 -0.361847 2.49697 174 176 171
1.26714 -0.468025 3.23223 174 176 171
1.1978 -1.60115 3.04873 63 78 75
1.19867 -1.60299 3.03914 152 140 140
1.19047 -0.324453 2.9819 99 102 93
1.1946 -0.182524 2.97911 11 16 9
1.18446 -0.108305 2.95903 38 38 26
1.19766 -0.0355925 2.97137 37 37 25
1.20362 -0.060712 2.97765 38 38 26
1.20173 0.0890035 2.9701 13 16 7
1.20183 0.115421 2.96868 17 20 13
1.2082 0.112186 2.97043 14 17 10
1.21755 -0.0478568 2.96551 31 32 18
1.27776 -0.453376 3.06911 178 177 172
1.26308 -0.352239 2.9958 226 228 225
1.26308 -0.352239 2.9958 226 228 225
1.26999 -0.045625 2.99105 37 38 24
1.29284 0.038545 2.99064 50 50 38
1.2845 0.0408717 2.97716 50 50 38
1.30637 -0.400423 2.98867 188 190 187
1.32396 -0.335363 3.0075 231 232 227
1.37825 -0.11675 3.01829 19 22 13
1.37825 -0.11675 3.01829 19 22 13
1.4017 -0.291309 3.02317 220 221 216
1.43538 -1.50911 3.09545 17 17 7
1.45806 -1.72119 3.13135 21 22 16
1.44199 -1.51078 3.08054 59 58 53
1.4404 -0.352453 3.01732 227 228 222
1.49702 -1.67794 3.12883 58 60 49
1.46493 -0.303096 3.04068 219 220 215
1.45707 0.105399 3.01838 13 16 9
1.4841 -1.48993 3.06797 164 160 149
1.51732 -1.69625 3.13307 52 48 37
1.46058 -0.349868 3.02032 209 208 203
1.49773 -0.296779 3.04375 220 219 214
1.49773 -0.296779 3.04375 220 219 214
1.58642 -1.74437 3.15827 44 46 35
1.5553 -0.28322 3.06574 192 196 199
1.58548 -0.464646 3.11115 162 159 150
1.58548 -0.464646 3.11115 162 159 150
1.61455 -1.70446 3.15811 50 46 37
1.56356 -0.0409597 3.04892 18 19 13
1.56356 -0.0409597 3.04892 18 19 13
1.63291 -1.73591 3.16442 62 55 45
1.63273 -1.67519 3.16024 41 35 23
1.59134 -0.300318 3.06759 152 153 147
1.64654 -1.70442 3.16684 70 66 54
1.64548 -1.66002 3.16254 63 57 43
1.66364 -0.223658 3.08123 128 129 131
1.66487 -0.292651 3.08096 171 172 167
1.67215 -0.16255 3.07869 109 117 120
1.66602 -0.287364 3.07011 160 161 156
1.71323 -1.59404 3.1541 25 26 20
1.69386 -0.313612 3.08854 156 157 151
1.69386 -0.313612 3.08854 156 157 151
1.69783 -0.318909 3.08374 42 35 29
1.88885 -1.82679 3.39747 72 49 41
1.92561 -1.83923 3.34716 126 131 135
1.94047 -1.85214 3.36834 126 131 135
2.04895 -1.85363 3.43818 88 88 80
2.116 -1.7209 3.55498 26 23 14
2.10863 -1.7145 3.54215 26 23 14
2.12422 -1.7421 3.56424 68 66 54
2.11283 -1.6895 3.54296 105 103 91
2.11934 -1.69488 3.5543 105 103 91
2.12221 -1.72499 3.55254 101 101 91
2.13555 -1.68874 3.56775 70 67 60
2.13266 -1.66626 3.55289 63 66 59
2.13438 -1.71944 3.55572 53 52 47
2.17459 -1.70948 3.57477 77 74 67
2.18021 -1.73418 3.56665 71 73 62
2.18154 -1.74505 3.56459 67 66 61
2.19422 -1.73083 3.57828 62 65 56
2.19408 -1.72173 3.57808 75 74 69
2.1129 -1.84795 3.44499 100 96 85
2.19294 -1.76086 3.56371 66 66 56
2.20866 -1.66978 3.57792 73 69 60
2.19703 -1.66162 3.56214 73 69 60
2.14363 -1.86317 3.44036 104 100 91
2.2122 -1.85917 3.45195 120 116 107
2.18939 -1.87844 3.40856 118 111 101
2.32752 -1.64912 3.59497 25 24 20
2.24587 -1.87542 3.45536 114 110 101
2.31936 -1.76669 3.57175 56 55 50
2.23922 -1.89295 3.43979 118 109 100
2.23922 -1.89295 3.43979 118 109 100
2.38182 -1.55671 3.61033 169 162 152
2.45539 -1.57506 3.62258 161 157 146
2.38247 -1.84571 3.48482 82 81 77
2.45588 -1.48461 3.58918 112 108 99
2.48354 -1.75224 3.62485 139 135 124
2.48354 -1.75224 3.62485 139 135 124
2.46286 -1.52927 3.59414 130 127 118
2.39068 -1.82764 3.48563 79 75 72
2.4654 -1.53217 3.58999 124 120 111
2.39414 -1.85784 3.46672 69 70 65
2.357 -1.87973 3.41143 76 77 72
2.47207 -1.7141 3.5809 149 142 134
2.50396 -1.7369 3.62381 149 142 134
2.50453 -1.75066 3.62425 129 125 116
2.50453 -1.75066 3.62425 129 125 116
2.46279 -1.53476 3.5655 104 94 84
2.51053 -1.70766 3.62674 134 130 121
2.47889 -1.67839 3.58377 134 135 127
2.4993 -1.72026 3.58439 123 114 105
2.44302 -1.82593 3.49798 69 55 52
2.53693 -1.72538 3.63061 141 132 123
2.49299 -1.49562 3.56797 140 141 135
2.39762 -1.87807 3.41958 69 70 65
2.52695 -1.6557 3.60446 94 96 91
2.51586 -1.75793 3.58151 99 99 91
2.52065 -1.65585 3.58703 112 113 108
2.55739 -1.70739 3.63397 95 98 91
2.55739 -1.70739 3.63397 95 98 91
2.46257 -1.82339 3.49692 100 87 81
2.47401 -1.82132 3.49981 148 141 131
2.44764 -1.86614 3.4571 70 71 66
2.44526 -1.86367 3.45409 70 71 66
2.50106 -1.81951 3.50269 125 126 118
2.56887 -1.71859 3.59929 112 112 104
2.57873 -1.5459 3.59893 108 111 104
2.5671 -1.50146 3.58441 126 125 120
2.57187 -1.55812 3.5829 113 115 110
2.55799 -1.55639 3.56086 99 101 96
2.52633 -1.8197 3.5096 103 102 97
2.58895 -1.56594 3.57672 122 123 117
2.56293 -1.81996 3.51935 108 107 102
2.66256 -1.53547 3.63088 99 98 93
2.68842 -1.54916 3.66136 99 98 93
2.6757 -1.75556 3.63861 109 111 106
2.57606 -1.84897 3.50233 93 82 76
2.6885 -1.74801 3.65088 107 106 102
2.58895 -1.85382 3.47956 48 53 49
2.68853 -1.51992 3.61114 118 117 112
2.62605 -1.8082 3.51958 108 108 100
2.62232 -1.84669 3.51202 100 100 92
2.63995 -1.82105 3.51708 108 109 104
2.72244 -1.74216 3.6283 128 129 123
2.72943 -1.65642 3.60922 106 107 101
2.74829 -1.70027 3.63003 97 98 92
2.78688 -1.70927 3.66696 114 117 108
2.74001 -1.67047 3.60987 135 135 125
2.77053 -1.65224 3.6341 102 101 97
2.7011 -1.80097 3.52978 85 85 75
2.82546 -1.61363 3.6829 105 106 100
2.78716 -1.65082 3.63398 112 113 107
2.7912 -1.6612 3.63784 105 106 100
2.78404 -1.57723 3.6255 113 114 106
2.81995 -1.62802 3.66739 123 124 118
2.80102 -1.64011 3.63715 137 138 132
2.80463 -1.71043 3.63514 100 101 95
2.82431 -1.6139 3.6405 104 103 98
2.84351 -1.56619 3.65786 104 106 101
2.82802 -1.66493 3.63787 119 120 114
2.75273 -1.84496 3.50963 108 108 100
2.79909 -1.81828 3.55671 101 101 93
2.79909 -1.81828 3.55671 101 101 93
2.7935 -1.7927 3.53952 80 77 68
2.80052 -1.79397 3.54449 93 93 81
2.82466 -1.79178 3.54644 107 97 85
2.94562 -1.32309 3.68492 123 117 105
2.84608 -1.80689 3.55832 111 103 90
2.89818 -1.68941 3.62281 114 107 97
2.95452 -1.70815 3.68915 115 107 96
2.91874 -1.67655 3.64972 124 115 106
2.96181 -1.67046 3.69292 118 110 99
2.85842 -1.78454 3.56612 110 101 92
3.12943 -1.03299 3.89697 131 122 113
2.86756 -1.7999 3.56866 101 97 85
2.9733 -1.72286 3.694 105 98 88
2.93259 -1.67511 3.64838 97 87 78
3.13294 -1.04214 3.89159 128 120 109
2.97839 -2.08474 3.69445 86 83 74
2.96426 -1.5108 3.65694 117 111 99
2.99123 -2.08517 3.68433 94 92 80
2.88452 -1.78836 3.55418 108 102 90
2.9641 -1.59458 3.65383 115 109 97
3.00203 -1.61332 3.69496 115 109 97
3.00203 -1.61332 3.69496 115 109 97
3.01065 -1.49879 3.66306 124 116 105
3.18622 -0.225208 3.8706 99 99 91
3.05946 -2.07853 3.70835 78 78 68
3.05946 -2.07853 3.70835 78 78 68
2.85965 -1.83701 3.45521 104 100 88
3.04249 -1.53879 3.66856 111 104 94
3.07844 -0.982264 3.6951 100 96 87
3.08674 -1.69008 3.70077 117 113 101
3.05597 -1.01203 3.66358 85 86 81
2.91919 -1.8157 3.50026 100 98 86
2.92724 -1.77611 3.50972 111 107 96
3.05504 -1.7458 3.65055 0 0 0
3.11714 -1.30815 3.70485 0 0 0
3.12915 -2.07052 3.71179 0 0 0
3.06168 -1.55013 3.62596 0 0 0
3.03703 -1.54915 3.59215 0 0 0
3.12662 -1.26325 3.69037 0 0 0
3.13596 -2.07062 3.70094 0 0 0
3.05142 -1.59842 3.602 0 0 0
3.09759 -1.13889 3.65435 0 0 0
3.06627 -1.52728 3.61581 0 0 0
3.16164 -2.06769 3.71534 0 0 0
3.16164 -2.06769 3.71534 0 0 0
3.10917 -1.15017 3.64341 0 0 0
3.13819 -1.0129 3.66453 0 0 0
3.14638 -1.0576 3.66909 0 0 0
3.10203 -1.51449 3.61917 0 0 0
3.15524 -0.208989 3.6763 0 0 0
3.10503 -1.52437 3.61798 0 0 0
3.15544 -2.05395 3.66969 0 0 0
3.16004 -0.215547 3.675 0 0 0
3.11402 -1.51541 3.62005 0 0 0
3.18653 -0.628392 3.70025 0 0 0
3.17318 -0.689992 3.68198 0 0 0
3.18626 -0.732385 3.69276 0 0 0
3.14525 -1.50258 3.64029 0 0 0
3.05266 -1.64125 3.53277 0 0 0
3.18613 -0.579052 3.6819 0 0 0
3.19245 -0.438186 3.68375 0 0 0
3.13469 -1.50321 3.61197 0 0 0
3.20062 -0.364736 3.68731 0 0 0
2.946 -1.8187 3.38797 0 0 0
2.93384 -1.79887 3.37223 0 0 0
3.21112 -0.27935 3.69041 0 0 0
3.21246 -0.293537 3.69053 0 0 0
3.00367 -1.74835 3.43729 0 0 0
3.08455 -1.71703 3.52124 0 0 0
3.15875 -1.4453 3.54347 0 0 0
3.0129 -1.73841 3.35076 0 0 0
3.04547 -1.6954 3.38147 0 0 0
3.10237 -1.67503 3.44272 0 0 0
3.01443 -1.74713 3.34028 0 0 0
3.10434 -1.64366 3.44379 0 0 0
2.98879 -1.77691 3.31018 0 0 0
3.10334 -1.68476 3.42885 0 0 0
3.01276 -1.7177 3.32402 0 0 0
3.07779 -1.47221 3.38787 0 0 0
3.21694 -0.0562726 3.52527 0 0 0
3.14453 -1.44497 3.4307 0 0 0
3.19103 -1.68541 3.46088 0 0 0
3.27005 -1.98712 3.51546 0 0 0
3.13664 -0.47726 3.34838 0 0 0
3.14099 -0.446628 3.34587 0 0 0
3.14366 -0.451755 3.34044 0 0 0
3.20254 -1.78189 3.40243 0 0 0
3.21113 -0.445777 3.40333 0 0 0
3.27024 -1.65516 3.47176 0 0 0
3.16096 -0.185668 3.34221 0 0 0
3.33609 -1.98616 3.52174 0 0 0
3.21797 -1.72423 3.38673 0 0 0
3.16484 -0.0427503 3.33318 0 0 0
3.16518 -0.195833 3.33222 0 0 0
3.23892 -0.0420898 3.39046 0 0 0
3.17517 -0.158429 3.32892 0 0 0
3.38388 -1.98245 3.54498 0 0 0
3.32334 -1.64739 3.47562 0 0 0
3.28371 -1.74061 3.42194 0 0 0
3.25234 -1.70582 3.36326 0 0 0
3.24962 -0.392019 3.35953 0 0 0
3.24962 -0.392019 3.35953 0 0 0
3.31132 -0.525066 3.41888 0 0 0
3.26882 -1.75935 3.36261 0 0 0
3.26882 -1.75935 3.36261 0 0 0
3.27427 -1.73248 3.36209 0 0 0
3.41782 -1.418 3.5027 0 0 0
2.8098 -1.52893 2.87762 0 0 0
3.38922 -1.38119 3.46965 0 0 0
3.27787 -1.77817 3.34743 0 0 0
3.26022 -1.75352 3.31064 0 0 0
3.34657 -0.0594436 3.35338 0 0 0
3.51233 -0.408302 3.50721 0 0 0
3.49572 -0.406257 3.40672 0 0 0
3.93518 -0.794917 3.78054 0 0 0
3.57023 -0.214162 3.39975 0 0 0
3.57232 -0.078598 3.3903 0 0 0
4.00652 -0.929628 3.79203 0 0 0
4.06373 -0.912612 3.79426 0 0 0
4.01163 -1.15781 3.74996 0 0 0
4.08666 -0.651266 3.81131 0 0 0
4.08666 -0.651266 3.81131 0 0 0
4.07626 -0.829311 3.7971 0 0 0
4.07626 -0.829311 3.7971 0 0 0
4.08719 -1.10742 3.80254 0 0 0
4.00362 -1.08221 3.7274 0 0 0
4.07949 -1.03723 3.77788 0 0 0
4.02048 -1.00188 3.72467 0 0 0
4.10164 -0.806988 3.79293 0 0 0
4.04476 -0.844994 3.74202 0 0 0
4.06389 -0.743017 3.75485 0 0 0
4.06873 -0.818537 3.75806 0 0 0
4.07581 -0.872397 3.74716 0 0 0
4.09479 -0.94533 3.76055 0 0 0
4.07405 -0.848592 3.73919 0 0 0
4.07127 -0.879735 3.71886 0 0 0
4.06539 -0.94025 3.71266 0 0 0
4.07503 -0.847093 3.70975 0 0 0
4.08698 -0.813098 3.72082 0 0 0
4.16057 -1.10783 3.78231 0 0 0
4.15358 -0.470907 3.77465 0 0 0
4.12011 -0.794796 3.74371 0 0 0
4.13021 -0.336016 3.75358 0 0 0
4.09019 -0.924195 3.71648 0 0 0
4.14165 -0.83805 3.75957 0 0 0
4.10049 -0.719821 3.72258 0 0 0
4.13326 -0.319359 3.75085 0 0 0
4.16954 -0.346131 3.77983 0 0 0
4.1244 -0.614026 3.73783 0 0 0
4.09625 -0.850291 3.71233 0 0 0
4.11254 -0.576216 3.72645 0 0 0
4.12397 -0.654425 3.73463 0 0 0
4.11567 -0.560384 3.72433 0 0 0
4.11369 -0.805337 3.72226 0 0 0
4.13745 -0.400619 3.74306 0 0 0
4.12668 -0.662642 3.73201 0 0 0
4.14767 -0.792157 3.74214 0 0 0
4.12901 -0.844073 3.72499 0 0 0
4.12901 -0.844073 3.72499 0 0 0
4.13402 -0.948945 3.72649 0 0 0
4.10031 -0.939059 3.69802 0 0 0
4.12259 -0.139997 3.71167 0 0 0
4.11512 -0.831175 3.70461 0 0 0
4.11512 -0.831175 3.70461 0 0 0
4.16415 -0.343294 3.74469 0 0 0
4.12077 -0.90826 3.70459 0 0 0
4.11535 -0.907972 3.69919 0 0 0
4.14213 -0.78839 3.72327 0 0 0
4.14956 -0.360481 3.72441 0 0 0
4.12285 -0.311187 3.70006 0 0 0
4.10808 -0.300765 3.68323 0 0 0
4.11881 -0.282279 3.69265 0 0 0
3.56644 -0.252421 3.19302 0 0 0
4.09855 -0.28712 3.66941 0 0 0
4.1517 -0.375688 3.71666 0 0 0
4.17879 -0.655055 3.74057 0 0 0
4.15995 -0.788272 3.7248 0 0 0
4.11586 -0.143863 3.67642 0 0 0
4.17831 -0.787985 3.72509 0 0 0
4.09562 -0.162231 3.64915 0 0 0
4.14567 -0.315877 3.69029 0 0 0
4.24873 -1.04048 3.78307 0 0 0
4.12876 -0.147872 3.66394 0 0 0
4.19651 -0.823444 3.7186 0 0 0
4.19175 -0.957748 3.71184 0 0 0
4.26563 -0.507783 3.76414 0 0 0
4.21657 -0.827404 3.71741 0 0 0
4.24786 -0.404264 3.74127 0 0 0
4.22538 -0.942321 3.71729 0 0 0
4.27411 -0.999845 3.75617 0 0 0
4.26098 -0.644674 3.73439 0 0 0
4.2746 -0.964807 3.73864 0 0 0
4.29828 -0.56524 3.75333 0 0 0
4.27849 -0.537773 3.73732 0 0 0
4.28491 -0.406139 3.73942 0 0 0
4.28994 -0.455844 3.73539 0 0 0
4.28689 -0.154388 3.67152 0 0 0
4.34681 -0.285836 3.68257 0 0 0
4.77445 -0.348927 3.93401 0 0 0
4.77612 -0.347137 3.92111 0 0 0
4.77816 -0.203764 3.9036 0 0 0
5.7225 -2.60617 4.67345 0 0 0
4.76774 -0.23061 3.89402 0 0 0
4.76774 -0.23061 3.89402 0 0 0
5.74759 -2.56241 4.67687 0 0 0
5.75315 -2.59357 4.67696 0 0 0
5.72911 -2.58912 4.64875 0 0 0
5.80452 -2.37579 4.68121 0 0 0
5.73086 -2.57549 4.61736 0 0 0
5.67033 -2.57988 4.54966 0 0 0
5.67033 -2.57988 4.54966 0 0 0
5.78595 -2.55377 4.62961 0 0 0
5.71118 -2.25366 4.50915 0 0 0
5.71118 -2.25366 4.50915 0 0 0
5.7224 -2.13687 4.49485 0 0 0
5.72425 -2.04517 4.49387 0 0 0
5.70669 -2.24905 4.47635 0 0 0
5.71508 -2.09051 4.47524 0 0 0
5.71508 -2.09051 4.47524 0 0 0
5.76911 -2.16847 4.49976 0 0 0
5.72595 -2.20015 4.44514 0 0 0
5.26477 -0.3656 4.06084 0 0 0
5.76089 -1.78451 4.43007 0 0 0
5.75285 -1.78023 4.41639 0 0 0
-0.155225 0.207115 3.07205 100 93 83
-0.243883 0.45374 8.01135 188 179 172
-0.039726 -1.01758 3.31502 220 226 238
-0.0296494 -0.852357 3.32015 88 86 74
-0.008023 0.0497124 3.08221 130 130 128
-0.008023 0.0497124 3.08221 130 130 128
-0.00421341 -0.798998 3.33375 108 112 115
0.00993603 -0.0125425 3.10912 200 195 192
0.0105097 0.206235 3.07848 118 119 113
0.0136238 0.198801 3.07612 110 111 105
0.0219226 -0.0109359 3.11135 205 204 199
0.0366205 -0.629917 3.30443 125 122 115
0.0392133 -1.07434 3.2861 220 226 238
0.0468735 -1.12661 3.60616 222 226 238
0.043909 -0.623789 3.30347 122 122 112
0.0512693 -0.442709 3.28214 212 212 210
0.0606642 -0.168846 3.23773 245 246 241
0.0791599 -0.860427 3.27236 118 120 119
0.0799743 -0.257687 3.24987 220 216 213
0.0839408 -0.756885 3.29192 87 87 85
0.0919615 -0.25139 3.24837 216 213 208
0.0919615 -0.25139 3.24837 216 213 208
0.128679 -0.946722 3.9971 24 24 22
0.112812 -0.297566 3.25403 225 216 211
0.168738 -0.983779 4.12956 30 32 29
0.135816 -0.633455 3.29976 157 152 148
0.135683 -0.915821 3.27739 112 112 112
0.135364 -0.823976 3.26031 44 45 39
0.156199 -0.690818 3.29973 120 124 127
0.161601 -1.01326 3.26572 218 224 236
0.156954 0.194082 3.07817 145 143 146
0.170475 -0.856673 3.27475 122 126 127
0.180013 -1.21734 3.42845 215 221 233
0.181893 -0.689427 3.29795 127 133 133
0.202005 -0.723694 3.30118 12 17 11
0.193168 0.0103125 3.08292 213 214 209
0.206852 -0.690551 3.29848 131 133 132
0.215763 -0.760829 3.28694 25 27 24
0.212707 -0.0870463 3.21838 108 105 96
0.222046 -0.00490189 3.11003 128 119 112
0.263562 -0.706195 3.32859 130 131 135
0.258621 -0.801221 3.2909 44 46 45
-3.69187e+06 -6.55898e+06 2.77482e+07 33 34 29
0.276026 -0.548666 3.27202 15 18 11
0.262477 -0.00565404 3.10929 178 173 170
0.283604 -0.663899 3.29981 176 176 176
0.285486 -0.491893 3.29677 157 159 158
0.287141 -0.48826 3.26045 160 162 161
0.30084 -0.0932587 3.22483 210 209 205
0.305237 -0.418008 3.25531 221 221 219
0.29009 0.0490469 3.08792 215 214 209
0.743472 0.00664249 7.82968 223 224 219
0.331118 -0.615912 3.33443 221 221 219
0.326046 -0.080686 3.20766 214 213 208
0.497185 -0.969291 3.41341 206 207 202
0.551593 -0.993613 3.52789 207 208 203
0.533074 -0.989012 3.40381 205 204 199
0.624032 -0.810177 3.93296 142 146 147
0.622142 -0.962028 3.40445 202 198 189
0.639534 -0.987265 3.39223 197 190 180
0.646628 -0.960669 3.41024 201 201 193
0.649108 -0.96729 3.32034 119 119 111
0.682916 -0.984534 3.38738 155 157 156
0.719955 -0.949493 3.40358 118 112 100
0.724244 -0.997228 3.3652 212 211 207
0.754993 -0.882086 3.14892 210 207 200
0.839959 -0.99087 3.36318 210 207 200
0.868967 -0.943978 3.40105 209 209 199
0.784847 -0.872405 3.03683 207 204 197
0.875934 -0.97362 3.38903 207 204 197
1.01531 -0.659331 3.39386 194 194 194
1.02473 -0.654474 3.39337 200 200 198
1.02476 -0.620984 3.37216 218 218 216
1.04447 -0.934361 3.40863 152 151 149
0.902424 -0.575368 2.90663 178 178 178
1.0527 -0.670891 3.39028 178 178 178
1.06461 -0.606602 3.38431 226 226 224
1.08844 -0.806674 3.40783 27 29 24
0.882042 -0.667215 2.70266 40 42 37
1.11944 -1.11289 3.40759 210 209 205
1.11094 -0.979935 3.36639 211 210 206
0.914606 -0.565368 2.76451 147 147 147
1.1244 -1.0653 3.39316 213 212 208
1.12033 -0.980079 3.36719 213 209 206
1.1273 -0.991155 3.36551 208 207 203
1.19951 -0.970074 3.33641 212 211 207
1.68252 -1.81036 3.27095 30 23 15
1.86818 -1.81187 3.46902 27 27 19
1.97456 -1.78108 3.5345 26 25 21
1.96924 -1.77512 3.5221 26 25 21
1.97782 -1.65831 3.52934 63 62 57
1.91992 -1.83742 3.4259 231 223 220
1.98173 -1.78237 3.53194 20 24 23
1.90306 -1.86108 3.37164 35 31 30
2.01041 -1.73844 3.54407 145 140 134
2.0063 -1.71933 3.53652 66 58 55
2.00541 -1.75016 3.5334 87 82 78
2.02624 -1.75847 3.54022 56 59 52
1.93204 -1.87435 3.3725 109 115 115
1.93204 -1.87435 3.3725 109 115 115
2.02982 -1.68301 3.53827 81 78 71
2.06465 -1.70111 3.54542 56 63 56
2.09818 -1.75549 3.54809 27 29 26
2.03838 -1.85808 3.44292 90 91 83
2.10441 -1.67306 3.54478 68 68 58
2.10538 -1.70086 3.5459 74 74 64
2.12019 -1.73665 3.54655 87 82 76
2.12081 -1.75114 3.53678 87 84 77
2.06268 -1.85862 3.44086 93 90 83
2.13186 -1.6755 3.55045 62 65 58
2.14423 -1.73074 3.55172 56 56 54
1.51214 -1.15751 2.50493 68 69 63
2.15962 -1.67589 3.55153 58 51 45
2.16158 -1.70139 3.55373 73 70 65
2.16544 -1.75526 3.55479 72 68 57
2.16705 -1.70864 3.54594 73 72 68
2.1839 -1.67321 3.55424 71 72 66
2.18458 -1.68698 3.55508 70 73 64
2.16507 -1.45208 3.52313 203 202 197
2.18968 -1.73997 3.55697 64 65 57
2.13583 -1.87215 3.45107 99 97 85
2.20123 -1.72781 3.55453 91 86 80
2.20417 -1.85953 3.46014 120 113 103
2.20417 -1.85953 3.46014 120 113 103
2.21047 -1.86928 3.45986 122 115 107
2.20098 -1.88975 3.42718 118 111 101
2.23307 -1.84047 3.46712 120 111 102
2.32252 -1.74331 3.56966 19 19 11
2.26731 -1.84264 3.47493 120 116 107
2.29392 -1.84008 3.47983 114 110 99
2.37686 -1.55197 3.5991 169 162 152
2.29507 -1.87149 3.46201 115 111 102
1.58015 -1.02672 2.36017 165 158 148
2.34519 -1.83754 3.47631 103 98 94
2.35977 -1.83013 3.48357 81 82 76
2.43327 -1.67449 3.58303 160 153 143
2.43115 -1.49474 3.57675 145 137 126
2.43115 -1.49474 3.57675 145 137 126
2.43869 -1.67742 3.5813 159 150 141
2.45845 -1.64828 3.58241 154 149 143
2.42642 -1.55909 3.53417 146 141 135
2.46692 -1.69496 3.58464 148 148 140
2.46692 -1.69496 3.58464 148 148 140
2.45872 -1.53062 3.55661 104 94 84
2.43982 -1.82652 3.4964 47 39 36
2.42483 -1.87238 3.4612 75 77 72
2.42483 -1.87238 3.4612 75 77 72
2.50542 -1.46201 3.57171 140 143 136
2.51699 -1.70062 3.58139 126 122 113
2.52074 -1.70563 3.58796 126 122 113
2.50575 -1.49343 3.56539 114 115 107
2.52106 -1.68566 3.5828 103 104 98
2.46447 -1.82545 3.49137 28 30 25
2.53425 -1.61307 3.5905 114 115 109
2.54282 -1.66627 3.59281 119 116 109
2.54282 -1.66627 3.59281 119 116 109
2.55281 -1.47151 3.57826 122 121 116
2.55281 -1.47151 3.57826 122 121 116
2.4844 -1.8708 3.47288 64 65 60
2.4844 -1.8708 3.47288 64 65 60
2.52183 -1.81877 3.50618 120 119 114
2.50402 -1.8625 3.46718 58 60 57
2.50402 -1.8625 3.46718 58 60 57
2.55466 -1.82894 3.50728 148 149 141
2.55466 -1.82894 3.50728 148 149 141
2.63183 -1.72442 3.59994 107 108 102
2.63183 -1.72442 3.59994 107 108 102
2.62653 -1.68146 3.58989 113 115 110
2.59585 -1.80997 3.5114 102 103 95
2.59528 -1.82127 3.5055 87 88 80
2.68946 -1.5176 3.6076 118 117 112
2.64361 -1.80689 3.51942 96 97 91
2.63459 -1.85515 3.49181 45 49 48
2.74426 -1.61531 3.61551 102 103 97
2.75534 -1.66647 3.60615 124 121 112
2.76104 -1.67355 3.61525 124 121 112
2.76203 -1.69975 3.6146 113 114 108
2.76847 -1.7 3.61754 121 122 116
2.7939 -1.62266 3.6178 110 107 100
2.79624 -1.70782 3.61778 105 108 101
2.80056 -1.63453 3.62061 113 115 110
2.80228 -1.61839 3.62155 132 129 122
2.80049 -1.67211 3.61162 129 130 124
2.91035 -1.47661 3.66172 115 105 95
2.89656 -1.66487 3.63063 119 109 99
3.03902 -0.537557 3.80957 133 109 85
2.90569 -1.43065 3.63042 128 122 110
2.90363 -1.65362 3.62735 118 109 100
2.91316 -1.65758 3.63229 119 111 100
2.9106 -1.33874 3.62764 128 122 110
2.91586 -1.61674 3.63261 107 100 90
2.91586 -1.61674 3.63261 107 100 90
2.95173 -1.48955 3.64384 108 99 90
3.01955 -1.01948 3.6165 101 94 86
3.05307 -1.0226 3.63252 0 0 0
3.07866 -1.25995 3.65512 0 0 0
2.93805 -1.82952 3.46241 0 0 0
3.13852 -0.945756 3.65956 0 0 0
3.09808 -1.51159 3.61264 0 0 0
3.14306 -0.832949 3.65322 0 0 0
3.13533 -1.68478 3.46121 0 0 0
3.13744 -1.66958 3.46066 0 0 0
3.16252 -1.65186 3.46642 0 0 0
3.16275 -1.67271 3.46576 0 0 0
3.27459 -1.44074 3.50066 0 0 0
3.2152 -1.80425 3.39607 0 0 0
3.20313 -1.78137 3.37487 0 0 0
3.22454 -1.76791 3.39301 0 0 0
3.36557 -1.72812 3.50768 0 0 0
3.34576 -1.65367 3.48633 0 0 0
3.24619 -1.7754 3.37801 0 0 0
3.24619 -1.7754 3.37801 0 0 0
3.39256 -1.6355 3.48946 0 0 0
3.34531 -1.74092 3.43788 0 0 0
3.32583 -1.72919 3.41177 0 0 0
3.41711 -1.64566 3.49319 0 0 0
3.38175 -1.73619 3.44148 0 0 0
3.54098 -0.907396 3.54352 0 0 0
3.75558 -0.93115 3.72228 0 0 0
3.75263 -0.938948 3.7142 0 0 0
3.78541 -0.754502 3.73107 0 0 0
3.38096 -0.833397 3.32513 0 0 0
3.93473 -0.772408 3.83789 0 0 0
3.80268 -0.980187 3.70393 0 0 0
3.87422 -0.944825 3.73056 0 0 0
3.99346 -0.732329 3.83643 0 0 0
3.87653 -0.952425 3.71775 0 0 0
4.00819 -0.706835 3.83857 0 0 0
3.90452 -0.930498 3.73065 0 0 0
3.91935 -0.780032 3.73746 0 0 0
4.02841 -0.644658 3.83848 0 0 0
4.0426 -0.551718 3.83425 0 0 0
4.06599 -0.354419 3.84023 0 0 0
3.97066 -0.928725 3.74222 0 0 0
3.96278 -0.933734 3.73184 0 0 0
3.22974 -0.709092 3.02727 0 0 0
3.98417 -0.873297 3.73132 0 0 0
3.24392 -0.802335 3.03286 0 0 0
3.97999 -0.983488 3.721 0 0 0
3.99521 -1.09646 3.73246 0 0 0
3.99755 -0.942707 3.73223 0 0 0
4.01176 -0.901919 3.74042 0 0 0
4.00986 -0.760089 3.73402 0 0 0
4.01875 -0.837106 3.74052 0 0 0
4.05187 -0.452529 3.74546 0 0 0
4.05515 -0.723298 3.74688 0 0 0
4.05723 -0.271237 3.73814 0 0 0
4.07508 -0.557037 3.74749 0 0 0
4.07609 -0.723822 3.74818 0 0 0
4.07995 -0.756161 3.74337 0 0 0
4.08054 -0.742442 3.73534 0 0 0
4.09437 -0.664083 3.74435 0 0 0
4.06081 -0.908792 3.70998 0 0 0
4.10826 -0.338489 3.75105 0 0 0
4.10849 -0.297254 3.74898 0 0 0
4.03327 -0.97101 3.68018 0 0 0
4.11868 -0.318878 3.75216 0 0 0
4.07648 -0.903128 3.71089 0 0 0
4.07602 -0.909321 3.71041 0 0 0
4.12298 -0.312082 3.7501 0 0 0
4.0843 -0.757043 3.71353 0 0 0
4.08814 -1.08808 3.71647 0 0 0
4.06764 -0.959694 3.69691 0 0 0
4.0824 -0.838606 3.70892 0 0 0
4.07789 -0.936643 3.70432 0 0 0
4.09775 -0.659811 3.72043 0 0 0
4.13306 -0.334272 3.74699 0 0 0
4.12761 -0.451417 3.74057 0 0 0
4.09225 -0.865479 3.70826 0 0 0
4.10394 -0.822851 3.71856 0 0 0
4.10706 -0.593626 3.72116 0 0 0
4.09668 -0.843254 3.70469 0 0 0
4.13896 -0.356082 3.73917 0 0 0
4.12638 -0.580864 3.71953 0 0 0
4.13619 -0.653986 3.722 0 0 0
4.13372 -0.74697 3.71638 0 0 0
4.13715 -0.326659 3.71781 0 0 0
4.11463 -0.861447 3.69752 0 0 0
4.14759 -0.515442 3.72288 0 0 0
4.13524 -0.869517 3.69955 0 0 0
4.13444 -0.891016 3.69666 0 0 0
4.13444 -0.891016 3.69666 0 0 0
4.17387 -0.345118 3.72787 0 0 0
4.14547 -0.861292 3.70106 0 0 0
4.15919 -0.55694 3.7131 0 0 0
4.15037 -0.891507 3.69932 0 0 0
4.12714 -0.216675 3.67808 0 0 0
4.13419 -0.159349 3.67732 0 0 0
4.19775 -1.04719 3.7255 0 0 0
4.19189 -1.01993 3.71863 0 0 0
4.19678 -0.747869 3.71654 0 0 0
4.19527 -0.799315 3.71368 0 0 0
4.20588 -0.61575 3.72146 0 0 0
4.20526 -0.933911 3.70912 0 0 0
4.23569 -0.761018 3.72989 0 0 0
4.24447 -0.718767 3.73332 0 0 0
4.19309 -0.281313 3.68622 0 0 0
4.19309 -0.281313 3.68622 0 0 0
3.663 -0.648178 3.21825 0 0 0
4.24024 -0.754421 3.72491 0 0 0
4.22318 -0.94785 3.70722 0 0 0
4.2347 -0.843021 3.71342 0 0 0
4.26233 -0.628109 3.73628 0 0 0
4.2553 -0.65882 3.72881 0 0 0
4.22708 -0.962569 3.69309 0 0 0
4.22708 -0.962569 3.69309 0 0 0
4.28228 -0.449481 3.74052 0 0 0
4.27311 -0.53804 3.73102 0 0 0
4.29146 -0.511147 3.71865 0 0 0
4.26511 -0.286694 3.69461 0 0 0
4.34713 -0.258706 3.69356 0 0 0
-0.0841525 0.172154 3.04178 128 128 126
-0.0618448 0.0132973 3.07347 42 37 34
-0.0104904 0.0589082 3.0531 215 214 209
-0.00301396 0.16189 3.05296 151 151 151
0.0664776 -0.431989 3.21188 200 199 195
-0.237501 -0.680877 2.12969 213 220 228
0.0664404 -0.98901 3.1711 220 227 235
0.12233 -0.760162 3.20889 179 180 175
0.132188 -0.906193 3.1985 220 227 235
0.293649 0.00573284 3.08701 45 47 42
0.351602 -0.991943 3.1934 217 214 209
0.537921 -0.945417 3.3615 205 201 192
0.540348 -0.688335 3.35246 21 23 18
0.670034 -0.948532 3.26178 212 209 200
0.734597 -0.986727 3.33051 145 135 126
0.815514 -0.945377 3.37831 217 214 207
1.07201 -0.818754 3.39575 209 206 199
1.10863 -0.83629 3.39848 210 209 204
1.26803 -0.181056 2.97975 10 15 9
1.28352 -0.403392 2.98432 164 164 156
1.29208 0.086511 2.97103 10 12 9
1.32222 -0.350937 2.98917 189 186 179
1.50222 -1.87663 3.12472 71 54 46
1.69641 -0.11945 3.07104 30 31 26
2.10184 -1.76259 3.53668 113 106 96
2.15921 -1.65447 3.58239 23 24 19
1.76086 -1.90019 3.17056 109 105 94
1.72009 -1.85154 3.05994 112 108 96
2.05386 -1.89683 3.39838 72 62 53
2.26761 -1.8535 3.4669 81 80 75
1.36359 -1.08094 2.44663 148 142 128
2.40521 -1.56624 3.60084 169 163 149
2.43856 -1.52808 3.58164 138 134 125
2.95396 -1.77349 3.51088 105 101 90
2.9166 -1.8199 3.47639 113 109 100
3.06063 -1.71083 3.39372 110 106 94
3.99398 -0.98739 3.74018 0 0 0
4.12398 -0.558137 3.77377 0 0 0
4.09462 -0.961039 3.69619 0 0 0
2.11526 -1.71923 3.54034 101 101 91
2.09884 -1.87335 3.44901 102 93 84
2.16425 -1.8526 3.46323 107 103 94
1.74795 -1.53143 2.769 106 101 95
2.2498 -1.87744 3.46755 122 118 107
2.33459 -1.85089 3.47917 113 109 98
2.35612 -1.87078 3.47349 86 85 80
2.38232 -1.84598 3.4849 82 81 77
1.87805 -1.41662 2.70905 44 46 43
2.64634 -1.71564 3.5941 107 106 102
2.59384 -1.85854 3.48607 48 53 49
2.13846 -1.40043 2.75238 91 91 83
2.83943 -1.72504 3.60824 102 95 85
2.12478 -1.19786 2.64935 118 110 99
3.88494 -0.955916 3.82087 0 0 0
3.21314 -0.76381 3.02379 0 0 0
4.06801 -1.08064 3.71954 0 0 0
3.00046 -2.76022 12.0624 209 206 199
-0.185036 -0.474863 1.95893 208 205 196
3.12446 -2.94066 11.2906 217 214 207
-0.00226213 -0.815598 3.21148 72 67 61
0.0067876 -0.959388 3.19579 73 71 59
0.296204 -0.94733 3.26927 214 216 215
0.638976 -0.94993 3.38968 184 182 183
0.658075 -0.953455 3.39328 186 184 185
1.45065 -1.82597 3.24361 17 23 11
1.53563 -1.81929 3.25325 38 34 23
1.70617 -1.68858 3.25633 71 71 63
1.70755 -1.90611 3.19008 46 42 31
2.09018 -1.71813 3.48613 87 80 72
2.10554 -1.74088 3.53595 87 80 72
2.12764 -1.90829 3.42929 17 19 16
2.17785 -1.70848 3.54494 66 69 60
2.1645 -1.90473 3.43364 86 92 82
2.23805 -1.63568 3.56328 205 206 200
2.25071 -1.84631 3.4736 72 73 65
2.24953 -1.87116 3.47003 64 59 55
2.32472 -1.69804 3.55915 115 102 94
2.32472 -1.69804 3.55915 115 102 94
2.33936 -1.88695 3.45491 25 28 21
2.33936 -1.88695 3.45491 25 28 21
2.44435 -1.61632 3.58667 211 210 206
2.42097 -1.82945 3.49493 162 158 146
2.50104 -1.49086 3.56962 21 22 17
2.50341 -1.63385 3.58214 188 182 170
2.4525 -1.8767 3.4705 136 132 123
2.55015 -2.05906 3.56772 79 80 75
2.5358 -1.86837 3.48167 114 111 104
2.5358 -1.86837 3.48167 114 111 104
2.56581 -2.06353 3.56358 79 80 75
2.55487 -1.81521 3.51144 125 126 120
2.59368 -2.05379 3.57199 85 74 70
2.58396 -1.8124 3.51558 111 112 106
2.50841 -1.59606 3.27453 142 142 132
2.60801 -1.81041 3.51818 108 109 103
2.66037 -2.0352 3.58242 122 123 117
2.63963 -1.82131 3.51774 116 117 111
2.68187 -2.02952 3.58444 98 99 93
2.69931 -2.04643 3.57599 88 90 79
2.72623 -1.66615 3.60251 135 130 124
2.68802 -1.80309 3.52654 110 111 105
2.75663 -1.63202 3.60589 115 103 91
2.7316 -2.04445 3.58004 99 99 91
2.75766 -1.67102 3.60431 141 142 136
2.74364 -1.79682 3.53284 125 121 110
2.90758 -1.63057 3.62045 132 124 113
3.05049 -1.82818 3.37607 0 0 0
3.23727 -1.97528 3.51016 0 0 0
3.23916 -1.98537 3.50727 0 0 0
3.23916 -1.98537 3.50727 0 0 0
3.19867 -1.76673 3.4163 0 0 0
3.25272 -1.97276 3.51216 0 0 0
3.29915 -1.97438 3.51321 0 0 0
3.26234 -1.76891 3.42544 0 0 0
3.31778 -1.97505 3.51382 0 0 0
3.29819 -1.76374 3.42841 0 0 0
3.36717 -1.67915 3.5021 0 0 0
3.35733 -1.75716 3.43737 0 0 0
3.35432 -1.7914 3.4179 0 0 0
3.35432 -1.7914 3.4179 0 0 0
3.3832 -1.78788 3.42152 0 0 0
3.71346 -0.943461 3.71115 0 0 0
3.74837 -0.935263 3.71844 0 0 0
3.74837 -0.935263 3.71844 0 0 0
3.74983 -0.96763 3.70012 0 0 0
3.83336 -0.969137 3.70212 0 0 0
3.96556 -0.941478 3.72881 0 0 0
4.01529 -0.899309 3.73454 0 0 0
4.1332 -0.887745 3.7003 0 0 0
4.18479 -0.804496 3.71368 0 0 0
4.19355 -0.813611 3.71197 0 0 0
1.39214 -0.0195058 2.06458 0 0 0
1.39102 -0.028299 1.91919 0 0 0
