ply
format ascii 1.0 
element vertex 952
property float32 x 
property float32 y 
property float32 z
property uchar red  
property uchar green
property uchar blue
element face 0
property list uchar int vertex_indices
end_header
-0.366807 0.900603 1.93422 200 200 190
-0.340035 0.887644 1.94698 105 100 94
-0.323282 0.735649 1.99951 197 198 192
-0.314178 0.693974 1.99581 87 88 74
-0.292722 0.77536 1.96542 180 177 170
-0.291889 0.70196 1.97301 110 106 95
-0.266465 0.860728 1.98532 188 179 172
-0.24074 0.669869 2.04938 140 142 139
-0.164707 -0.211334 2.40906 108 109 104
-0.178266 0.841586 1.98784 129 128 126
-0.171999 -0.337094 2.20302 223 227 239
-0.154802 0.778161 1.99444 114 114 104
-0.145583 0.899057 1.98935 99 98 94
-0.147762 0.644625 2.13626 213 209 206
-0.128265 0.892002 1.9929 110 111 105
-0.12335 -0.306587 2.24676 108 113 109
-0.116994 -0.225366 2.2418 120 122 121
-0.11146 -0.443557 2.15332 220 226 238
-0.112263 0.105589 2.21277 119 121 107
-0.112263 0.105589 2.21277 119 121 107
-0.104585 -0.337589 2.22849 218 228 238
-0.103097 -0.149937 2.2042 17 20 13
-0.0771299 0.65928 2.20012 216 216 216
-0.0759601 0.555506 2.18333 245 246 241
-0.0650464 0.712544 2.03898 50 46 43
-0.0650464 0.712544 2.03898 50 46 43
-0.0611724 0.902464 2.0081 130 129 125
-0.0427846 0.765365 2.0215 58 60 55
0.00508685 -0.134221 2.3929 210 210 208
-0.0303188 0.705632 2.05333 33 33 31
-0.0212677 0.712191 2.04626 47 49 44
-0.018225 -0.160568 2.20035 30 30 28
0.0339161 0.214893 2.35941 32 32 30
0.0458949 0.0312369 2.43252 30 35 28
0.0229998 0.499961 2.27186 43 43 41
0.00926354 -0.291051 2.20587 107 103 92
0.0106833 0.649743 2.21175 187 190 183
0.06957 -0.417464 2.39367 214 214 206
0.080859 -0.297206 2.40518 109 113 112
0.0359685 0.705701 2.06603 216 215 211
0.0359685 0.705701 2.06603 219 225 237
0.0432846 -0.264097 2.21279 112 112 112
0.0489594 -0.108715 2.2401 32 39 31
0.0489594 -0.108715 2.2401 32 39 31
0.0512274 -0.228715 2.21407 145 147 146
0.103927 -0.272529 2.39629 145 147 146
0.0754979 0.706082 2.07663 29 29 27
0.75659 -1.10563 20.3732 29 29 27
0.0877934 -0.0863927 2.06619 132 136 137
0.0995022 -0.253321 2.22709 132 136 137
0.130215 0.50192 2.29541 141 143 142
0.112619 0.897571 2.03861 48 50 47
0.117655 0.712593 2.06183 11 12 7
0.136398 -0.389185 2.21964 9 11 6
0.141254 0.0458856 2.27172 9 11 6
0.152099 0.651497 2.21092 144 145 147
0.154332 0.860149 2.05227 225 229 214
0.225808 -0.185731 2.38904 148 150 149
0.183223 0.286497 2.25822 152 153 155
0.182041 0.883012 2.05488 213 214 209
0.203714 -0.124866 2.27515 25 25 25
0.207115 -0.10092 2.27383 219 225 237
0.188624 0.717986 2.07452 210 210 208
0.1961 0.708969 2.07204 29 29 27
0.220517 -0.157025 2.25608 25 27 24
0.239616 -0.0155446 2.29748 211 206 202
0.302605 -0.412871 2.41533 164 165 167
3.27553 2.76988 30.2588 44 46 43
0.280245 0.216007 2.37324 220 220 218
0.245926 0.706341 2.0836 178 180 179
0.333957 -0.396122 2.43608 34 34 34
0.286015 0.712825 2.08853 22 25 18
0.309675 0.676761 2.2138 113 111 99
0.303656 0.673174 2.19843 131 131 123
0.312035 0.590012 2.25846 44 44 42
0.315288 0.64338 2.27329 130 134 133
0.319463 0.430409 2.27639 216 224 235
0.320311 0.553678 2.26203 157 159 158
0.323077 0.543881 2.2661 104 106 105
0.341592 0.0375096 2.31253 160 162 161
0.346452 -0.202034 2.3393 213 214 209
0.346452 -0.202034 2.3393 217 223 235
0.35385 -0.327137 2.3548 124 124 122
0.315593 0.751739 2.08848 204 205 199
0.334333 0.711213 2.12537 204 205 199
0.380402 0.708152 2.10049 219 218 214
0.604864 -0.170883 2.68026 162 162 154
0.529588 0.517607 2.45849 219 220 215
0.532822 0.516116 2.45871 220 221 216
0.670491 -0.358291 2.72998 224 225 220
0.69194 -0.34551 2.73066 199 199 199
1.26068 -0.476189 3.81907 98 106 109
0.9552 -0.377493 2.73548 98 106 109
0.878337 -0.322129 2.58905 163 163 163
1.43025 -0.415352 3.3555 213 208 204
1.27501 -0.361296 2.76209 211 212 206
1.20677 -0.0603595 2.62504 210 211 205
1.26827 -0.347439 2.66862 48 47 43
1.37114 -0.340648 2.77865 205 204 202
1.37114 -0.340648 2.77865 208 207 205
1.30439 -0.361764 2.66766 206 207 202
1.29517 -0.387193 2.62927 204 205 200
1.4159 -0.331045 2.83025 206 203 196
1.42017 -0.142444 2.74679 131 123 112
1.64762 -0.597367 2.90284 209 208 204
1.50994 0.0211242 2.67431 210 207 200
1.60348 -0.35627 2.80414 211 211 203
1.48464 0.502314 2.60741 20 22 17
1.48154 0.690353 2.59923 208 209 203
1.58308 -0.626768 2.75795 200 197 190
1.59775 -0.159992 2.76411 200 197 190
1.8961 -1.76408 3.29503 209 208 203
1.58253 0.0398964 2.72592 205 202 195
1.57808 -0.384958 2.67955 204 201 196
1.64782 -0.168109 2.76803 28 30 27
1.68584 -0.32143 2.81949 208 209 204
1.59847 -0.392435 2.68093 165 165 165
1.65454 -0.158958 2.75287 209 208 204
1.63817 -0.174982 2.72473 221 222 224
1.66573 -0.329707 2.75904 27 27 19
1.70862 -0.292036 2.80946 207 204 197
1.70735 -0.353254 2.80164 58 60 59
1.67646 -0.114172 2.74553 13 16 7
1.67541 0.000738398 2.72223 185 185 185
1.70686 -0.327741 2.75911 211 210 205
1.73964 -0.529463 2.80761 40 42 39
1.72906 -0.531268 2.77183 199 201 198
1.70061 -0.000142676 2.71582 212 211 206
1.70061 -0.000142676 2.71582 34 34 34
1.69498 -0.384691 2.70582 40 42 39
1.63479 0.653427 2.60763 207 208 203
1.73612 -0.476671 2.74879 149 151 148
1.74422 -0.489054 2.74532 211 210 206
1.71741 0.0131197 2.70194 22 24 19
1.75493 -1.28708 2.75729 147 147 147
1.77793 -1.28841 2.79063 207 208 203
1.72055 -0.42431 2.69203 212 213 208
1.67989 0.677519 2.62566 214 213 208
1.80115 -1.30771 2.77638 145 145 145
1.70931 -1.2453 2.3066 145 145 145
-24.1633 -3.23604 -32.5888 212 211 207
1.77912 0.237203 2.39735 18 19 11
1.73937 -1.23398 2.33856 207 212 208
1.73657 -1.2354 2.32488 219 218 213
1.52982 0.32147 2.021 153 153 153
1.5173 0.475002 1.99493 123 124 119
1.49498 0.549524 1.96866 91 90 86
1.50134 0.628501 1.96287 202 199 194
1.51498 0.604536 1.97452 13 18 12
1.49264 0.758179 1.94335 20 20 18
1.48936 0.78488 1.93789 1 13 9
1.49938 0.78247 1.94087 174 176 171
1.53594 0.616219 1.9674 174 176 171
1.71316 0.20392 2.16143 63 78 75
1.64366 0.29557 2.04554 152 140 140
1.64366 0.29557 2.04554 99 102 93
1.6111 0.626227 1.98982 11 16 9
1.63189 0.714754 1.97645 38 38 26
1.62214 0.714554 1.96852 37 37 25
1.71935 0.241078 2.05633 38 38 26
1.73464 0.318347 2.05956 13 16 7
1.78525 0.561598 2.03718 17 20 13
1.78525 0.561598 2.03718 14 17 10
2.66993 0.543583 2.97348 31 32 18
2.16076 -1.12975 2.42453 178 177 172
2.26273 -1.43512 2.52806 226 228 225
2.16324 -1.13104 2.4027 226 228 225
1.92089 0.304373 2.08841 37 38 24
2.32389 -1.37602 2.52111 50 50 38
1.95134 0.36603 2.10118 50 50 38
1.86258 0.797326 2.00144 188 190 187
2.22451 -1.1038 2.38452 231 232 227
2.36747 -1.40486 2.53506 19 22 13
1.95056 0.308168 2.09149 19 22 13
1.99998 0.374315 2.105 220 221 216
1.99998 0.374315 2.105 17 17 7
2.52416 -1.48646 2.59863 21 22 16
2.0946 0.397469 2.13338 59 58 53
2.20472 0.204825 2.23449 227 228 222
2.20472 0.204825 2.23449 58 60 49
2.568 -1.43033 2.59404 219 220 215
2.05179 0.656336 2.06578 13 16 9
2.05179 0.656336 2.06578 164 160 149
2.61467 -1.47978 2.61496 52 48 37
2.59713 -1.38942 2.59391 209 208 203
2.15215 0.379112 2.14009 220 219 214
2.6351 -1.43495 2.61406 220 219 214
2.6193 -1.36866 2.59628 44 46 35
2.25163 0.470248 2.1451 192 196 199
2.26791 0.392847 2.15867 162 159 150
2.24941 0.53694 2.12948 162 159 150
2.26944 0.396251 2.15039 50 46 37
2.72268 -1.27623 2.57707 18 19 13
2.32073 0.371988 2.17422 18 19 13
2.32073 0.371988 2.17422 62 55 45
2.32441 0.364299 2.16863 41 35 23
3.38527 -1.71272 3.12594 152 153 147
3.40973 -1.72206 3.03579 70 66 54
3.57557 -1.80087 3.1709 63 57 43
3.89619 -1.83509 3.33472 128 129 131
4.12492 -1.62734 3.53768 171 172 167
4.32998 -1.71178 3.7149 109 117 120
4.11183 -1.64907 3.52538 160 161 156
4.38032 -1.67805 3.74284 25 26 20
4.114 -1.57842 3.52199 156 157 151
4.13747 -1.63467 3.53489 156 157 151
4.1186 -1.5553 3.51484 42 35 29
4.12198 -1.52537 3.50436 72 49 41
4.16504 -1.62572 3.5405 126 131 135
4.23253 -1.59947 3.55067 126 131 135
4.29216 -1.65921 3.5794 88 88 80
4.29929 -1.67939 3.58074 26 23 14
4.29632 -1.64203 3.57371 26 23 14
4.29064 -1.62517 3.56901 68 66 54
3.95464 -1.79527 3.28916 105 103 91
4.33407 -1.71004 3.5889 105 103 91
4.29834 -1.53226 3.55013 101 101 91
4.27185 -1.52189 3.52962 70 67 60
4.02509 -1.82465 3.2922 63 66 59
4.19952 -1.8316 3.33402 53 52 47
4.08958 -1.84576 3.23898 77 74 67
4.60205 -1.5126 3.61378 71 73 62
4.36502 -1.89738 3.41027 67 66 61
4.63292 -1.7309 3.62557 62 65 56
4.60487 -2.04651 3.59927 75 74 69
4.60487 -2.04651 3.59927 100 96 85
4.67491 -1.3443 3.60009 66 66 56
4.91962 -1.39603 3.68047 73 69 60
4.89355 -1.94141 3.62121 73 69 60
4.7444 -1.21175 3.51635 104 100 91
5.11493 -1.73657 3.7836 120 116 107
5.11493 -1.73657 3.7836 118 111 101
4.85247 -1.30646 3.58863 25 24 20
4.69862 -1.8263 3.47045 114 110 101
4.85243 -1.3111 3.58035 56 55 50
4.93865 -1.97196 3.6132 118 109 100
4.48274 -1.87286 3.28717 118 109 100
5.03374 -1.6682 3.69607 169 162 152
5.15385 -1.70887 3.77847 161 157 146
5.16584 -1.73584 3.78686 82 81 77
5.16584 -1.73584 3.78686 112 108 99
4.75948 -1.29979 3.49224 139 135 124
5.15642 -1.65421 3.77308 139 135 124
5.04719 -1.60191 3.69615 130 127 118
5.08613 -1.67496 3.69528 79 75 72
5.01748 -1.89126 3.62602 124 120 111
5.24505 -1.69333 3.80017 69 70 65
5.0195 -1.28131 3.63778 76 77 72
4.5914 -1.87901 3.31509 149 142 134
5.06618 -1.53596 3.65979 149 142 134
5.1303 -1.74074 3.69749 129 125 116
5.11525 -1.55779 3.68721 129 125 116
5.29194 -1.66213 3.80551 104 94 84
5.29194 -1.66213 3.80551 134 130 121
4.87523 -1.82683 3.50293 134 135 127
4.90426 -1.82456 3.50981 123 114 105
5.00976 -1.97832 3.58334 69 55 52
5.01761 -1.97385 3.57738 141 132 123
4.96893 -1.82392 3.51894 140 141 135
5.20654 -1.65891 3.69098 69 70 65
5.15365 -1.34805 3.63637 94 96 91
4.99046 -1.24551 3.52579 99 99 91
5.11321 -1.36646 3.601 112 113 108
4.97595 -1.34238 3.50381 95 98 91
5.03435 -1.82605 3.53543 95 98 91
5.14733 -1.38091 3.59339 100 87 81
5.1453 -1.83569 3.5695 148 141 131
5.31406 -1.3185 3.66325 70 71 66
5.56734 -1.37882 3.82852 70 71 66
5.6493 -1.77459 3.87907 125 126 118
5.22086 -1.91162 3.58628 112 112 104
5.70682 -1.76634 3.91277 108 111 104
5.27781 -1.93416 3.57989 126 125 120
5.37728 -1.29289 3.64488 113 115 110
5.31192 -1.82959 3.59225 99 101 96
5.32157 -1.89819 3.59358 103 102 97
5.32839 -1.84837 3.58223 122 123 117
5.64025 -1.72268 3.795 108 107 102
5.47833 -1.52489 3.65005 99 98 93
5.66292 -1.64072 3.77489 99 98 93
5.9772 -1.7075 3.96463 109 111 106
5.50224 -1.53613 3.65466 93 82 76
5.67575 -1.54803 3.75637 107 106 102
5.42862 -1.79816 3.57671 48 53 49
6.03406 -1.52491 3.96292 118 117 112
5.71244 -1.54598 3.75696 108 108 100
5.74004 -1.56754 3.77362 100 100 92
5.61658 -1.4016 3.68932 108 109 104
5.99248 -1.54805 3.92629 128 129 123
5.74022 -1.52633 3.75923 106 107 101
5.81553 -1.66551 3.80096 97 98 92
5.7742 -1.4768 3.75264 114 117 108
5.97349 -1.42562 3.86924 135 135 125
5.82945 -1.57672 3.78032 102 101 97
5.62367 -1.90675 3.60918 85 85 75
5.56981 -1.8045 3.57111 105 106 100
5.56981 -1.8045 3.57111 112 113 107
5.58799 -1.7702 3.56174 105 106 100
5.71258 -1.80791 3.64043 113 114 106
5.77098 -1.80587 3.64701 123 124 118
6.07044 -0.973368 3.81868 137 138 132
5.94894 -1.86647 3.74045 100 101 95
5.7577 -1.55823 3.61417 104 103 98
6.49736 -1.73622 4.07953 104 106 101
6.08032 -1.60762 3.82833 119 120 114
6.4887 -1.66005 4.06791 108 108 100
5.69625 -1.73916 3.57683 101 101 93
6.83059 -0.428258 4.27625 101 101 93
6.02669 -1.86054 3.77103 80 77 68
6.58033 -1.7719 4.10998 93 93 81
6.10877 -1.60515 3.82581 107 97 85
6.83492 -0.446512 4.26775 123 117 105
6.98622 -2.57616 4.357 111 103 90
6.0251 -1.28695 3.74099 114 107 97
6.99364 -2.57181 4.32963 115 107 96
5.92423 -1.80564 3.67135 124 115 106
6.1077 -1.44836 3.78892 118 110 99
6.54484 -1.5476 4.0479 110 101 92
6.54484 -1.5476 4.0479 131 122 113
6.13219 -1.26666 3.75296 101 97 85
6.03892 0.892237 3.68392 105 98 88
7.28186 -2.59364 4.43297 97 87 78
7.28186 -2.59364 4.43297 128 120 109
5.76465 -1.88219 3.49748 86 83 74
6.26284 -1.34602 3.7974 117 111 99
6.07555 -0.370786 3.66025 94 92 80
6.88435 -1.7201 4.14275 108 102 90
5.97402 -0.425826 3.59444 115 109 97
5.78046 -1.79631 3.47819 115 109 97
5.9276 -1.77274 3.56982 115 109 97
6.7066 -1.81201 4.02182 124 116 105
6.54135 -0.955958 3.90052 99 99 91
7.50783 -2.59497 4.46858 78 78 68
6.23027 -1.36261 3.70649 78 78 68
6.10417 -1.35522 3.62607 104 100 88
6.4744 -0.871321 3.83269 111 104 94
7.48958 -2.58702 4.43407 100 96 87
6.21116 -1.4519 3.68211 117 113 101
5.93836 -0.622787 3.51939 85 86 81
6.19606 -1.31807 3.66952 100 98 86
7.62286 -2.59959 4.49285 111 107 96
7.62286 -2.59959 4.49285 0 0 0
5.95469 -0.643228 3.50419 0 0 0
6.16514 -0.428515 3.60905 0 0 0
6.24254 -0.504539 3.64915 0 0 0
6.27245 -1.29593 3.67378 0 0 0
5.49244 0.785293 3.20789 0 0 0
6.28722 -1.31458 3.67743 0 0 0
7.4238 -2.52706 4.32833 0 0 0
5.50412 0.775815 3.20844 0 0 0
6.30248 -1.29818 3.67749 0 0 0
5.97846 0.199707 3.47948 0 0 0
5.96418 0.0982437 3.46845 0 0 0
6.06059 0.036017 3.52013 0 0 0
6.64865 -1.32338 3.85626 0 0 0
6.12321 -1.52317 3.55466 0 0 0
5.88457 0.266484 3.4076 0 0 0
5.77421 0.473102 3.33854 0 0 0
6.54221 -1.31735 3.77698 0 0 0
5.73336 0.578958 3.30943 0 0 0
5.79547 -1.82565 3.33998 0 0 0
5.72775 -1.78509 3.29867 0 0 0
5.68729 0.699062 3.27452 0 0 0
5.70288 0.679756 3.28216 0 0 0
6.00556 -1.72311 3.44268 0 0 0
6.3949 -1.704 3.65645 0 0 0
6.35279 -1.19545 3.56665 0 0 0
5.80729 -1.67147 3.23178 0 0 0
5.92669 -1.60883 3.29223 0 0 0
6.19299 -1.59637 3.43812 0 0 0
5.8016 -1.68578 3.21628 0 0 0
6.16967 -1.53783 3.42397 0 0 0
6.44218 -1.94432 3.5701 0 0 0
6.0986 -1.5923 3.37212 0 0 0
5.73879 -1.62753 3.16695 0 0 0
5.81001 -1.2123 3.19826 0 0 0
5.16758 0.885882 2.83149 0 0 0
6.03604 -1.17555 3.29207 0 0 0
6.07873 -1.54352 3.3034 0 0 0
7.18179 -2.28823 3.85807 0 0 0
4.99795 0.274481 2.66504 0 0 0
4.97773 0.312536 2.64839 0 0 0
4.97581 0.30396 2.64058 0 0 0
6.15869 -1.7147 3.26571 0 0 0
5.20283 0.336504 2.75472 0 0 0
6.6679 -1.58464 3.53507 0 0 0
4.81964 0.629781 2.5446 0 0 0
7.39083 -2.30255 3.89592 0 0 0
6.1382 -1.62189 3.22616 0 0 0
4.7163 0.790178 2.4799 0 0 0
4.81533 0.612897 2.53092 0 0 0
4.98031 0.833874 2.60011 0 0 0
4.79924 0.654964 2.51166 0 0 0
7.60441 -2.31943 3.97676 0 0 0
6.80414 -1.57594 3.55155 0 0 0
6.26698 -1.627 3.25952 0 0 0
6.38943 -1.64243 3.29639 0 0 0
5.15913 0.390648 2.66136 0 0 0
5.15913 0.390648 2.66136 0 0 0
5.47675 0.238725 2.82088 0 0 0
6.22453 -1.68958 3.1963 0 0 0
6.34074 -1.71047 3.2562 0 0 0
6.46829 -1.69457 3.3127 0 0 0
6.83794 -1.15394 3.49474 0 0 0
4.49337 -1.23501 2.29501 0 0 0
6.63331 -1.08059 3.38636 0 0 0
6.48925 -1.77661 3.30468 0 0 0
6.32515 -1.71358 3.20228 0 0 0
5.03817 0.781091 2.51573 0 0 0
6.32348 0.480323 3.1473 0 0 0
5.66247 0.389061 2.74707 0 0 0
8.08594 -0.036551 3.8649 0 0 0
5.59932 0.623592 2.65216 0 0 0
5.46884 0.777986 2.58134 0 0 0
8.52861 -0.269383 4.01398 0 0 0
8.64737 -0.238617 4.01308 0 0 0
8.24459 -0.659858 3.83497 0 0 0
8.31197 0.214663 3.85287 0 0 0
8.31197 0.214663 3.85287 0 0 0
8.53989 -0.0905773 3.95364 0 0 0
8.53989 -0.0905773 3.95364 0 0 0
9.11867 -0.603577 4.21614 0 0 0
7.1172 -0.457825 3.28869 0 0 0
8.85257 -0.471053 4.07362 0 0 0
8.01651 -0.393471 3.69557 0 0 0
8.54237 -0.053261 3.92504 0 0 0
7.10713 -0.125336 3.26225 0 0 0
7.82777 0.0397686 3.59821 0 0 0
7.94806 -0.0801827 3.65249 0 0 0
8.01732 -0.171284 3.66664 0 0 0
8.64494 -0.305152 3.94392 0 0 0
7.96177 -0.134299 3.63461 0 0 0
7.95559 -0.190583 3.61366 0 0 0
8.01111 -0.292258 3.63808 0 0 0
7.90175 -0.139747 3.57646 0 0 0
7.90588 -0.0818899 3.57857 0 0 0
9.22189 -0.607387 4.16316 0 0 0
8.0232 0.478619 3.62077 0 0 0
8.36567 -0.0482206 3.77477 0 0 0
7.46672 0.644113 3.3734 0 0 0
8.05699 -0.264838 3.63984 0 0 0
8.55545 -0.116946 3.85646 0 0 0
7.81675 0.0662942 3.52766 0 0 0
7.44544 0.6653 3.35815 0 0 0
7.88368 0.664466 3.54875 0 0 0
8.05149 0.241751 3.62324 0 0 0
7.95979 -0.14429 3.58597 0 0 0
7.668 0.286599 3.45343 0 0 0
8.10422 0.17702 3.64412 0 0 0
7.65189 0.309427 3.44139 0 0 0
7.95956 -0.0690189 3.58 0 0 0
7.5353 0.54834 3.3878 0 0 0
8.1144 0.162975 3.64358 0 0 0
8.41777 -0.0443094 3.77058 0 0 0
8.39918 -0.136931 3.76192 0 0 0
8.39918 -0.136931 3.76192 0 0 0
8.60511 -0.318664 3.85092 0 0 0
7.17386 -0.259926 3.20858 0 0 0
7.15729 0.88894 3.20126 0 0 0
7.96219 -0.115482 3.56214 0 0 0
7.96219 -0.115482 3.56214 0 0 0
7.74313 0.646786 3.45665 0 0 0
8.08085 -0.241421 3.61027 0 0 0
7.18579 -0.21915 3.20357 0 0 0
8.00525 -0.0415764 3.57591 0 0 0
7.66939 0.610424 3.41696 0 0 0
7.46713 0.664415 3.32651 0 0 0
7.37162 0.66864 3.28067 0 0 0
7.39666 0.699354 3.29163 0 0 0
5.10409 0.471578 2.26825 0 0 0
7.28989 0.678661 3.23949 0 0 0
7.4924 0.573008 3.33167 0 0 0
8.24494 0.178622 3.66318 0 0 0
8.04952 -0.0409177 3.58125 0 0 0
7.15961 0.870546 3.17401 0 0 0
8.09258 -0.0403488 3.5843 0 0 0
7.06411 0.829213 3.12355 0 0 0
7.36959 0.64483 3.25758 0 0 0
9.31251 -0.479049 4.11486 0 0 0
7.10283 0.857699 3.12887 0 0 0
8.17098 -0.0992781 3.59625 0 0 0
8.33787 -0.323259 3.66743 0 0 0
8.2716 0.417883 3.62123 0 0 0
8.22267 -0.106071 3.6 0 0 0
7.98418 0.557973 3.48849 0 0 0
8.40712 -0.296256 3.67295 0 0 0
9.16975 -0.406955 3.99741 0 0 0
8.10609 0.187739 3.52689 0 0 0
9.02227 -0.34591 3.91372 0 0 0
8.39385 0.324965 3.63514 0 0 0
8.01081 0.350441 3.47327 0 0 0
8.0527 0.554277 3.48525 0 0 0
7.92556 0.469897 3.42469 0 0 0
7.4553 0.852231 3.16474 0 0 0
7.77933 0.687648 3.26553 0 0 0
9.77414 0.765309 3.98697 0 0 0
9.71346 0.758493 3.9474 0 0 0
9.34263 0.952218 3.77755 0 0 0
9.33227 0.907216 3.7723 0 0 0
9.33227 0.907216 3.7723 0 0 0
55.0947 -13.0229 21.8709 0 0 0
40.817 -7.73813 15.9351 0 0 0
11.5947 0.838236 4.41893 0 0 0
-0.357192 0.904534 2.01229 0 0 0
5.12687 -16.1746 -37.4976 0 0 0
-0.363779 -0.595367 3.53104 0 0 0
-0.275941 -0.260529 3.01111 0 0 0
-0.163089 0.75652 2.07223 0 0 0
-0.163089 0.75652 2.07223 0 0 0
-0.225164 -0.175648 2.98843 0 0 0
-0.140048 0.702995 2.12058 0 0 0
-0.1359 0.91372 2.03549 0 0 0
-0.131446 0.904782 2.03285 0 0 0
-0.123017 0.705038 2.12107 0 0 0
-0.134144 0.0604415 2.74906 0 0 0
-0.146693 -0.602562 3.00314 0 0 0
-0.353514 -1.34525 7.60116 0 0 0
-0.121143 0.0682954 2.74119 0 0 0
-0.0998004 0.293289 2.56616 0 0 0
-0.0746274 0.586744 2.3346 0 0 0
-0.0655097 -0.271424 2.8253 0 0 0
-0.0476531 0.494641 2.39715 0 0 0
-0.0551269 -0.118047 2.79494 0 0 0
-0.0291039 0.501 2.39248 0 0 0
-0.0291039 0.501 2.39248 0 0 0
-0.13511 -1.07047 20.4625 0 0 0
0.00231659 0.450828 2.42073 0 0 0
0.244924 -1.16682 21.3765 0 0 0
0.0360936 0.0542005 2.71768 0 0 0
0.0359131 -0.348465 2.83347 0 0 0
0.0360511 -0.216395 2.73381 0 0 0
0.0711599 -0.0232245 2.74129 0 0 0
0.0833607 -0.492146 2.84013 100 93 83
0.0632971 0.906747 2.04841 188 179 172
0.0971589 -0.260277 2.77661 220 226 238
0.123017 -0.856596 3.46871 88 86 74
0.11499 -0.0215216 2.72846 130 130 128
0.150049 -0.0673966 2.74675 130 130 128
0.116164 0.720837 2.09305 108 112 115
0.157411 -0.0226784 2.72115 200 195 192
0.173809 -0.121408 2.73229 118 119 113
0.15045 0.667448 2.281 110 111 105
0.157949 0.715011 2.12802 205 204 199
0.267339 -0.0387547 3.07327 125 122 115
0.264753 0.155395 2.56736 220 226 238
0.215028 0.714897 2.12967 222 226 238
0.285091 0.0140098 2.68434 122 122 112
0.2751 0.225527 2.48533 212 212 210
0.278738 0.226646 2.51353 245 246 241
0.279884 0.664252 2.29339 118 120 119
0.30333 0.309647 2.46951 220 216 213
0.251146 0.764879 2.09451 87 87 85
1.67977 4.60129 13.5438 216 213 208
0.36539 0.0870336 2.72161 216 213 208
0.314828 0.670901 2.26536 24 24 22
0.705766 -0.402634 3.07545 225 216 211
2.80184 -1.40473 11.129 30 32 29
0.768585 -0.43149 3.04719 157 152 148
5.55751 -0.0306105 21.6594 112 112 112
0.92039 -0.385579 3.0013 44 45 39
0.9492 -0.423642 2.97874 120 124 127
0.965424 -0.382175 3.0081 218 224 236
2.94142 -1.25527 8.82805 145 143 146
1.0211 -0.417786 2.95219 122 126 127
1.0862 -0.362858 2.96311 215 221 233
1.08271 -0.435938 2.89329 127 133 133
3.16309 -0.920174 7.43757 12 17 11
1.27591 -0.422648 2.86022 213 214 209
1.33701 -0.350205 2.91881 131 133 132
2.90712 -0.848807 6.26336 25 27 24
1.34845 -0.394679 2.905 108 105 96
1.50894 0.0468997 2.74755 128 119 112
1.52368 0.053237 2.74547 130 131 135
1.50648 0.0914716 2.69633 44 46 45
1.635 -0.331105 2.89863 33 34 29
2.82956 0.0584738 4.94345 15 18 11
1.57102 0.0307771 2.74323 178 173 170
1.57399 0.113655 2.70929 176 176 176
1.67528 -0.149427 2.83431 157 159 158
2.14763 -0.244329 3.54718 160 162 161
1.81166 -0.595148 2.97032 210 209 205
1.72963 -0.400024 2.82106 221 221 219
3.01394 0.00492571 4.90263 215 214 209
1.79746 -0.52405 2.91906 223 224 219
1.74596 -0.399995 2.82175 221 221 219
1.75891 -0.415837 2.82132 214 213 208
1.85285 -0.38725 2.74669 206 207 202
3.37265 -1.94971 3.40914 207 208 203
3.57093 -1.78259 3.41009 205 204 199
3.86318 -1.74724 3.54764 142 146 147
4.06159 -1.84968 3.74458 202 198 189
3.78405 -1.51197 3.46387 197 190 180
3.63643 -1.81718 3.32824 201 201 193
3.87518 -1.74886 3.54219 119 119 111
3.5486 -1.8434 3.22346 155 157 156
3.92407 -1.66817 3.54549 118 112 100
3.89194 -1.62919 3.51619 212 211 207
3.90565 -1.68726 3.52684 210 207 200
3.96452 -1.7056 3.54806 210 207 200
3.61698 -1.86976 3.23398 209 209 199
3.61698 -1.86976 3.23398 207 204 197
3.91895 -1.56077 3.49886 207 204 197
4.01334 -1.5972 3.52637 194 194 194
4.12478 -1.7028 3.56545 200 200 198
3.91751 -1.86551 3.38191 218 218 216
4.07521 -1.54392 3.50821 152 151 149
4.09843 -1.5971 3.52762 178 178 178
4.15534 -1.66605 3.55068 178 178 178
4.36427 -1.79004 3.73269 226 226 224
3.96598 -1.86659 3.37881 27 29 24
4.14236 -1.55022 3.52325 40 42 37
4.20949 -1.65641 3.55967 210 209 205
2.69092 -0.964803 2.27588 211 210 206
4.20188 -1.55144 3.52627 147 147 147
4.22762 -1.60064 3.54675 213 212 208
4.27667 -1.70513 3.58214 213 209 206
4.48608 -1.71435 3.75366 208 207 203
4.25466 -1.54726 3.53134 212 211 207
4.26742 -1.57371 3.54162 30 23 15
4.01541 -1.13831 3.33226 27 27 19
4.32013 -1.67633 3.57844 26 25 21
4.14376 -1.89869 3.41285 26 25 21
4.3318 -1.65224 3.56558 63 62 57
4.29326 -1.87954 3.42959 231 223 220
4.29326 -1.87954 3.42959 20 24 23
4.31352 -1.89879 3.43508 35 31 30
4.26183 -1.9279 3.37546 145 140 134
4.71817 -2.00676 3.74877 66 58 55
4.62628 -1.68866 3.61404 87 82 78
4.65394 -1.95326 3.64183 56 59 52
4.70521 -1.94438 3.64153 109 115 115
4.63438 -1.33006 3.56388 109 115 115
4.74761 -2.02328 3.65246 81 78 71
2.63856 -0.758504 1.99991 56 63 56
4.60359 -1.84703 3.46137 27 29 26
4.85963 -1.92558 3.64439 90 91 83
4.82951 -1.56038 3.60603 68 68 58
4.66603 -1.22266 3.48064 74 74 64
4.66603 -1.22266 3.48064 87 82 76
4.84076 -1.56575 3.60412 87 84 77
4.86037 -1.51039 3.58925 93 90 83
4.64134 -1.33435 3.42572 62 65 58
4.92249 -1.60121 3.62434 56 56 54
4.92249 -1.60121 3.62434 68 69 63
4.9483 -1.3518 3.64309 58 51 45
4.97666 -1.89745 3.62241 73 70 65
4.78289 -1.91504 3.456 72 68 57
4.78289 -1.91504 3.456 73 72 68
4.7853 -1.16421 3.45296 71 72 66
5.11967 -1.63968 3.69214 70 73 64
5.05486 -1.62426 3.64172 203 202 197
4.80218 -1.22031 3.45821 64 65 57
5.11532 -1.61182 3.6844 99 97 85
4.87696 -1.83279 3.49608 91 86 80
5.13535 -1.48222 3.69003 120 113 103
5.07602 -1.54919 3.62871 120 113 103
5.07602 -1.54919 3.62871 122 115 107
5.14818 -1.23838 3.66124 118 111 101
5.14818 -1.23838 3.66124 120 111 102
5.06168 -1.9753 3.58864 19 19 11
5.06168 -1.9753 3.58864 120 116 107
5.12468 -1.87052 3.60985 114 110 99
4.95835 -1.90138 3.47001 169 162 152
4.95835 -1.90138 3.47001 115 111 102
5.10504 -1.84843 3.54076 165 158 148
5.10504 -1.84843 3.54076 103 98 94
5.33865 -1.66756 3.68855 81 82 76
5.33865 -1.66756 3.68855 160 153 143
5.26938 -1.58086 3.63775 145 137 126
5.1863 -1.81382 3.54156 145 137 126
5.18572 -1.83472 3.53574 159 150 141
5.38555 -1.27803 3.64232 154 149 143
5.33552 -1.82391 3.5833 146 141 135
5.31324 -1.91725 3.55437 148 148 140
5.51021 -1.46052 3.66004 148 148 140
5.52194 -1.53733 3.63762 104 94 84
5.60596 -1.57481 3.69972 47 39 36
5.63323 -1.62646 3.71561 75 77 72
5.65352 -1.62783 3.72309 75 77 72
5.63269 -1.47686 3.67421 140 143 136
5.72528 -1.64464 3.73138 126 122 113
5.66496 -1.50068 3.68909 126 122 113
5.65415 -1.46952 3.68066 114 115 107
5.59575 -1.54526 3.62813 103 104 98
5.82156 -1.2066 3.6846 28 30 25
5.93306 -1.56571 3.74055 114 115 109
5.44982 0.356405 3.43574 119 116 109
5.71106 -1.12045 3.5884 119 116 109
5.9313 -1.54326 3.7264 122 121 116
5.96654 -1.55227 3.74104 122 121 116
5.69859 -0.966144 3.57511 64 65 60
5.92914 -1.47209 3.71428 64 65 60
5.92914 -1.47209 3.71428 120 119 114
5.89611 -1.23122 3.65835 58 60 57
5.54126 -0.4231 3.33082 58 60 57
5.63863 -0.425705 3.36606 148 149 141
5.9578 -0.819374 3.54872 148 149 141
5.90427 -1.86315 3.49021 107 108 102
5.78618 -0.299249 3.38206 107 108 102
6.19234 -1.27571 3.62003 113 115 110
5.68605 -0.126494 3.31273 102 103 95
6.20333 -1.59208 3.42518 87 88 80
6.19023 -1.56234 3.41486 118 117 112
6.23846 -1.53104 3.41899 96 97 91
6.2613 -1.571 3.43062 45 49 48
6.3244 -1.15095 3.37719 102 103 97
6.17512 -1.74863 3.24237 124 121 112
6.33015 -1.77241 3.3297 124 121 112
6.24505 -1.72653 3.27493 113 114 108
6.88744 -1.70179 3.58253 121 122 116
6.70836 -1.55116 3.48845 110 107 100
6.28158 -1.74335 3.25648 105 108 101
6.43089 -1.76507 3.33931 113 115 110
6.80417 -1.51969 3.49081 132 129 122
6.34747 -1.60412 3.2436 129 130 124
6.62274 -1.6852 3.38809 115 105 95
6.88277 -1.54158 3.50875 119 109 99
6.39501 -1.58928 3.23447 133 109 85
6.43109 -0.267744 3.20663 128 122 110
7.22477 -0.266837 3.56679 118 109 100
7.21339 -0.281388 3.55607 119 111 100
7.10328 0.0152864 3.48683 128 122 110
4.813 -0.177087 2.35718 107 100 90
7.64734 0.0196326 3.71322 107 100 90
7.35964 -0.351828 3.56842 108 99 90
6.91657 -0.26131 3.30565 101 94 86
7.72615 0.0830367 3.69281 0 0 0
6.88269 -0.279783 3.27615 0 0 0
6.97201 -0.24127 3.30626 0 0 0
7.44345 -0.022121 3.53072 0 0 0
7.70002 0.220433 3.64934 0 0 0
7.60901 0.359631 3.58901 0 0 0
7.02324 -0.231833 3.27454 0 0 0
7.03519 -0.244839 3.28708 0 0 0
4.58994 -0.10282 2.13877 0 0 0
7.7017 -0.172397 3.5858 0 0 0
4.63291 -0.211171 2.15315 0 0 0
7.81463 -0.356144 3.63186 0 0 0
8.02404 -0.547153 3.72627 0 0 0
7.82074 -0.285757 3.62935 0 0 0
7.81747 -0.216763 3.62282 0 0 0
7.61887 0.00831978 3.52614 0 0 0
7.75051 -0.111722 3.58542 0 0 0
7.37772 0.471661 3.38922 0 0 0
7.70194 0.0696392 3.53609 0 0 0
7.18395 0.720683 3.28947 0 0 0
7.54849 0.321279 3.44886 0 0 0
7.75458 0.0693653 3.54269 0 0 0
7.79633 0.01748 3.55357 0 0 0
7.12173 0.00810308 3.21339 0 0 0
7.71784 0.160205 3.50604 0 0 0
7.88618 -0.235908 3.57859 0 0 0
7.38308 0.63556 3.34889 0 0 0
7.33567 0.691414 3.32538 0 0 0
7.84698 -0.344934 3.55609 0 0 0
7.38478 0.663306 3.3419 0 0 0
7.91919 -0.22661 3.58027 0 0 0
7.92532 -0.236853 3.58299 0 0 0
7.38432 0.672016 3.33626 0 0 0
7.75574 0.0072877 3.50209 0 0 0
8.21008 -0.537686 3.70661 0 0 0
7.9462 -0.322954 3.58647 0 0 0
7.84578 -0.122828 3.53983 0 0 0
7.1505 -0.256297 3.21231 0 0 0
7.68033 0.159001 3.46305 0 0 0
7.42689 0.640606 3.34418 0 0 0
7.53506 0.473223 3.39123 0 0 0
7.90178 -0.166206 3.55554 0 0 0
7.89289 -0.0950736 3.55128 0 0 0
7.6229 0.258653 3.42982 0 0 0
7.87783 -0.131447 3.53731 0 0 0
7.45271 0.607484 3.34364 0 0 0
7.6505 0.277384 3.42414 0 0 0
7.76364 0.168756 3.4685 0 0 0
7.86348 0.0240289 3.50969 0 0 0
7.38749 0.639817 3.29655 0 0 0
7.92496 -0.162473 3.53505 0 0 0
7.62716 0.374973 3.39892 0 0 0
7.99466 -0.17526 3.55011 0 0 0
8.01568 -0.210873 3.55726 0 0 0
7.50058 0.61937 3.32571 0 0 0
8.01169 -0.161656 3.55013 0 0 0
7.68604 0.311038 3.40595 0 0 0
7.19882 0.772226 3.18546 0 0 0
7.15615 0.847249 3.16045 0 0 0
8.44596 -0.467701 3.71981 0 0 0
8.37277 -0.421689 3.6856 0 0 0
8.01242 0.0229413 3.52082 0 0 0
7.25949 -0.0559491 3.17275 0 0 0
7.87703 0.227205 3.45851 0 0 0
8.26699 -0.278993 3.61752 0 0 0
8.14544 0.00640446 3.55848 0 0 0
8.11641 0.0737529 3.5416 0 0 0
7.41798 0.691308 3.23626 0 0 0
7.41798 0.691308 3.23626 0 0 0
5.19812 0.0137667 2.26554 0 0 0
7.27835 -0.0202895 3.14031 0 0 0
8.32658 -0.302878 3.62572 0 0 0
7.28587 -0.136112 3.13714 0 0 0
8.04629 0.214254 3.49873 0 0 0
8.05737 0.16496 3.50231 0 0 0
8.33087 -0.33087 3.60987 0 0 0
8.33087 -0.33087 3.60987 0 0 0
7.88008 0.48002 3.41428 0 0 0
7.95286 0.34741 3.44435 0 0 0
7.93734 0.382645 3.41058 0 0 0
7.59137 0.689881 3.26173 0 0 0
7.73919 0.730667 3.25964 0 0 0
-0.263184 0.862987 1.98388 0 0 0
-0.234563 0.713451 2.05463 0 0 0
-0.163869 0.752893 2.01949 0 0 0
-0.15484 0.858034 1.99954 0 0 0
-0.0506336 0.27052 2.3504 0 0 0
0.48617 -0.777846 4.47311 0 0 0
-0.0401052 -0.42329 2.39874 0 0 0
0.0414051 -0.129142 2.41673 0 0 0
0.0601323 -0.315044 2.42957 0 0 0
0.254695 0.713809 2.07411 0 0 0
0.403857 -0.425345 2.43897 0 0 0
0.739767 -0.348037 2.73759 0 0 0
6.8606 -0.391534 17.5526 0 0 0
0.922445 -0.362649 2.55296 0 0 0
1.0589 -0.407459 2.69034 0 0 0
1.52709 -0.405709 3.27212 0 0 0
1.62453 -0.168712 2.76471 0 0 0
1.68992 -0.191881 2.77343 0 0 0
1.60872 0.49353 1.99391 0 0 0
1.66926 0.23914 2.03784 0 0 0
1.59107 0.787147 1.93913 0 0 0
1.71702 0.310321 2.03741 0 0 0
3.06625 -2.20484 3.36101 0 0 0
2.26076 0.603713 2.11605 0 0 0
4.38476 -1.82205 3.76798 0 0 0
4.21501 -1.51096 3.56695 0 0 0
3.60032 -2.2202 3.39159 0 0 0
2.83617 -1.67924 2.57069 0 0 0
3.88002 -1.89877 3.26747 0 0 0
4.69613 -1.99406 3.66955 0 0 0
2.4131 -0.787704 2.03488 0 0 0
4.71874 -1.36269 3.58749 0 0 0
4.73009 -1.29083 3.52485 0 0 0
5.99969 -1.77384 3.58257 0 0 0
5.89261 -1.85297 3.52798 0 0 0
5.96594 -1.63251 3.31135 128 128 126
8.02042 -0.370487 3.74451 42 37 34
7.80013 0.331805 3.55386 215 214 209
7.16624 -0.289907 3.15947 151 151 151
4.406 -1.7417 3.75852 200 199 195
4.34997 -2.03637 3.64958 213 220 228
4.50485 -2.00869 3.67552 220 227 235
3.22907 -1.49501 2.60457 179 180 175
4.64367 -2.02254 3.64001 220 227 235
4.80645 -1.96826 3.63646 45 47 42
4.83916 -1.9943 3.61916 217 214 209
4.88824 -1.94918 3.62634 205 201 192
3.30223 -1.26486 2.4126 21 23 18
5.36097 -1.62744 3.67263 212 209 200
5.24351 -1.9332 3.55797 145 135 126
3.58988 -1.16568 2.32675 217 214 207
5.68226 -1.59927 3.62864 209 206 199
3.40871 -0.870889 2.13713 210 209 204
6.97944 -0.252143 3.41823 10 15 9
4.57869 -0.167894 2.14238 164 164 156
7.16905 -0.450522 3.25568 10 12 9
0.841615 -0.185113 4.11146 189 186 179
0.0790406 -0.0911359 1.36481 71 54 46
0.0794049 -0.211228 1.41221 30 31 26
0.353244 -0.262435 1.94356 113 106 96
0.892161 -0.320852 2.61483 23 24 19
2.92423 -2.20736 3.55135 109 105 94
3.0555 -2.02292 3.52059 112 108 96
3.35462 -1.75361 3.4435 72 62 53
3.45675 -2.21939 3.48488 81 80 75
3.92052 -1.57801 3.32342 148 142 128
4.32843 -1.78214 3.76272 169 163 149
4.39736 -2.11541 3.67319 138 134 125
4.50963 -1.72214 3.78457 105 101 90
4.47071 -2.14621 3.67807 113 109 100
4.56132 -1.57155 3.74097 110 106 94
4.62514 -1.97385 3.67375 0 0 0
4.63102 -2.02056 3.67537 0 0 0
4.77323 -1.68182 3.74998 0 0 0
4.74591 -1.67593 3.72435 101 101 91
4.79919 -2.03978 3.63293 102 93 84
4.79919 -2.03978 3.63293 107 103 94
4.95743 -1.50055 3.71126 106 101 95
4.95071 -1.91352 3.63963 122 118 107
5.01681 -1.27652 3.6601 113 109 98
5.06832 -1.52485 3.69073 86 85 80
5.00588 -1.99973 3.61038 82 81 77
5.26968 -2.27464 3.70444 44 46 43
5.15296 -1.96889 3.59141 107 106 102
5.15296 -1.96889 3.59141 48 53 49
5.28856 -2.28111 3.68804 91 91 83
5.17901 -1.86204 3.60971 102 95 85
5.33676 -2.25229 3.685 118 110 99
5.22984 -1.84908 3.60311 0 0 0
5.30179 -1.65179 3.62359 0 0 0
5.27508 -1.83741 3.59355 0 0 0
5.44574 -2.2 3.66631 209 206 199
5.33172 -1.85473 3.5886 208 205 196
5.47956 -2.18494 3.65856 217 214 207
5.50978 -2.21216 3.64341 72 67 61
5.48304 -1.52666 3.6479 73 71 59
5.41274 -1.80911 3.57926 214 216 215
5.52483 -1.45992 3.63633 184 182 183
5.56215 -2.20008 3.63347 186 184 185
5.53718 -1.52526 3.63774 17 23 11
5.50662 -1.78374 3.56497 38 34 23
5.75841 -1.4534 3.58563 71 71 63
5.94112 -1.82894 3.28219 46 42 31
6.29575 -1.93215 3.34421 87 80 72
6.29396 -1.9602 3.33861 87 80 72
6.29396 -1.9602 3.33861 17 19 16
6.15738 -1.6773 3.26188 66 69 60
6.31783 -1.92049 3.33956 86 92 82
6.38261 -1.9046 3.32035 205 206 200
6.22146 -1.66526 3.22785 72 73 65
6.40813 -1.89844 3.3127 64 59 55
6.26503 -1.65508 3.21731 115 102 94
6.40502 -1.45096 3.27863 115 102 94
6.34177 -1.6241 3.19467 25 28 21
6.34516 -1.6844 3.18096 25 28 21
6.34516 -1.6844 3.18096 211 210 206
6.42039 -1.65492 3.19208 162 158 146
6.71677 -0.265157 3.30738 21 22 17
6.76315 -0.249892 3.30187 188 182 170
6.79336 -0.248155 3.31855 136 132 123
6.75971 -0.303334 3.28063 79 80 75
6.88416 -0.300191 3.26108 114 111 104
7.03275 -0.252584 3.2287 114 111 104
7.08239 -0.190809 3.21302 79 80 75
7.18729 -0.189459 3.12715 125 126 120
7.22609 -0.0817435 3.11549 85 74 70
7.23558 -0.0941301 3.11003 111 112 106
6.87794 -0.202559 3.26613 142 142 132
6.93815 -0.241711 3.25454 108 109 103
2.41235 -0.637247 1.78492 122 123 117
5.1375 0.256801 2.82598 116 117 111
6.47746 0.253084 4.0445 98 99 93
6.47215 0.359987 4.04553 88 90 79
6.47155 0.391175 4.05681 135 130 124
6.51765 0.370504 4.03229 110 111 105
6.56781 0.357213 4.01136 115 103 91
6.82206 -0.0354029 3.89448 99 99 91
6.94079 -0.263473 3.56653 141 142 136
6.94681 -0.252817 3.55444 125 121 110
7.06998 -0.315903 3.4928 132 124 113
7.05556 -0.238832 3.31807 0 0 0
7.07703 -0.322492 3.50735 0 0 0
7.06105 -0.245192 3.3096 0 0 0
7.06105 -0.245192 3.3096 0 0 0
