ply
format ascii 1.0 
element vertex 1327
property float32 x 
property float32 y 
property float32 z
property uchar red  
property uchar green
property uchar blue
element face 0
property list uchar int vertex_indices
end_header
2.33153 0.206114 10.7588 0 0 0
2.47314 -0.114524 11.4092 0 0 0
2.39824 0.0730982 11.0568 0 0 0
2.19318 0.592918 10.0976 0 0 0
2.45535 -0.0509608 11.2985 0 0 0
2.20369 0.563231 10.1345 0 0 0
2.44878 -0.0287655 11.2607 0 0 0
2.46477 -0.0723513 11.3336 0 0 0
2.21884 0.527904 10.2017 0 0 0
2.07804 0.891074 9.5475 0 0 0
2.44312 -0.00613801 11.2211 0 0 0
2.41762 0.0548379 11.1026 0 0 0
2.43732 0.0149696 11.1904 0 0 0
2.07857 0.880189 9.54331 0 0 0
2.17992 0.650433 9.99052 0 0 0
2.40569 0.092062 11.0175 0 0 0
2.19323 0.617045 10.0415 0 0 0
2.19842 0.605939 10.0608 0 0 0
2.23008 0.523022 10.2049 0 0 0
2.02651 1.03108 9.26347 0 0 0
2.02651 1.03108 9.26347 0 0 0
2.23291 0.542035 10.2043 0 0 0
2.23291 0.542035 10.2043 0 0 0
2.23804 0.516166 10.224 0 0 0
2.23571 0.529193 10.2112 0 0 0
2.25463 0.485307 10.295 0 0 0
2.25306 0.490794 10.2632 0 0 0
2.20176 0.630836 10.0215 0 0 0
2.06952 0.944482 9.41852 0 0 0
2.09516 0.893615 9.53151 0 0 0
2.40086 0.147138 10.9045 0 0 0
2.40574 0.137537 10.919 0 0 0
2.40574 0.137537 10.919 0 0 0
2.16031 0.774992 9.80122 0 0 0
2.03234 1.04897 9.21956 0 0 0
2.45797 0.0336796 11.1471 0 0 0
2.08155 0.936151 9.43416 0 0 0
2.13273 0.82984 9.65714 0 0 0
2.27121 0.482833 10.2816 0 0 0
2.43301 0.0896534 11.0094 0 0 0
2.25042 0.541189 10.183 0 0 0
2.11413 0.855605 9.56185 0 0 0
2.44879 0.0684996 11.069 0 0 0
2.17292 0.744583 9.81989 0 0 0
2.03618 1.05619 9.20164 0 0 0
2.2332 0.590421 10.0888 0 0 0
2.26749 0.51051 10.2268 0 0 0
2.25895 0.532515 10.1862 0 0 0
2.26358 0.522673 10.2036 0 0 0
2.26358 0.522673 10.2036 0 0 0
2.26662 0.516593 10.2167 0 0 0
2.10892 0.905758 9.49982 0 0 0
2.10053 0.930101 9.45536 0 0 0
2.18564 0.735188 9.83488 0 0 0
2.25497 0.554442 10.1432 0 0 0
2.23809 0.601049 10.065 0 0 0
2.23809 0.601049 10.065 0 0 0
2.24321 0.596436 10.0795 0 0 0
2.24321 0.596436 10.0795 0 0 0
2.26644 0.528242 10.1779 0 0 0
2.12607 0.889919 9.53421 0 0 0
2.27121 0.537323 10.1849 0 0 0
2.2941 0.474881 10.2848 0 0 0
2.07843 1.00325 9.31155 0 0 0
2.24832 0.595421 10.0724 0 0 0
2.24832 0.595421 10.0724 0 0 0
2.06465 1.04267 9.23751 0 0 0
2.25847 0.580667 10.1046 0 0 0
2.15011 0.850661 9.61489 0 0 0
2.12659 0.908393 9.49453 0 0 0
2.27002 0.565589 10.1303 0 0 0
2.15519 0.842197 9.61727 0 0 0
2.16456 0.827668 9.65312 0 0 0
2.13726 0.887378 9.53127 0 0 0
2.12596 0.91346 9.47971 0 0 0
2.07574 1.03525 9.2554 0 0 0
2.26255 0.590837 10.0854 0 0 0
2.20675 0.745188 9.83259 0 0 0
2.16089 0.837641 9.62779 0 0 0
2.1454 0.87726 9.54665 0 0 0
2.28442 0.543531 10.1568 0 0 0
2.27182 0.58321 10.0985 0 0 0
2.29454 0.528497 10.1961 0 0 0
2.17172 0.83329 9.64571 0 0 0
2.30595 0.506101 10.2347 0 0 0
2.1825 0.810535 9.68455 0 0 0
2.16391 0.858202 9.58403 0 0 0
2.06046 1.10089 9.12329 0 0 0
2.27585 0.593921 10.0758 0 0 0
2.22202 0.726664 9.83554 0 0 0
2.29464 0.546312 10.1557 0 0 0
2.29464 0.546312 10.1557 0 0 0
2.21773 0.744228 9.81321 0 0 0
2.25072 0.66084 9.9558 0 0 0
2.31435 0.504988 10.2341 0 0 0
2.28715 0.570547 10.1116 0 0 0
2.30529 0.535297 10.1708 0 0 0
2.09408 1.03829 9.23187 0 0 0
2.09408 1.03829 9.23187 0 0 0
2.15721 0.904342 9.50927 0 0 0
2.18818 0.83694 9.64096 0 0 0
2.11768 0.995547 9.32501 0 0 0
2.19618 0.817275 9.66732 0 0 0
2.1074 1.01667 9.27619 0 0 0
2.18566 0.845033 9.60943 0 0 0
2.17808 0.863563 9.57227 0 0 0
2.1979 0.827421 9.6549 0 0 0
2.07278 1.11753 9.09723 0 0 0
2.33018 0.499655 10.2209 0 0 0
2.30736 0.566719 10.1166 0 0 0
2.24601 0.724189 9.84496 0 0 0
2.32622 0.519782 10.1836 0 0 0
2.30987 0.570923 10.1097 0 0 0
2.22135 0.78911 9.71971 0 0 0
2.27697 0.657712 9.95755 0 0 0
2.31122 0.57535 10.0962 0 0 0
2.31122 0.57535 10.0962 0 0 0
2.31012 0.577051 10.0914 0 0 0
2.24486 0.742388 9.80577 0 0 0
2.24338 0.75003 9.79732 0 0 0
2.0788 1.12803 9.06753 0 0 0
2.0788 1.12803 9.06753 0 0 0
2.33111 0.534264 10.1659 0 0 0
2.33973 0.513229 10.2028 0 0 0
2.23916 0.770301 9.76248 0 0 0
2.24643 0.757748 9.78558 0 0 0
2.23948 0.776739 9.7524 0 0 0
2.31581 0.584049 10.0824 0 0 0
2.23176 0.789969 9.71443 0 0 0
2.23176 0.789969 9.71443 0 0 0
2.08105 1.13845 9.05764 0 0 0
2.34974 0.504764 10.2251 0 0 0
2.32644 0.562736 10.1174 0 0 0
2.12152 1.04442 9.22104 0 0 0
2.1345 1.02087 9.26691 0 0 0
2.13226 1.03102 9.25185 0 0 0
2.32827 0.577575 10.0917 0 0 0
2.23495 0.809071 9.6824 0 0 0
2.3557 0.519433 10.2006 0 0 0
2.22263 0.834709 9.62323 0 0 0
2.22759 0.825223 9.63733 0 0 0
2.26641 0.743812 9.80261 0 0 0
2.35986 0.522625 10.1913 0 0 0
2.37245 0.508964 10.2267 0 0 0
2.2633 0.775856 9.75099 0 0 0
2.2976 0.696825 9.87776 0 0 0
2.29448 0.704027 9.85132 0 0 0
-2.1462 0.774317 9.52964 165 100 44
-2.1462 0.774317 9.52964 165 100 44
-2.08366 0.917977 9.32134 162 97 41
-2.1075 0.780884 9.54281 166 101 43
-2.08286 0.744443 9.57442 175 119 60
-2.07711 0.692264 9.62828 178 123 66
-1.84316 1.08518 9.03478 177 119 56
-2.03432 0.412281 10.0861 154 99 58
-2.03432 0.412281 10.0861 154 99 58
-1.87113 0.895244 9.35578 173 120 68
-1.79895 1.02069 9.1369 167 111 64
-1.795 0.882336 9.36948 175 120 64
-1.8003 0.859354 9.40801 159 108 65
-1.85228 0.70501 9.73949 165 112 62
-1.83168 0.742145 9.64972 164 107 62
-1.88464 0.460272 10.0125 160 108 61
-1.72116 1.00472 9.16856 165 109 58
-1.75407 0.849408 9.42244 174 118 67
-1.98367 0.0745819 10.709 185 125 63
-1.73429 0.880138 9.36921 174 122 64
-1.77785 0.734059 9.66074 165 113 65
-1.82987 0.502601 9.96441 175 120 63
-1.64191 1.11998 8.96536 154 91 38
-1.83608 0.452387 10.0312 171 116 59
-1.70744 0.811403 9.49067 173 118 62
-1.629 1.04171 9.10045 167 114 62
-1.61955 0.872717 9.3784 183 127 68
-1.62108 0.666645 9.78314 183 119 57
-1.56525 0.744922 9.69592 192 132 62
-1.60438 0.419971 10.1559 168 103 49
-1.65548 0.175322 10.5672 184 119 51
-1.50666 0.708544 9.74452 163 110 58
-1.37056 1.1729 8.89155 179 109 40
-1.38889 1.01581 9.1413 179 121 71
-1.39509 0.95371 9.24132 183 144 103
-1.40295 0.887496 9.34857 179 131 82
-1.78896 -0.521668 11.9322 166 95 39
-1.44478 0.71164 9.75687 168 109 53
-1.40539 0.706029 9.77944 209 209 199
-1.30962 1.01054 9.15466 211 211 201
-1.40943 0.639352 9.87504 210 210 200
-1.38805 0.483975 10.1374 211 209 197
-1.37784 0.488768 10.1327 211 211 201
-1.34512 0.500174 10.1301 205 207 193
-1.34512 0.500174 10.1301 205 207 193
-1.32991 0.505032 10.1549 106 109 90
-1.32451 0.50359 10.1391 118 121 102
-1.17202 0.927024 9.29797 210 210 200
-1.23042 0.706501 9.80594 38 38 30
-1.21523 0.693948 9.8184 29 28 24
-1.27541 0.378452 10.3561 192 192 180
-1.27541 0.378452 10.3561 192 192 180
-1.37104 -0.134277 11.2085 212 212 202
-1.33693 -0.000895847 10.9906 204 204 192
-1.1672 0.680614 9.83204 30 29 24
-1.12949 0.792681 9.53459 32 31 26
-0.947983 1.30736 8.6084 116 114 66
-0.972248 1.10053 8.96972 206 206 196
-1.01099 0.903737 9.33451 207 207 195
-0.990551 0.992005 9.17209 210 210 200
-0.97772 0.653103 9.87199 155 159 132
-0.872106 0.819685 9.48355 125 130 110
-0.872106 0.819685 9.48355 125 130 110
-0.879576 0.600202 9.98713 142 146 132
-0.74956 -0.223287 9.5643 214 214 204
-0.510767 1.08508 9.06195 114 116 95
-0.504372 -0.0559719 9.19718 71 68 63
-0.508419 0.704821 9.84581 70 74 60
-0.45561 1.03341 9.18499 88 88 64
-0.433669 -0.301335 9.4323 81 78 71
-0.401826 1.15435 8.96886 88 87 67
-0.406385 -0.222102 9.10178 73 70 63
-0.432573 0.556804 9.73515 59 56 47
-0.353324 0.614727 9.89905 196 194 182
-0.313926 -0.120995 9.24937 65 62 57
-0.303192 -0.133456 9.24276 68 65 60
-0.30078 -0.234693 9.25473 74 71 66
-0.298887 -0.0758647 9.2391 59 54 50
-0.296059 -0.00251524 9.24821 76 72 61
-0.2896 -0.0797791 9.23429 58 55 50
-0.285976 -0.214053 9.23795 74 71 64
-0.284322 -0.0867164 9.23427 62 59 54
-0.284322 -0.0867164 9.23427 62 59 54
-0.27115 -0.090037 9.23003 61 58 53
-0.253636 -0.231036 9.24689 75 72 67
-0.251807 -0.0709177 9.22239 61 61 53
-0.251121 0.327996 9.39317 59 58 40
-0.233066 -0.153719 9.22383 72 68 65
-0.232828 -0.239594 9.25084 75 72 65
-0.229931 -0.28028 9.2868 77 74 69
-0.222628 -0.197914 9.23296 72 69 64
-0.209267 -0.17662 9.22861 77 74 69
-0.208008 -0.0262742 9.20128 75 76 60
-0.200679 -0.000989653 9.1908 60 58 46
-0.193413 -0.28986 9.29887 78 75 70
-0.185279 -0.276914 9.29269 76 73 68
-0.172522 -0.124339 9.207 194 192 177
-0.110608 -0.219902 9.24933 207 207 197
-0.106208 -0.246999 9.27285 164 162 149
-0.0835401 -0.178318 9.21039 216 216 204
-0.0804237 -0.11546 9.15563 208 208 198
-0.0702518 -0.0440241 9.10776 202 202 192
-0.066198 -0.0865125 9.13311 202 202 192
-0.0577609 0.0946745 9.03996 188 189 175
-0.0576977 -0.0708916 9.12062 203 203 193
-0.0487649 -0.201756 9.2189 202 202 192
-0.035769 -0.064198 9.09807 202 202 192
-0.0328559 0.161651 9.0215 193 191 178
-0.0279892 -0.0941528 9.11611 202 202 192
-0.0255292 0.00230047 9.05411 198 198 188
-0.0253122 0.192405 9.02589 183 180 165
-0.0222581 0.101351 9.01493 193 193 183
-0.00862509 -0.0481217 9.07334 202 202 192
-0.00707292 0.11734 9.00515 189 189 179
-0.00700422 0.138203 9.00597 193 193 181
-0.00576719 0.179388 9.00894 187 188 174
0.00198884 0.324882 9.08794 162 159 144
0.015147 0.0553204 9.01544 200 200 190
0.0205876 0.130765 8.99415 195 195 185
0.0205876 0.130765 8.99415 195 195 185
0.0271873 -0.209412 9.20088 204 204 194
0.0313797 0.185853 8.99379 198 198 186
0.0345359 0.216301 9.00345 193 191 178
0.0366041 0.209805 9.00015 193 193 181
0.0375197 0.11745 8.98505 200 200 188
0.0384138 -0.0753716 9.07381 203 203 193
0.0455429 0.0134042 9.02003 191 191 181
0.0508729 -0.0618693 9.05762 202 203 189
0.0508729 -0.0618693 9.05762 202 203 189
0.0535424 0.138111 8.98005 154 155 141
0.055038 0.175242 8.9879 177 174 167
0.0553768 -0.0270605 9.03714 204 203 183
0.0747545 0.172322 8.97803 210 208 196
0.0804544 0.0696063 8.98535 200 200 190
0.0831482 -0.0820278 9.05634 204 201 194
0.0861747 0.115065 8.97354 180 180 170
0.0886439 0.221875 8.98019 200 200 190
0.0923444 0.0792632 8.9785 210 212 191
0.0937071 -0.0788138 9.05064 161 160 139
0.0964943 0.0193357 8.98665 128 128 120
0.098709 0.0305973 8.98547 194 193 189
0.0995162 0.229725 8.97905 204 204 194
0.100168 0.135398 8.97235 210 208 195
0.102678 0.0881702 8.97073 192 190 178
0.106664 0.185547 8.96639 175 172 163
0.111053 0.0159034 8.98501 191 191 183
0.112117 0.137797 8.96616 186 184 172
0.11442 0.191636 8.96725 184 181 172
0.120381 0.188624 8.96465 172 169 160
0.124797 0.13433 8.96007 199 199 191
0.131988 0.183514 8.9599 198 199 191
0.141031 0.223525 8.96411 210 210 200
0.141699 0.214263 8.96226 212 212 202
0.145293 0.126634 8.9439 204 204 196
0.149829 -0.0356326 8.99041 206 208 197
0.158412 0.176407 8.95051 209 207 195
0.16729 0.255069 8.96021 210 210 200
0.169078 0.276991 8.96165 208 208 198
0.180434 0.229402 8.94793 176 174 161
0.185358 -0.134306 9.05765 207 205 184
0.185841 0.0557699 8.90469 184 182 169
0.190566 0.232687 8.94551 220 217 212
0.191826 0.218112 8.9394 207 205 193
0.192437 0.211758 8.93794 185 183 171
0.198444 -0.0951609 9.01466 211 209 197
0.19668 0.185373 8.92938 206 207 193
0.295503 -0.9672 12.9855 146 143 134
0.204276 -0.0426145 8.96359 199 199 187
0.215273 0.960897 9.30344 86 88 67
0.224699 -0.129363 9.03591 210 207 198
0.224952 0.214575 8.92137 188 186 171
0.242056 -0.167461 9.04951 195 195 171
0.240294 0.38744 8.97089 210 210 200
0.247249 -0.141986 9.03318 200 200 198
0.246604 0.0889588 8.8861 212 212 202
0.27296 0.996148 9.321 84 80 68
0.267432 0.195646 8.90033 212 213 205
0.276564 0.738751 9.13764 208 208 198
0.274001 0.215004 8.90468 205 205 193
0.276437 0.448135 8.97984 208 208 198
0.275241 0.148634 8.88937 214 211 202
0.277949 0.356084 8.94776 212 212 202
0.277949 0.356084 8.94776 212 212 202
0.285206 0.787074 9.17575 209 209 199
0.285206 0.787074 9.17575 209 209 199
0.280886 -0.105099 8.99382 202 200 188
0.280886 -0.105099 8.99382 202 200 188
0.281797 0.076842 8.89243 175 172 157
0.281925 0.141488 8.88876 146 140 128
0.282608 0.21275 8.90474 184 184 174
0.283575 0.184408 8.89737 204 204 194
0.283575 0.184408 8.89737 204 204 194
0.285401 0.0145792 8.91489 194 192 180
0.288845 0.278226 8.91777 213 210 201
0.288845 0.278226 8.91777 213 210 201
0.298439 -0.0943253 8.98427 220 220 212
0.299183 0.0841218 8.89706 213 211 198
0.310157 0.793369 9.18011 211 208 199
0.302144 0.326767 8.92634 211 208 199
0.302144 0.326767 8.92634 211 208 199
0.308554 0.0215391 8.92268 213 213 201
0.316689 0.747961 9.14384 213 210 201
0.309204 0.0700123 8.90423 154 152 139
0.329235 0.951517 9.40924 206 203 194
0.311382 0.21057 8.89353 214 211 204
0.316275 0.291982 8.9138 213 210 201
0.316523 0.0561114 8.91183 165 165 157
0.321774 0.500455 9.00927 205 205 195
0.317884 0.154626 8.89707 209 210 202
0.323184 0.204829 8.89055 217 214 195
0.332497 0.739991 9.13672 211 208 199
0.324481 0.17812 8.89141 215 209 195
0.330613 0.206848 8.89222 116 112 101
0.333734 0.0413717 8.92183 217 214 205
0.336874 -0.100785 8.99103 216 212 201
0.342311 0.194142 8.8922 201 202 194
0.358261 0.170351 8.89315 214 214 206
0.358261 0.170351 8.89315 214 214 206
0.362437 0.0990298 8.91284 231 227 224
0.363731 0.135732 8.90224 201 197 198
0.363479 0.182871 8.89192 199 198 193
0.36429 0.32477 8.91086 211 208 199
0.367446 0.319215 8.91967 213 210 201
0.368115 0.0673124 8.92152 211 208 199
0.371341 -0.0577715 8.96995 210 209 204
0.37257 0.152247 8.89767 211 209 197
0.374502 0.134121 8.89976 212 211 193
0.374766 0.175001 8.89793 214 213 193
0.380801 0.0293407 8.94013 219 220 204
0.399606 0.986812 9.35456 208 208 198
0.388117 -0.0819919 8.98592 197 193 192
0.386971 0.202025 8.8947 177 179 176
0.393344 -0.0724072 8.97869 212 212 200
0.393344 -0.0724072 8.97869 212 212 200
0.393707 0.398647 8.94263 212 209 200
0.395786 -0.0782902 8.98428 215 215 205
0.395873 -0.0248574 8.96076 221 220 200
0.393835 0.318535 8.91154 214 211 202
0.401145 -0.115248 9.00542 216 213 198
0.39855 0.17768 8.9025 203 200 191
0.400386 0.27878 8.90442 192 188 176
0.401518 0.338159 8.9188 211 211 201
0.406981 0.0331716 8.94334 216 215 210
0.407416 0.134222 8.91737 208 204 192
0.421595 0.0553429 8.94068 157 154 145
0.455946 0.862407 9.57689 212 209 200
0.433151 1.19844 8.92469 212 209 200
0.43412 0.159212 8.9131 211 211 199
0.435667 0.127749 8.92218 215 213 201
0.440826 -0.0131944 8.97053 211 211 201
0.47476 0.897311 9.51835 211 208 199
0.483652 0.856021 9.5901 213 210 201
0.483652 0.856021 9.5901 213 210 201
0.457427 0.212845 8.90871 212 209 200
0.50088 0.901048 9.50891 213 210 201
0.479812 0.155923 8.92476 211 208 199
0.481478 0.073273 8.95393 212 212 204
0.482213 0.0922513 8.94871 211 211 201
0.486676 0.192452 8.9186 213 210 201
0.48745 0.187049 8.92073 212 209 200
0.491274 0.126848 8.93612 216 213 204
0.538919 0.746212 9.79111 215 212 203
0.499479 0.255705 8.92918 213 211 199
0.502886 0.0265772 8.97209 215 212 203
0.511027 0.16965 8.92884 213 210 201
0.511027 0.16965 8.92884 213 210 201
0.513386 0.123362 8.94403 215 212 203
0.51297 0.19381 8.92643 213 210 201
0.51297 0.19381 8.92643 213 210 201
0.517783 0.185821 8.93103 213 210 201
0.548672 0.969327 9.38533 211 208 201
0.526274 0.206217 8.93452 213 210 201
0.529133 0.238668 8.93712 212 209 200
0.529133 0.238668 8.93712 212 209 200
0.57553 0.797264 9.70809 216 213 204
0.532045 0.099575 8.95546 215 212 203
0.531977 0.233018 8.9343 214 211 202
0.544869 0.160113 8.94505 212 210 198
0.545424 0.234279 8.94095 214 211 202
0.545424 0.234279 8.94095 214 211 202
0.549647 0.0390982 8.97617 215 212 203
0.549234 0.177903 8.94785 213 211 199
0.559596 0.18996 8.94843 215 212 203
0.562705 0.213834 8.95093 217 214 205
0.567744 0.190621 8.95809 214 212 200
0.568724 0.176443 8.95887 212 209 200
0.568724 0.176443 8.95887 212 209 200
0.590818 0.212873 8.97156 212 209 200
0.754096 -0.0505307 11.2554 212 209 200
0.62002 1.0459 9.24372 217 215 203
0.622427 1.06665 9.20687 214 211 202
0.607982 0.190804 8.97748 214 211 202
0.765763 -0.0826395 11.2945 210 207 198
0.617049 0.26867 9.01234 212 209 200
0.9114 -1.00722 13.0282 215 212 203
0.657991 0.962542 9.39854 214 211 202
0.632261 0.158103 8.97483 212 209 200
0.785232 0.05503 11.0833 211 208 199
0.817052 -0.0486742 11.2391 212 209 200
0.656521 0.230326 8.97818 172 168 159
0.660233 0.241501 8.98106 209 202 194
0.694417 0.965313 9.4037 216 213 204
0.820705 0.0404695 11.1038 210 204 192
0.672984 0.228578 8.98627 215 209 197
0.678016 0.258821 8.98499 182 180 167
0.854568 0.212662 10.8073 0 0 0
0.744334 0.802908 9.39951 0 0 0
0.744334 0.802908 9.39951 0 0 0
0.763938 0.893852 9.39999 0 0 0
0.763938 0.893852 9.39999 0 0 0
0.762973 0.814427 9.38758 0 0 0
0.762973 0.814427 9.38758 0 0 0
0.903364 0.0399403 11.0906 0 0 0
0.74161 0.548541 9.08971 0 0 0
0.972437 -0.374085 11.8892 0 0 0
0.909459 0.0470756 11.0828 0 0 0
0.772597 0.882809 9.39628 0 0 0
0.777119 0.901488 9.39773 0 0 0
0.773994 1.06445 9.17661 0 0 0
0.803605 0.892523 9.40452 0 0 0
0.943848 0.182562 10.8678 0 0 0
1.02582 -0.257279 11.6706 0 0 0
1.02212 0.0629652 11.0685 0 0 0
0.927393 0.663075 9.97854 0 0 0
1.14701 -0.382764 11.8433 0 0 0
0.92438 0.889768 9.53444 0 0 0
1.17392 -0.463082 11.9473 0 0 0
1.17392 -0.463082 11.9473 0 0 0
0.954968 0.804262 9.6911 0 0 0
1.26952 -0.856303 12.8033 0 0 0
1.17991 -0.428133 11.8902 0 0 0
1.1797 -0.271856 11.6499 0 0 0
1.04364 0.432668 10.2682 0 0 0
1.12549 0.0711254 11.064 0 0 0
1.19187 -0.302098 11.6916 0 0 0
1.19187 -0.302098 11.6916 0 0 0
1.04576 0.464728 10.2341 0 0 0
1.20197 -0.321369 11.6978 0 0 0
1.04137 0.634378 10.0104 0 0 0
1.03795 0.680499 9.95344 0 0 0
1.03795 0.680499 9.95344 0 0 0
1.08068 0.647446 9.99141 0 0 0
1.12304 0.428929 10.2698 0 0 0
1.2899 0.036415 11.0794 0 0 0
1.27864 0.0922283 10.9765 0 0 0
1.1748 0.607989 10.0485 0 0 0
1.15182 0.718663 9.83481 0 0 0
1.29219 0.0730255 11.0214 0 0 0
1.29219 0.0730255 11.0214 0 0 0
1.43909 -0.458313 12.0557 0 0 0
1.31336 0.137118 10.8794 0 0 0
1.32208 0.102665 10.9475 0 0 0
1.44274 -0.387849 11.9246 0 0 0
1.47529 -0.480647 12.1027 0 0 0
1.34226 0.0705464 10.9818 0 0 0
1.21825 0.764483 9.75332 0 0 0
1.50961 -0.3055 11.77 0 0 0
1.3296 0.398426 10.3113 0 0 0
1.54377 -0.306303 11.7717 0 0 0
1.42389 0.169517 10.778 0 0 0
1.45155 0.106393 10.8559 0 0 0
1.51701 -0.0459822 11.237 0 0 0
1.46013 0.169529 10.7643 0 0 0
1.40148 0.416059 10.3072 0 0 0
1.47101 0.140568 10.7871 0 0 0
1.47011 0.164446 10.7494 0 0 0
1.47151 0.171551 10.7411 0 0 0
1.68407 -0.575571 12.2885 0 0 0
1.54775 0.0417085 11.039 0 0 0
1.53584 0.0898112 10.9284 0 0 0
1.66293 -0.320008 11.7998 0 0 0
1.56769 0.0356962 11.0564 0 0 0
1.56769 0.0356962 11.0564 0 0 0
1.46721 0.406081 10.3169 0 0 0
1.46721 0.406081 10.3169 0 0 0
1.55352 0.0982187 10.9136 0 0 0
1.53847 0.146796 10.8055 0 0 0
1.75336 -0.566613 12.2769 0 0 0
1.4789 0.371237 10.3447 0 0 0
1.4789 0.371237 10.3447 0 0 0
1.48434 0.441268 10.283 0 0 0
1.56934 0.176262 10.749 0 0 0
1.87741 -0.872387 12.8339 0 0 0
1.57103 0.194258 10.7139 0 0 0
1.8965 -0.894006 12.8649 0 0 0
1.45587 0.752479 9.72734 0 0 0
1.8135 -0.402916 11.9444 0 0 0
1.51464 0.665822 9.89116 0 0 0
1.98196 -0.94332 12.9317 0 0 0
1.98196 -0.94332 12.9317 0 0 0
1.69516 0.0492792 11.0513 0 0 0
1.51979 0.668404 9.88576 0 0 0
1.68457 0.187673 10.7536 0 0 0
1.60634 0.562793 10.1406 0 0 0
1.81332 -0.0148096 11.1835 0 0 0
1.81266 -0.0192831 11.1789 0 0 0
1.75385 0.417077 10.3369 0 0 0
1.8901 0.1345 10.8759 0 0 0
1.94634 0.0213544 11.118 0 0 0
1.88483 0.199737 10.74 0 0 0
1.94739 0.223489 10.6805 0 0 0
1.92102 0.37596 10.4027 0 0 0
1.89738 0.546357 10.1349 0 0 0
1.98142 0.32453 10.4373 0 0 0
1.99113 0.313802 10.4519 0 0 0
2.02382 0.345652 10.4333 0 0 0
2.07659 0.242496 10.654 0 0 0
1.9891 0.551628 10.1475 0 0 0
1.99845 0.568736 10.1112 0 0 0
2.00009 0.579597 10.0888 0 0 0
1.93271 0.811309 9.66541 0 0 0
1.9626 0.812042 9.65719 0 0 0
1.9628 0.813311 9.64782 0 0 0
2.13111 0.30617 10.471 0 0 0
2.17209 0.320007 10.4493 0 0 0
2.03485 0.776011 9.72745 0 0 0
2.18464 0.336806 10.4363 0 0 0
2.15071 0.545353 10.1618 0 0 0
2.14519 0.608713 10.0489 0 0 0
2.21507 0.488225 10.263 0 0 0
2.22818 0.480793 10.2746 0 0 0
2.19747 0.577101 10.1025 0 0 0
2.24361 0.511172 10.2108 0 0 0
2.24299 0.532488 10.1717 0 0 0
-1.97842 1.06124 9.04211 163 94 35
-2.26911 0.63654 9.83964 166 98 35
-1.9932 1.03694 9.0885 161 92 35
-1.98298 1.04713 9.06499 163 94 37
-1.98298 1.04713 9.06499 163 94 37
-2.15433 0.741734 9.53766 157 86 30
-2.05913 0.932106 9.296 162 96 35
-2.90294 -0.379636 11.6291 161 84 30
-2.78417 -0.183351 11.3132 149 86 42
-2.89964 -0.387158 11.657 160 80 27
-2.1284 0.752065 9.53781 174 105 36
-1.98364 1.00128 9.16731 167 99 36
-2.12187 0.738654 9.55627 180 113 34
-2.87177 -0.364389 11.662 156 75 30
-2.09565 0.777308 9.53668 177 111 35
-2.84707 -0.349363 11.6306 154 75 32
-1.94683 1.01812 9.13342 167 102 44
-2.83852 -0.333575 11.6103 151 72 29
-1.84952 1.16609 8.86475 164 98 40
-1.84952 1.16609 8.86475 164 98 40
-1.89783 1.09153 9.01432 159 92 40
-2.08916 0.755912 9.54964 162 94 31
-2.08916 0.755912 9.54964 162 94 31
-2.17673 0.604226 9.79504 171 109 32
-2.09917 0.702516 9.60116 173 106 35
-1.66579 1.40138 8.41435 164 98 40
-1.67418 1.39351 8.44035 164 98 40
-1.67418 1.39351 8.44035 164 98 40
-1.7907 1.22162 8.76939 163 98 40
-1.7907 1.22162 8.76939 163 98 40
-1.65185 1.41425 8.39272 167 98 41
-2.06334 0.777126 9.5504 174 108 30
-1.82271 1.16381 8.8788 166 100 39
-2.07162 0.737258 9.57189 179 117 34
-1.78156 1.22093 8.7733 164 99 41
-1.84167 1.1252 8.94552 172 111 46
-1.65233 1.4044 8.41967 161 94 41
-1.65233 1.4044 8.41967 161 94 41
-1.65715 1.39687 8.43513 162 95 42
-1.65715 1.39687 8.43513 162 95 42
-1.94127 0.957662 9.25184 168 109 53
-1.64035 1.41365 8.40393 164 97 42
-1.97777 0.89601 9.35814 171 102 33
-1.97777 0.89601 9.35814 171 102 33
-1.78233 1.20253 8.81046 162 100 41
-1.65071 1.39559 8.43872 161 93 44
-1.65408 1.38877 8.45098 159 97 40
-2.06245 0.706537 9.60841 178 112 34
-2.79915 -0.384482 11.7002 149 75 28
-1.63983 1.40319 8.42492 163 97 39
-1.85932 1.06934 9.05706 178 120 57
-1.85932 1.06934 9.05706 178 120 57
-1.76247 1.21904 8.78387 166 104 43
-1.76005 1.20852 8.79211 175 114 51
-1.77995 1.18117 8.85182 181 120 53
-1.80215 1.14591 8.91503 180 121 53
-2.2256 0.427899 10.1109 169 101 26
-1.95232 0.900508 9.34467 169 110 42
-2.70828 -0.291701 11.495 137 68 39
-2.1133 0.560347 9.8094 154 89 31
-1.85148 1.04909 9.09142 177 118 58
-1.80374 1.12366 8.9575 175 113 56
-1.80374 1.12366 8.9575 175 113 56
-2.01048 0.778173 9.56589 175 108 37
-2.01048 0.778173 9.56589 175 108 37
-1.87855 0.990041 9.19439 181 122 56
-2.78008 -0.419289 11.7738 160 84 32
-2.76471 -0.395596 11.7371 157 81 32
-2.42182 0.0917917 10.7641 165 94 40
-1.71411 1.24134 8.74709 183 124 64
-1.91519 0.904381 9.33695 175 114 51
-1.74643 1.18039 8.86097 174 114 54
-1.99073 0.786514 9.5685 169 104 40
-2.7283 -0.384626 11.6933 163 86 32
-1.76119 1.15062 8.91873 177 117 55
-2.12763 0.481034 9.96754 166 97 28
-1.85258 0.972186 9.21808 179 115 54
-1.79988 1.06477 9.0679 179 119 59
-2.73305 -0.433679 11.7602 159 84 29
-2.73305 -0.433679 11.7602 159 84 29
-1.88449 0.913656 9.31905 169 108 51
-1.66385 1.26968 8.69329 177 121 62
-1.6832 1.2341 8.76807 174 123 58
-1.89494 0.878884 9.3805 158 97 40
-1.58166 1.38141 8.47985 176 119 64
-1.68754 1.21197 8.80327 183 125 62
-1.56688 1.3917 8.46647 177 118 62
-1.96675 0.722703 9.62934 162 97 33
-2.51065 -0.167841 11.2322 159 101 55
-1.55713 1.39625 8.46387 174 118 61
-1.79929 0.997662 9.17723 160 99 42
-1.94385 0.752578 9.60844 163 93 31
-1.69928 1.1527 8.90948 178 118 55
-1.69928 1.1527 8.90948 178 118 55
-2.24828 0.223884 10.5194 135 65 29
-1.56153 1.36103 8.51547 180 124 67
-1.56874 1.34995 8.54648 180 124 67
-1.93415 0.744302 9.62068 172 105 35
-1.92245 0.772226 9.59598 165 97 32
-1.55519 1.36294 8.52363 180 124 67
-1.52605 1.41131 8.43984 177 122 65
-1.81411 0.933842 9.28584 171 112 54
-1.53054 1.40306 8.45412 178 123 66
-1.56341 1.34707 8.5528 181 125 68
-1.53075 1.39457 8.46673 178 122 65
-2.07209 0.424109 10.0597 146 83 29
-1.55963 1.34155 8.56396 179 122 67
-1.51807 1.40504 8.45482 179 123 66
-1.51807 1.40504 8.45482 179 123 66
-1.52323 1.39512 8.47066 179 120 64
-1.76428 0.991659 9.18346 166 107 47
-1.76428 0.991659 9.18346 166 107 47
-1.55091 1.34737 8.55987 178 121 66
-1.51554 1.40234 8.46031 180 121 65
-1.55004 1.33977 8.5708 178 118 66
-1.82419 0.871756 9.38028 161 98 44
-1.53676 1.35846 8.53476 180 120 66
-1.52005 1.38512 8.48768 178 119 61
-1.51531 1.39331 8.47548 179 120 64
-1.83437 0.853507 9.42225 162 99 45
-1.53927 1.35504 8.55085 178 118 64
-1.50482 1.40825 8.45036 182 123 65
-1.7082 1.0702 9.05474 168 112 55
-2.43473 -0.162449 11.2086 164 97 45
-1.83467 0.842851 9.4372 161 100 45
-1.526 1.3607 8.52864 178 118 64
-1.526 1.3607 8.52864 178 118 64
-1.51435 1.37482 8.49536 174 114 60
-2.25503 0.109624 10.6899 141 76 36
-1.53319 1.35165 8.55653 179 123 66
-1.5319 1.34582 8.55975 179 123 66
-1.49619 1.40435 8.4606 179 120 64
-2.00643 0.481576 9.96747 151 84 31
-1.83496 0.825253 9.46785 152 89 46
-1.50496 1.38508 8.49045 176 120 63
-1.60154 1.22211 8.78673 169 112 59
-1.52497 1.34661 8.56344 169 115 55
-1.51463 1.36227 8.53387 174 120 60
-1.81992 0.840513 9.4428 146 84 43
-1.48835 1.40523 8.45745 181 122 66
-1.48835 1.40523 8.45745 181 122 66
-1.67599 1.08451 9.01949 165 107 57
-2.03319 0.41256 10.083 166 92 27
-2.03319 0.41256 10.083 166 92 27
-1.49829 1.38238 8.49958 176 123 55
-1.74168 0.963165 9.22679 157 94 50
-2.12571 0.283558 10.37 159 93 35
-2.57216 -0.422901 11.7143 157 87 28
-1.81461 0.835348 9.45046 143 84 44
-1.50768 1.35738 8.54435 153 98 44
-1.49055 1.38496 8.49488 168 114 54
-1.57679 1.24258 8.75943 167 110 55
-1.56627 1.25147 8.73694 168 111 56
-2.57014 -0.451099 11.7475 169 99 29
-1.69522 1.0234 9.12587 164 104 52
-1.47722 1.39174 8.48666 153 97 48
-1.9917 0.454392 10.0254 171 102 33
-1.72059 0.960051 9.23191 141 87 51
-1.47621 1.38679 8.5033 161 105 58
-1.7917 0.834139 9.45126 149 91 45
-1.80585 0.811761 9.49614 142 83 39
-1.61906 1.13048 8.94584 169 114 57
-2.55173 -0.458245 11.7571 173 104 35
-2.55173 -0.458245 11.7571 173 104 35
-1.48469 1.3541 8.55371 164 111 61
-1.48174 1.35695 8.55133 164 111 61
-1.91798 0.554645 9.85907 167 100 32
-1.8336 0.76738 9.61975 159 99 49
-1.8336 0.76738 9.61975 159 99 49
-1.48566 1.3488 8.57089 163 110 60
-1.84115 0.740592 9.6462 159 100 44
-1.77387 0.831649 9.45298 152 94 46
-1.77387 0.831649 9.45298 152 94 46
-1.44603 1.39914 8.47497 165 112 62
-1.45532 1.38045 8.50722 165 112 62
-1.83046 0.742625 9.64676 164 105 47
-1.44097 1.40406 8.46633 166 112 65
-1.76801 0.826682 9.46357 163 103 49
-1.47277 1.3471 8.56972 164 111 61
-1.86572 0.630502 9.75774 172 112 50
-1.94905 0.456876 10.0089 157 88 31
-1.46359 1.36047 8.54807 163 110 60
-1.7712 0.82013 9.48354 163 103 49
-2.23195 -0.00289698 10.8845 168 99 42
-1.5772 1.15526 8.90011 161 110 57
-1.6984 0.934589 9.27076 154 98 49
-2.07814 0.232532 10.4217 162 96 35
-1.44743 1.37015 8.51598 166 113 61
-1.4414 1.38457 8.50218 161 109 61
-1.4414 1.38457 8.50218 161 109 61
-1.45793 1.35618 8.55384 167 112 58
-1.76017 0.818618 9.47545 158 98 48
-1.42796 1.39915 8.47629 158 105 63
-1.42328 1.3964 8.48369 161 109 61
-1.4165 1.40557 8.46254 160 108 61
-1.89098 0.532027 9.90642 157 88 31
-2.50563 -0.48364 11.797 170 102 41
-1.72918 0.845763 9.42308 157 94 40
-1.82333 0.6778 9.71326 158 102 51
-1.5147 1.23336 8.77676 168 113 56
-1.81906 0.682805 9.70913 157 102 48
-1.41479 1.40108 8.47474 165 112 60
-1.48937 1.27114 8.70637 167 111 62
-1.8002 0.726318 9.65965 166 110 53
-2.2019 -0.00595532 10.8947 170 98 39
-1.42531 1.36787 8.52786 180 121 63
-1.40814 1.39667 8.48236 175 120 64
-2.47201 -0.459527 11.7547 160 99 34
-2.50095 -0.503818 11.8485 160 92 31
-1.73533 0.810977 9.49335 167 105 48
-1.41076 1.38276 8.50591 177 121 64
-2.14277 0.0616846 10.7639 167 96 40
-1.63587 0.96854 9.21477 171 111 49
-1.77566 0.734584 9.65546 166 107 51
-1.58094 1.05602 9.05526 158 97 50
-1.39293 1.3969 8.48071 172 116 59
-1.39293 1.3969 8.48071 172 116 59
-1.40703 1.37217 8.52444 181 125 68
-1.40703 1.37217 8.52444 181 125 68
-1.77463 0.728353 9.66939 169 110 52
-1.4101 1.36218 8.54517 176 120 63
-1.39963 1.37668 8.51669 178 122 65
-1.75651 0.764017 9.63631 162 102 48
-1.38931 1.38741 8.49474 174 118 61
-1.39236 1.3776 8.51206 175 119 62
-1.39236 1.3776 8.51206 175 119 62
-1.80499 0.610098 9.79274 172 112 49
-2.27183 -0.18749 11.2492 144 86 40
-1.37619 1.40037 8.47393 174 117 62
-1.54284 1.09452 8.997 175 119 62
-1.66881 0.860812 9.39493 162 102 48
-1.60029 0.983194 9.18402 180 121 51
-1.70282 0.804568 9.50389 161 101 41
-1.63271 0.919173 9.29485 158 101 48
-1.63271 0.919173 9.29485 158 101 48
-1.38244 1.37635 8.51802 177 118 62
-2.12424 0.018967 10.8322 169 104 46
-2.12424 0.018967 10.8322 169 104 46
-1.66298 0.856614 9.40291 163 103 49
-2.42785 -0.485001 11.8054 177 111 37
-1.47079 1.2059 8.81583 175 119 58
-1.68174 0.815224 9.48128 172 114 50
-1.68174 0.815224 9.48128 172 114 50
-1.55904 1.01978 9.12274 158 102 53
-2.07309 0.0699424 10.7348 165 101 39
-1.3572 1.37553 8.51354 183 124 64
-1.64693 0.839615 9.42561 165 107 43
-1.67404 0.801994 9.51733 168 104 42
-1.56388 0.988518 9.17573 165 105 51
-1.56388 0.988518 9.17573 165 105 51
-1.46221 1.18367 8.86212 176 122 60
-1.34541 1.37927 8.5077 175 118 63
-1.78784 0.544593 9.90039 177 111 37
-1.58848 0.926956 9.27603 171 112 52
-1.7556 0.619006 9.80991 178 118 48
-2.09361 -0.00637033 10.8775 182 110 38
-1.33834 1.38459 8.49914 170 115 61
-1.33826 1.37126 8.5045 161 109 59
-1.57487 0.934867 9.26311 169 111 48
-2.40053 -0.514313 11.8874 150 88 31
-2.40053 -0.514313 11.8874 150 88 31
-1.32334 1.39111 8.47456 160 108 61
-1.32334 1.39111 8.47456 160 108 61
-1.49705 1.07922 9.02825 162 110 53
-1.75784 0.583437 9.8677 177 111 37
-1.33625 1.36273 8.53186 166 113 63
-1.33596 1.35701 8.5326 169 113 62
-1.77249 0.534652 9.92791 165 97 34
-1.32943 1.37481 8.53239 171 115 64
-2.06006 0.00767607 10.8549 144 82 33
-1.47989 1.07885 9.02851 169 113 56
-1.5945 0.874634 9.39805 151 95 48
-1.32397 1.35904 8.54032 176 122 62
-1.59043 0.856696 9.39471 165 105 42
-1.59043 0.856696 9.39471 165 105 42
-1.31547 1.35935 8.53787 172 117 63
-1.30655 1.3693 8.51725 170 114 65
-1.29563 1.38866 8.48848 166 117 59
-1.98563 0.0748942 10.7135 148 80 33
-1.98563 0.0748942 10.7135 148 80 33
-1.30883 1.35791 8.54598 170 115 59
-1.98512 0.07482 10.7121 148 80 33
-1.66603 0.720429 9.70279 180 117 50
-1.66603 0.720429 9.70279 180 117 50
-1.29389 1.3802 8.50608 166 113 63
-1.28792 1.3859 8.48867 168 115 65
-1.29549 1.37498 8.51726 166 112 65
-1.29955 1.36458 8.5349 164 111 59
-1.38058 1.19437 8.84257 169 112 57
-2.1562 -0.260643 11.3815 165 99 38
-1.56561 0.821434 9.46815 171 107 46
-1.50067 0.939535 9.25778 173 109 48
-2.29918 -0.501319 11.8608 175 107 36
-1.41755 1.09184 8.99545 158 102 51
-1.55481 0.832878 9.44487 169 105 41
-1.54533 0.837678 9.43723 169 104 48
-1.25274 1.37599 8.50636 168 112 61
-1.26285 1.3588 8.54068 173 117 60
-1.53783 0.836541 9.4394 168 103 45
-1.53783 0.836541 9.4394 168 103 45
-1.5337 0.83917 9.4427 173 109 47
-1.5337 0.83917 9.4427 173 109 47
-1.45421 0.984024 9.18769 181 121 51
-1.64454 0.632239 9.8146 178 121 52
-1.93552 0.0504715 10.7734 171 100 34
-1.24374 1.3725 8.51232 178 119 61
-1.51016 0.864868 9.38915 176 111 43
-2.02342 -0.117477 11.1074 186 117 40
-1.23288 1.37486 8.50791 175 120 63
-1.24022 1.36288 8.53275 177 122 58
-1.23293 1.35981 8.53619 174 120 60
-1.4719 0.896275 9.32572 168 108 46
-1.22576 1.36839 8.51742 179 120 62
-1.36533 1.10804 9.0036 183 119 55
-1.33699 1.14616 8.92687 188 129 53
-1.33699 1.14616 8.92687 188 129 53
-1.21636 1.36727 8.52516 161 108 56
-1.21636 1.36727 8.52516 161 108 56
-1.42544 0.945283 9.24791 163 103 49
-1.39962 0.998501 9.16694 169 108 51
-1.39962 0.998501 9.16694 169 108 51
-1.20245 1.37215 8.51559 177 121 62
-1.70361 0.390459 10.1947 180 107 38
-1.57955 0.661598 9.78766 161 95 47
-1.20831 1.35003 8.54393 178 119 59
-1.20142 1.3647 8.52249 183 124 64
-1.46908 0.840746 9.44373 185 118 48
-1.18952 1.36031 8.52269 170 115 61
-1.43887 0.854645 9.39705 191 124 54
-1.84006 0.0549632 10.7575 177 104 36
-1.36662 0.997215 9.17196 188 122 46
-1.18595 1.33928 8.56491 186 128 64
-1.38645 0.95036 9.2491 190 124 50
-2.17436 -0.538315 11.9431 163 97 39
-2.14903 -0.494036 11.8569 174 107 37
-1.17871 1.33769 8.56448 180 120 58
-1.5105 0.74297 9.70948 173 102 46
-1.30465 1.08897 9.01948 175 106 49
-2.15804 -0.538107 11.9462 142 81 34
-2.13034 -0.495772 11.8549 144 84 34
-1.1406 1.38279 8.48566 174 114 60
-1.50701 0.709063 9.7455 172 103 44
-1.50434 0.716892 9.73756 178 109 50
-1.82529 0.0132269 10.8407 179 111 40
-1.94973 -0.212968 11.2935 140 76 32
-1.94973 -0.212968 11.2935 140 76 32
-1.12659 1.37129 8.48776 175 116 58
-1.14806 1.33098 8.5741 168 116 59
-1.60988 0.420722 10.1705 175 107 32
-1.47542 0.739698 9.7204 162 100 43
-1.36086 0.902926 9.32415 170 109 46
-1.27822 1.07434 9.05096 175 111 47
-2.11543 -0.535554 11.9459 178 115 38
-1.2825 1.06309 9.0713 180 117 48
-1.13176 1.34371 8.55167 170 114 65
-1.34478 0.923969 9.28783 173 108 50
-1.23602 1.15095 8.9158 189 122 54
-1.63111 0.357564 10.2901 171 102 33
-1.12317 1.35238 8.53724 166 113 61
-1.47025 0.704996 9.75673 165 99 41
-1.11335 1.35511 8.53402 153 95 49
-1.39265 0.807871 9.50706 168 105 51
-1.39265 0.807871 9.50706 168 105 51
-1.49494 0.619606 9.87008 164 102 41
-1.50819 0.586223 9.92749 164 99 41
-2.05221 -0.508231 11.8978 175 109 35
-1.53735 0.490338 10.0991 177 107 35
-1.53735 0.490338 10.0991 177 107 35
-1.35471 0.81565 9.48383 183 116 45
-1.34912 0.827841 9.46705 182 115 44
-1.08776 1.33665 8.56057 190 129 62
-1.66784 0.174292 10.6007 161 92 35
-1.08366 1.33177 8.56661 183 125 62
-1.07374 1.35022 8.5377 186 125 60
-1.07374 1.35022 8.5377 186 125 60
-1.07635 1.33106 8.57236 179 123 62
-1.07231 1.3379 8.5585 177 119 56
-1.06238 1.33379 8.5682 168 121 75
-1.05283 1.31977 8.58433 207 210 201
-1.04284 1.34226 8.54927 206 207 199
-1.04284 1.34226 8.54927 206 207 199
-1.04664 1.33456 8.56376 206 209 200
-1.03597 1.34334 8.55345 214 208 196
-1.03597 1.34334 8.55345 214 208 196
-1.51129 0.37154 10.272 148 85 34
-1.04165 1.31238 8.60102 209 209 201
-1.28433 0.786548 9.54023 211 209 197
-1.27829 0.796665 9.52969 211 209 197
-1.93264 -0.516406 11.9205 211 208 203
-1.77195 -0.221184 11.3354 212 208 196
-1.77195 -0.221184 11.3354 212 208 196
-1.25795 0.818525 9.47868 211 208 199
-1.22165 0.889086 9.35719 211 208 199
-1.14299 1.05306 9.08282 211 209 197
-1.10372 1.12893 8.94065 205 203 191
-1.00036 1.33572 8.56439 203 203 191
-1.00036 1.33572 8.56439 203 203 191
-0.998613 1.34428 8.55927 203 203 191
-1.62088 0.0460499 10.8358 209 209 199
-1.91593 -0.523313 11.9461 211 208 199
-0.993196 1.32935 8.57043 208 208 198
-0.983872 1.32958 8.57145 209 209 199
-0.983872 1.32958 8.57145 209 209 199
-0.983872 1.32958 8.57145 209 209 199
-1.2346 0.810032 9.4984 207 205 193
-1.6456 -0.0613725 11.0216 212 210 198
-0.986553 1.32048 8.59691 209 209 199
-0.986553 1.32048 8.59691 209 209 199
-1.20027 0.864554 9.40775 213 210 201
-0.981131 1.31316 8.59789 208 209 201
-0.976392 1.3213 8.58382 211 209 197
-0.976392 1.3213 8.58382 211 209 197
-0.969006 1.33515 8.56184 211 209 196
-1.10701 1.046 9.08361 208 208 198
-0.977089 1.30962 8.60117 211 209 197
-1.22914 0.793422 9.5437 212 210 198
-1.4968 0.191491 10.5285 208 208 198
-1.20827 0.8133 9.49504 211 209 197
-1.58223 0.0225043 10.8876 214 212 200
-1.21003 0.808558 9.50329 209 207 195
-0.958794 1.33075 8.56763 203 204 198
-0.958794 1.33075 8.56763 203 204 198
-0.962601 1.31002 8.60137 97 150 182
-1.88429 -0.582595 12.0597 211 208 199
-0.955957 1.31726 8.58177 114 156 181
-0.950685 1.32131 8.57855 178 196 206
-0.950448 1.32106 8.57786 178 196 206
-1.11315 0.983504 9.19853 208 208 198
-0.942435 1.32368 8.57002 203 205 202
-1.01289 1.17307 8.84785 207 207 197
-1.01289 1.17307 8.84785 207 207 197
-0.935665 1.32543 8.57116 161 184 198
-1.17884 0.790676 9.54128 155 164 133
-1.06484 1.02858 9.11071 167 164 155
-1.33754 0.506514 10.1772 211 208 199
-1.16259 0.806516 9.5091 211 212 194
-1.32763 0.504463 10.1482 207 204 197
-1.07175 0.995823 9.16821 77 75 62
-1.08005 0.974847 9.20485 161 157 154
-1.16644 0.775332 9.56174 198 201 184
-1.01918 1.07821 9.01689 160 158 145
-1.55179 -0.0633262 11.0522 211 208 199
-1.58608 -0.146261 11.1915 210 210 200
-1.50069 0.046799 10.8755 211 211 201
-1.21369 0.694729 9.81434 112 114 100
-1.78377 -0.554668 12.0186 196 193 184
-1.1485 0.781162 9.56969 81 82 66
-0.902132 1.28985 8.62665 210 207 198
-0.878494 1.33929 8.53892 207 208 200
-1.59698 -0.205309 11.3062 210 210 200
-1.59698 -0.205309 11.3062 210 210 200
-0.998732 1.06375 9.03141 207 207 197
-0.888005 1.29785 8.61265 193 190 181
-1.50923 -0.041232 11.0287 211 211 201
-1.12838 0.784491 9.55502 94 96 85
-1.01782 1.01477 9.12521 207 207 197
-1.53344 -0.10879 11.1294 210 210 200
-1.48755 0.00317969 10.9584 213 211 199
-1.48755 0.00317969 10.9584 213 211 199
-1.1194 0.794592 9.53221 89 93 76
-1.46698 0.0453576 10.8835 213 211 199
-0.981318 1.07505 9.00864 207 207 197
-1.12421 0.778168 9.57272 90 92 81
-1.08651 0.850695 9.42627 200 198 186
-0.869714 1.31254 8.58433 187 187 175
-0.867547 1.32097 8.57928 190 190 178
-1.11722 0.785526 9.55208 107 109 98
-0.872685 1.29557 8.60259 211 208 199
-1.45445 0.0456869 10.89 215 213 201
-1.71956 -0.523787 11.9549 208 208 198
-0.847881 1.33706 8.54505 197 195 183
-1.09266 0.803405 9.51046 58 61 50
-1.58179 -0.263181 11.4329 189 190 176
-0.865268 1.28406 8.63699 195 193 181
-1.44987 0.0243737 10.9329 210 210 200
-1.50352 -0.110466 11.1396 193 191 178
-0.857418 1.30722 8.60821 195 193 181
-0.858936 1.29639 8.61619 194 192 180
-1.04027 0.887203 9.36366 195 195 183
-0.973027 0.997468 9.15641 195 195 183
-1.59508 -0.358005 11.6294 194 191 184
-1.4505 -0.0677024 11.0813 209 209 197
-0.814446 1.33226 8.55247 202 200 188
-1.70406 -0.586579 12.1026 200 197 188
-1.70406 -0.586579 12.1026 200 197 188
-1.51099 -0.212006 11.3385 180 180 170
-1.51099 -0.212006 11.3385 180 180 170
-1.1409 -0.270239 9.65646 208 206 194
-1.1409 -0.270239 9.65646 208 206 194
-0.986872 0.941636 9.26422 207 207 195
-1.06472 0.785 9.5785 31 30 25
-1.6904 -0.604641 12.117 204 205 191
-1.02772 0.837715 9.46204 32 36 22
-1.38642 0.0226034 10.9535 199 198 194
-1.65771 -0.560739 12.0661 206 206 196
-1.64112 -0.537923 12.0124 202 202 190
-1.47232 -0.214084 11.3391 196 193 188
-1.13323 0.35452 9.92507 142 145 128
-0.987514 0.876243 9.39973 168 193 213
-0.987514 0.876243 9.39973 168 193 213
-1.48478 -0.253588 11.4286 205 202 193
-0.96663 0.878487 9.38606 177 195 205
-1.61106 -0.546309 12.0407 209 209 199
-1.40051 -0.112467 11.1777 201 199 187
-1.09079 0.624147 9.93013 134 139 98
-0.949503 0.889987 9.36422 214 212 197
-0.949503 0.889987 9.36422 214 212 197
-1.54367 -0.435923 11.8064 206 206 196
-1.59571 -0.550396 12.0506 206 206 196
-0.93949 0.898715 9.35677 210 210 200
-0.956885 0.828477 9.47775 38 35 26
-0.961013 0.818159 9.50164 37 36 31
-0.961013 0.818159 9.50164 37 36 31
-1.37709 -0.134458 11.227 201 201 189
-0.724851 1.34421 8.53579 203 203 177
-0.824078 1.10909 8.97236 196 196 184
-0.824078 1.10909 8.97236 196 196 184
-0.711173 1.36046 8.50844 198 198 162
-1.28043 0.0172066 10.9879 60 59 41
-0.921346 0.834365 9.48502 212 210 197
-0.899509 0.872885 9.39816 206 206 194
-0.916053 0.832651 9.46864 206 204 191
-0.916053 0.832651 9.46864 206 204 191
-1.28272 -0.00693773 11.0166 106 106 82
-0.823404 1.03647 9.09086 206 206 194
-1.31393 -0.0911034 11.1649 199 199 187
-0.793532 1.10694 8.978 201 201 189
-0.89851 0.848693 9.4443 206 206 194
-0.898655 0.809987 9.51365 73 65 54
-0.678221 1.32392 8.58458 207 207 197
-0.678221 1.32392 8.58458 207 207 197
-0.82839 0.964946 9.22654 214 214 204
-0.805797 0.981386 9.19922 210 210 200
-0.652801 1.34198 8.55724 163 174 132
-0.647493 1.35115 8.54333 96 106 71
-0.79252 1.00277 9.16834 211 211 199
-0.64443 1.34434 8.54701 136 148 102
-0.753948 1.08164 9.02433 213 213 203
-0.857735 0.824714 9.48197 209 209 201
-0.857735 0.824714 9.48197 209 209 201
-0.963976 0.599392 9.96547 161 164 135
-0.854707 0.816466 9.50676 112 114 92
-0.854707 0.816466 9.50676 112 114 92
-0.644707 1.32354 8.59874 208 208 198
-1.01349 0.37166 10.1836 82 82 54
-0.968054 0.704614 10.1308 147 150 123
-0.707446 1.12812 8.9606 210 210 200
-0.608637 1.35873 8.52766 104 119 90
-0.747391 1.01956 9.13707 190 193 182
-0.818913 0.839489 9.44927 146 150 125
-0.771039 0.959745 9.24126 140 141 109
-0.829232 0.809253 9.53755 132 137 117
-0.829232 0.809253 9.53755 132 137 117
-0.821978 0.817118 9.51777 109 114 94
-0.793201 0.856369 9.41858 147 150 129
-0.683373 1.12364 8.97323 191 193 182
-0.776631 0.87671 9.41943 145 149 126
-0.749177 0.922542 9.30463 135 140 108
-0.787809 0.820989 9.53042 133 136 119
-0.671353 1.06806 9.06164 101 103 79
-0.720883 0.928009 9.30046 114 118 101
-0.720883 0.928009 9.30046 114 118 101
-0.699749 0.957273 9.24567 139 145 109
-0.5455 1.34212 8.57024 181 183 170
-0.83916 0.642008 9.92074 123 128 105
-0.731458 0.856415 9.43461 118 121 100
-0.694544 0.942658 9.2717 166 169 150
-0.683966 0.948395 9.26597 120 124 101
-0.733048 0.821741 9.54514 131 139 118
-0.733048 0.821741 9.54514 131 139 118
-0.689271 0.863754 9.42877 114 119 96
-0.622795 1.03125 9.13141 150 152 128
-0.660646 0.927147 9.31175 158 164 136
-0.581364 1.12154 8.99941 107 106 86
-0.63116 0.91467 9.33361 161 165 148
-0.477248 1.31132 8.64269 182 186 163
-0.762412 0.606768 10.0181 131 138 107
-0.467977 1.33011 8.60453 74 82 67
-0.60233 0.966787 9.24919 111 118 87
-0.613969 0.903604 9.35929 159 162 143
-0.595547 0.923068 9.32016 131 138 120
-0.688656 -0.278252 9.4926 216 213 204
-0.738307 0.603639 10.0399 94 97 76
-0.537529 1.07791 9.07981 154 160 126
-0.584779 0.935903 9.31318 149 151 137
-0.539762 1.06298 9.09972 107 111 86
-0.719907 0.387278 9.98919 68 67 49
-0.685048 0.678342 9.92736 139 144 122
-0.565673 0.921627 9.33212 166 171 151
-0.680257 0.665593 9.93951 130 135 112
-0.680257 0.665593 9.93951 130 135 112
-0.502943 1.09686 9.05772 107 113 101
-0.564483 0.911222 9.35716 139 144 122
-0.610374 0.808687 9.59947 137 138 106
-0.56133 0.899133 9.37241 152 156 133
-0.673094 0.64886 9.97348 153 156 135
-0.490981 1.08856 9.06956 111 115 98
-0.490981 1.08856 9.06956 111 115 98
-0.518128 0.976244 9.26333 129 132 115
-0.584369 0.809106 9.60639 128 129 95
-0.451694 1.15423 8.96538 135 134 103
-0.531944 0.910384 9.36571 126 128 106
-0.480478 1.05808 9.13249 97 100 81
-0.440858 1.16818 8.95569 78 77 59
-0.503869 0.935661 9.33093 112 115 96
-0.52899 0.866774 9.45997 68 70 57
-0.52899 0.866774 9.45997 68 70 57
-0.369545 1.31576 8.65754 205 205 193
-0.362676 1.30366 8.67371 208 208 198
-0.362676 1.30366 8.67371 208 208 198
-0.456471 1.04451 9.17077 141 144 117
-0.48322 0.951884 9.30447 92 97 74
-0.48322 0.951884 9.30447 92 97 74
-0.483149 0.948147 9.32172 103 107 82
-0.44757 1.05671 9.16108 135 138 111
-0.521401 0.125363 9.31291 67 66 46
-0.62755 0.222212 10.0162 212 209 200
-0.436567 1.06757 9.13299 112 115 96
-0.506 -0.0566526 9.20401 76 73 66
-0.506 -0.0566526 9.20401 76 73 66
-0.504453 -0.0835092 9.20423 78 75 68
-0.564698 0.600175 9.83793 92 97 65
-0.318918 1.34091 8.61152 211 211 201
-1.08033 -0.798406 12.637 93 95 81
-0.327697 1.30048 8.68781 214 212 200
-0.305398 1.34119 8.60933 211 211 201
-0.30499 1.31376 8.67542 213 213 203
-0.499282 0.709404 9.86176 94 97 76
-0.486799 -0.346293 9.46935 79 76 69
-0.486799 -0.346293 9.46935 79 76 69
-1.00526 -0.803929 12.6823 193 178 111
-0.492116 -0.431013 9.58099 78 75 68
-0.392167 -0.106995 9.05934 80 76 67
-0.419581 0.409047 9.59406 65 61 49
-0.443176 0.648374 9.90236 85 86 72
-0.361313 -0.195886 9.07746 78 74 65
-0.398246 0.39074 9.56111 66 63 48
-0.398246 0.39074 9.56111 66 63 48
-0.416763 -0.402709 9.61287 202 195 153
-0.339318 0.441303 9.55888 58 56 41
-0.331881 -0.211296 9.26831 74 69 63
-0.31293 -0.156244 9.25009 75 72 65
-0.378679 -0.436348 9.64714 177 176 145
-0.300341 -0.0763228 9.24606 67 64 57
-0.294935 -0.0309175 9.24766 63 59 50
-0.288682 -0.115346 9.24587 68 65 58
-0.353413 -0.395453 9.61596 74 74 66
-0.280216 0.267144 9.34649 73 70 53
-0.281498 -0.135732 9.25223 69 66 59
-0.269737 -0.041883 9.23289 62 57 51
-0.264271 0.0992906 9.25798 144 138 122
-0.275564 -0.263891 9.27291 76 71 65
-0.275564 -0.263891 9.27291 76 71 65
-0.271729 -0.256113 9.26888 75 70 64
-0.256798 -0.144687 9.2369 66 63 56
-0.250909 -0.077865 9.23292 56 53 46
-0.25341 -0.241098 9.25988 75 72 65
-0.251408 -0.253068 9.27323 78 75 68
-0.30109 -0.411709 9.62196 77 77 69
-0.227306 -0.0725325 9.22007 54 54 46
-0.24464 -0.320033 9.33652 79 74 70
-0.283233 -0.428376 9.60044 77 74 67
-0.223226 -0.193663 9.24587 74 71 64
-0.232189 -0.281638 9.29698 78 73 67
-0.218976 -0.211068 9.23829 73 70 63
-0.221049 -0.216387 9.25915 74 71 64
-0.209748 -0.222948 9.24981 74 71 64
-0.220848 -0.304093 9.3231 72 72 64
-0.199481 -0.202928 9.2458 69 66 59
-0.19895 -0.239263 9.26195 77 74 67
-0.190823 -0.211781 9.24622 74 71 64
-0.152497 0.192119 9.13472 61 58 41
-0.198164 -0.28398 9.30724 74 71 64
-0.17893 -0.188448 9.23558 74 71 64
-0.179772 -0.226946 9.25261 75 72 65
-0.167552 -0.226963 9.26227 77 72 66
-0.217942 -0.46606 9.58313 71 70 65
-0.120447 0.193499 9.10318 76 74 53
-0.146679 -0.110593 9.2 70 67 60
-0.120315 0.304887 9.17311 58 57 36
-0.169254 -0.237622 9.33944 79 74 68
-0.151378 -0.176477 9.23626 77 74 65
-0.16883 -0.302913 9.32455 74 71 64
-0.172122 -0.346858 9.36031 81 78 71
-0.172122 -0.346858 9.36031 81 78 71
-0.142203 -0.164481 9.22333 80 82 79
-0.142203 -0.164481 9.22333 80 82 79
-0.134361 -0.124853 9.20549 78 77 73
-0.144929 -0.231363 9.268 117 119 116
-0.153128 -0.295739 9.32334 79 80 66
-0.191263 -0.454646 9.58881 81 81 71
-0.183169 -0.478311 9.57919 78 79 74
-0.182694 -0.478232 9.57722 78 79 74
-0.0921102 0.0796449 9.07725 153 150 133
-0.125174 -0.20063 9.2422 190 190 180
-0.125174 -0.20063 9.2422 190 190 180
-0.13724 -0.28704 9.31534 203 203 193
-0.171038 -0.458223 9.58269 208 211 204
-0.118137 -0.226849 9.26361 183 185 172
-0.129016 -0.296264 9.3412 163 163 155
-0.171172 -0.518842 9.59877 87 88 83
-0.0661351 0.134867 9.04733 92 90 65
-0.106034 -0.212452 9.2504 210 210 202
-0.0610195 0.333419 9.13902 112 105 86
-0.103588 -0.241138 9.2679 209 209 199
-0.0537427 0.241093 9.07083 55 56 42
-0.113124 -0.298013 9.33585 205 205 195
-0.0861593 -0.155677 9.19738 204 204 194
-0.151777 -0.549682 9.61053 193 190 183
-0.0979565 -0.264061 9.30398 207 207 197
-0.0655047 -0.0875703 9.13188 200 201 187
-0.138748 -0.491738 9.58171 214 214 204
-0.0416761 0.0798036 9.03569 170 167 152
-0.0597467 -0.106618 9.14728 168 168 158
-0.0822282 -0.257428 9.29163 220 220 208
-0.0562519 -0.145109 9.16404 210 210 200
-0.0251803 0.350665 9.14112 88 83 64
-0.0251803 0.350665 9.14112 88 83 64
-0.0235193 0.100996 9.02221 166 167 153
-0.0235193 0.100996 9.02221 166 167 153
-0.073665 -0.280417 9.34878 208 210 199
-0.00850213 0.180737 9.01857 74 73 55
-0.0323405 -0.0694263 9.11661 208 208 196
-0.0415388 -0.159876 9.18407 214 214 204
-0.015032 -0.0729442 9.10282 204 204 194
-0.00491268 -0.00178022 9.05013 201 201 191
0.000982963 0.0187257 9.0402 198 199 185
0.0195252 0.13009 9.00066 62 59 44
0.0195252 0.13009 9.00066 62 59 44
-0.00551719 -0.177847 9.18167 198 198 186
-0.00609301 -0.198956 9.20176 201 201 189
0.0350945 0.324464 9.08061 87 81 65
-0.06259 -0.532052 9.58413 206 206 194
0.0129434 -0.128902 9.12268 202 202 192
0.00200611 -0.190386 9.19434 198 198 186
0.0201885 -0.0919584 9.09852 196 196 186
0.0350854 -0.0411803 9.0591 199 199 189
0.0522219 0.137782 8.98794 171 169 154
0.0109929 -0.222452 9.21933 202 202 192
0.0558314 0.108317 8.99172 174 172 157
0.066407 0.177846 8.98812 139 137 124
0.0244429 -0.205121 9.20347 204 204 194
0.0634875 -0.00474218 9.02913 191 191 181
0.0823501 0.157896 8.98172 171 165 149
0.0904557 0.199109 8.98261 134 132 119
0.0841454 0.0610801 8.98803 193 193 181
0.0841248 0.0540682 8.99503 193 193 181
0.0835421 0.000974985 9.01227 194 194 184
0.0955925 0.0185058 8.99275 194 194 182
0.100961 0.0876552 8.98055 191 189 176
0.107218 0.209522 8.98423 134 131 114
0.114375 0.191476 8.96985 169 167 154
0.117428 0.180913 8.96923 174 172 159
0.125371 0.193167 8.96815 180 178 163
0.129591 0.104391 8.95726 195 195 183
0.133015 0.16026 8.96154 196 194 179
